ply
format ascii 1.0
element vertex 848
property float x
property float y
property float z
end_header
8.42405817420561 46.32335263254393 -0.22238382738092444
9.14405870408956 48.0290134676873 -0.1827762453023623
9.11688764808401 47.95018035081792 -0.1917136046019266
9.099345917461529 47.8819640833777 -0.19953063491684359
9.076310996884622 47.78587427034171 -0.210553926738843
9.051020562907386 47.689309430908985 -0.22165349775446536
9.024123272907765 47.59029929223954 -0.2330649451951952
8.945344854421595 47.28428936365445 -0.14207511581569746
8.776961210478367 46.94625272255967 -0.16976411206455538
8.931325806777384 47.19283317929408 -0.14946776243100054
8.90990421633024 47.093578025874585 -0.15747838699055186
8.888191710607568 47.00438740058321 -0.16468697704584676
8.851296791797566 46.92038150608372 -0.17155081353022916
7.974870906607776 43.391946268851626 -0.19650737030108567
7.91889158395269 43.171758076981305 -0.20675152359079985
7.857951518446298 42.93222730928453 -0.21796577146784216
7.787387625340834 42.64366516908277 -0.23138779660552614
-0.06370731229521631 17.434801812059334 -0.22145366022115182
0.04194632870370363 17.338054852704545 -0.2221092683227789
1.5067421180269882 19.33192971137647 -0.19659841996597469
1.6211387454050739 19.31726565592489 -0.19621455632453816
1.2222907877650115 17.077615329409518 -0.22021912641204652
10.577724977538768 60.51846358977891 -0.10170641809708195
10.523057754218264 60.39159176668582 -0.098214773973928
10.643009044822074 60.498028887452634 -0.1015988874956964
9.33357589909497 55.597637902039466 -0.13899093384720268
9.310111225575431 55.499191629257595 -0.1329277059724716
9.288520345867536 55.41260940003392 -0.12760478022356653
9.267948832172012 55.335865921682135 -0.12286597797422835
9.246899232355988 55.24513855223178 -0.1173043855500154
9.21670499461453 55.11081826699336 -0.10906798053492889
9.189669084944224 55.00821405480999 -0.10275537641139448
9.164363978032707 54.90542699330866 -0.09645492947262845
9.139054858821769 54.79655253537301 -0.08979470983249432
9.116059362344345 54.714420695998506 -0.08474882413262697
8.731461360856612 53.158900139149004 -0.07239496788806436
8.704350888388836 53.07134605194899 -0.0643144895105628
8.79549630028314 53.159906177805134 -0.0721839691632539
8.701388407041145 53.037511279566964 -0.10008919619036968
8.680305067311227 52.960507336900584 -0.09517801361386206
8.657861842602417 52.86588227718998 -0.08540095379348886
8.63757614472554 52.76816979064104 -0.10542000933531329
8.618634515841897 52.65783487892853 -0.09166063365849904
8.594854818219165 52.54768268718429 -0.10393037720111512
8.573287136570677 52.45947069317304 -0.09721269356695957
8.552648822870054 52.391892203954086 -0.10237398228970598
9.050507698368314 53.418102978461675 -0.09695827300267215
9.040931458718205 53.38442016293175 -0.0937026711818217
8.893345505288899 53.13111228543973 -0.06926310457007526
8.545120218922618 52.34576146130853 -0.06915917700202227
8.527627636117955 52.277256805121056 -0.07463326886536002
8.488838591121715 52.173213645063036 -0.10601106323117311
8.468278536999277 52.0782056866109 -0.09147444892295525
8.447247689656855 51.974657066029465 -0.08800880028916638
8.421879251816211 51.88554796687966 -0.09040156922876534
8.391888873430087 51.78279834760661 -0.09271304383557585
8.364304549532307 51.68684544947667 -0.0930391972877775
8.34591494958715 51.62173534693253 -0.10451214156555044
9.031398734672557 53.344774538144755 -0.08988988293627245
9.013192798181358 53.25535734521583 -0.08130586348970686
8.980465843107618 53.15312952011951 -0.07147205066559158
8.966794378670741 53.110406653701666 -0.06737029810476028
8.062433140055731 50.58941445177891 -0.10177226216840203
8.052091813453277 50.52807186399719 -0.08257456607200697
8.026622195822261 50.4509045582491 -0.08324309584356597
8.05610925576383 50.50157062187568 -0.08818956021397514
8.027283561077345 50.419643218219726 -0.1006252390686098
8.003466503707495 50.32633971339652 -0.09041591678702107
7.977416679668444 50.22322744483659 -0.09442039951697477
7.955411780150455 50.13760365112251 -0.08519479814388731
7.928988677085581 50.036444738263754 -0.08749267978565728
7.902775653604104 49.937355350904284 -0.10041353901114379
7.885894951515487 49.870379034183046 -0.11896583798966605
11.91199003497681 60.1881114363524 -0.10330453993735943
11.993243021179872 60.1658154427268 -0.10345093541568183
12.094054042350287 60.13697225905396 -0.10361211073789632
12.160792944369051 60.12364465571409 -0.10387722623604465
12.160477010547133 60.01803514178156 -0.101319474713481
12.053555595811186 59.61285373024253 -0.09062975155926878
8.399305511922437 50.09302988014215 -0.09855887435879225
6.730314316211787 45.415621368630624 -0.12425075037140945
6.697757983200577 45.28203411787028 -0.13040100757375023
6.663877089063954 45.142643653722175 -0.13687003094717679
10.941933708037924 55.15158174742143 -0.13883692514477752
10.899170339036885 55.01968631183247 -0.13047630313830524
10.846495419849958 54.86816467786452 -0.12079246123352166
10.859853764293268 54.82522760041866 -0.11875684656135642
10.172027014370867 53.117350099815425 -0.09709156240329679
10.155061643068716 53.04755218775841 -0.09040201566935467
10.125950337111671 52.93971341209472 -0.07995522946104973
10.101308796148398 52.837209931415195 -0.07018626979205825
10.920793450148736 54.79303521649047 -0.11854989609920376
10.162064247285183 52.80795831782313 -0.07056869518024154
10.979283551847605 54.77407771184316 -0.11903841945782045
10.261563360847525 52.779528945768476 -0.07311214511587262
10.205405528518238 52.544590588168795 -0.12498059260765787
10.185391815039138 52.4875070537127 -0.11735048512619707
10.166544680129762 52.42156192840394 -0.10888185852373097
10.327172688527444 52.74775025856333 -0.07394327004794714
10.309780229725014 52.65026878475862 -0.06530465292211005
10.28664328240106 52.56243842708396 -0.05717172480996095
10.254979232293268 52.456212841674756 -0.047196055666392886
10.210021143904708 52.371685083376086 -0.10287466318708477
10.214550956111236 52.26526024741484 -0.0964683615778328
10.198968385702218 52.20911001346771 -0.08952537482365704
9.26372923495599 49.85921533024908 -0.08853672006541927
10.186594615090105 52.1584148547558 -0.0834456996054487
10.165977658508183 52.06920627971554 -0.10465279729740727
10.144906671965405 51.96917920793069 -0.08730856586555699
10.123523467434016 51.87605855331503 -0.08097926604640635
10.096682087485862 51.77413534837809 -0.09287516610102439
10.070230963027038 51.676540389607446 -0.09944121443605615
10.045357675867654 51.582694771531735 -0.08733646928630369
10.017130442460694 51.48149448999898 -0.09509127174157014
10.011916082907996 51.433735402245745 -0.13099545222562986
9.312216023148705 49.838899689504366 -0.08858082327739253
10.030407008293695 51.4584671390296 -0.05048339858718666
10.011684917909614 51.41984215179254 -0.1292621437158802
9.964668005847846 51.25538302929508 -0.0954453340672051
9.94769797224995 51.191553208216305 -0.09163016029721711
9.934182476366058 51.122396384465375 -0.0988859594724418
9.679638006987275 50.180383691050366 -0.10884663695076671
9.649588227429879 50.11713801321423 -0.0876156994295478
9.625850817729637 50.030045084082964 -0.0911891239452728
9.598555729800047 49.934860733160555 -0.09118864532438781
9.571366021029032 49.83366157549672 -0.09806154301029597
9.547591146415451 49.73884246972668 -0.08991549615427043
9.521717103313962 49.64346582195531 -0.08002756886819068
9.497328669265283 49.54789486386148 -0.09338473302052848
9.475039084942408 49.47398890647377 -0.09494399246736857
9.498701836878915 49.52196487815623 -0.09745763848777228
9.477989416976685 49.45621419952036 -0.13360929084058765
8.531179115968547 46.72292668585842 -0.04311663868789463
8.499100501538368 46.56776018696184 -0.05031116246725322
8.473441229070097 46.476209280251986 -0.05456693506370117
8.44045203047791 46.39975204669648 -0.05821903414737658
9.121227115268958 47.95430771613641 -0.08839896101055017
9.098771744678603 47.87833060579555 -0.09443262388734411
9.070710323202684 47.76584986751872 -0.10340026893116246
9.044943312033515 47.671983975043325 -0.11090568804065815
9.017919120458457 47.56639359360972 -0.11937503571442722
8.995203327827921 47.48524057851334 -0.12588338990521528
8.977095954964822 47.405581986854465 -0.1323032954001207
8.958166437989014 47.31604468244932 -0.13952570891735522
8.346756021822555 45.8618558112197 -0.08302079051581183
8.322010648961061 45.81270149616408 -0.08537063950438879
3.7425426363687233 32.96299870390983 -0.05238078040693256
3.797896801041139 32.919797846803 -0.05262565685931578
3.862188388746665 32.90750397534407 -0.05239201079701862
3.922791146022706 32.88199273272153 -0.052448017674555585
2.4789198285348633 27.45249639613616 -0.11198345370966878
2.4083944633361014 26.89102922901042 -0.11790149713102456
5.034143461547117 32.631426598868906 -0.0506553819316973
5.12921290571123 32.606881982147755 -0.05055572370729405
5.188610991249735 32.58829211141206 -0.05062032087201107
3.4988454311582666 26.590960497069467 -0.11661713991994646
3.5849838376638177 26.577774020233544 -0.1165472654830971
9.43975738361529 56.02557284927485 0.016288003381846317
9.41411768747568 55.93340988956881 0.018718919186255557
9.38773923514711 55.82724333818996 0.02148361185076183
9.36071667887526 55.70497808871147 0.024668405756138045
9.336638430300802 55.61455296865833 0.02702803173152724
9.31397986692786 55.52993380950365 0.029251762457975002
9.291716111191134 55.43525480299694 0.03170770586362634
9.475457916574987 55.75415626043593 0.02286548486621216
9.269949416996146 55.34044458832578 0.03417914842104178
9.238476008885705 55.20209854782862 0.03776735049265633
9.210107520759376 55.09751126464682 0.04049818849591762
9.191503876581981 55.01432692788511 0.04266231076010239
9.166120636153133 54.91039359547408 0.04536120710523166
9.141801540655068 54.82833471395092 0.04750792629802586
9.117897914997547 54.72511159888904 0.050186321902814315
9.907434910530935 56.68955373771475 -0.002799531283648898
9.79487217490689 56.274875800065075 0.00815579015114726
9.569842130803524 55.752669018116066 0.022401523795717634
9.651463770787245 55.715783162630075 0.02285833553778413
8.732337171306312 53.16007154975923 0.009137986157820497
8.706610023611383 53.0706858826149 0.014396545017503357
8.81150249474313 53.176907681600284 0.008235093602706849
8.798899696418982 53.16533606856651 0.00890886701997522
8.693010001903152 53.023571224098134 0.017154804747086177
8.67944671833641 52.96268755124365 0.02072416974654376
8.655437768532288 52.847398475666054 0.00739656701845939
8.637106511405985 52.75904361281579 -0.001476182036741121
8.617696040643539 52.66129209907462 0.008228404450987447
8.59728368978683 52.56181409300167 0.015509942351421467
8.573990489438792 52.46909145636285 0.01792273807834413
8.549409531493788 52.38193878001641 0.025817011081019074
9.055978048827352 53.42193048324517 -0.007008427327847466
8.894099889997273 53.135838345117676 0.010642406105521285
8.546586565101606 52.35002084467624 0.033809515397539645
8.528512663093451 52.28523533523056 0.012286992418954486
8.49355858211382 52.16623796358282 -0.005739600679687039
8.47316518790683 52.08187326956771 -0.0009891129555002279
8.457931893832969 51.971947318854106 0.012330613363881554
8.421762711554848 51.87342076024862 0.008453687167918637
8.392194533431473 51.78355650657404 0.008565263855231577
8.364372127426654 51.68938690024081 0.014139248929780225
8.333604933381121 51.64314440936499 -0.01810591093279671
9.036904487313507 53.351433683819025 -0.0026952002868816053
9.01415314562113 53.258536942937205 0.002969146385102507
8.986731948027078 53.14346502041049 0.009968158181024662
8.95939880825515 53.110318125938 0.012038344497745806
8.046205025861502 50.523035363675085 0.0033984588472762553
8.026426106215473 50.44893576323991 0.006310263104480444
7.9941867566974505 50.376261965067535 -0.026924098748841527
8.05229802924237 50.493585119575684 0.014142552990338685
8.02701599443239 50.415871537802296 0.023917712180009636
8.005902528224478 50.325362062958526 0.01135972641389682
7.984572106850182 50.23226201503064 0.009178909069667597
7.9575576826893935 50.13117972260029 0.01700022726711773
7.933173677752912 50.03494656194185 0.00933292127235364
7.907603905642314 49.93623741386769 0.00019719479591654007
7.887016034573968 49.888893557027465 0.023934387220741083
7.339662077682821 47.28168163706846 -0.03514318995872047
11.053067250981423 56.69027144371051 -0.011423848619299994
7.450730644519696 47.2779928060704 -0.03295998886191271
7.40018847057732 47.28187143161749 -0.033845478965263645
11.076032994867928 56.563799574944525 -0.008593582280033922
11.160109089555348 56.547542083512425 -0.008976010740977019
11.24643310113272 56.53539851813185 -0.009491945661145564
11.271671230337644 56.485865815375064 -0.00855519770784019
11.233787370435154 56.33722792651051 -0.004650381730620619
6.121039176160745 42.95592833972867 0.055718003061433125
11.20453528343507 56.213111457567216 -0.0014233948723511806
11.18197639119487 56.107741523458515 0.0013024412484600218
11.145783283181256 55.97120440492054 0.004889925285143174
11.112776707823627 55.84405443079478 0.008232076384561632
11.08520891582427 55.73194729363468 0.011154130927829272
11.059283990895056 55.62554615516167 0.013932654620741908
11.035840558144244 55.52675959466433 0.016497085704267462
6.04401711181053 42.65417783925323 0.052410892799791095
5.973703336239998 42.36495521896447 0.0493235974523095
5.900783050878997 42.061969949569374 0.04602101793715901
11.011741681919405 55.42814949757998 0.019071045336163422
10.984526489263223 55.32433737589389 0.02179020332268458
10.955796867964475 55.21890007957699 0.02456969069242597
10.93523407040521 55.13388826907151 0.026776966184619604
10.874789589999887 54.96367763519132 0.03140131978115557
10.857070888164149 54.88823606773471 0.03335302277614353
10.859411554527878 54.82169384827378 0.03489272471008288
10.172123497907698 53.11615866199027 -0.007313373688134024
10.155974913094171 53.04796599017267 -0.0031806287486203944
10.130505901592475 52.94688908427087 0.002978196784662143
10.106806190493202 52.83792007988369 0.009494171228926724
5.810223958321155 41.7016621428446 0.04214861024423599
5.7221931438309745 41.340650494155526 0.038207063469096324
10.924863654992876 54.798768059464905 0.034742280635129866
10.160703905060709 52.79702259059009 0.010105952876914286
5.624386822825253 40.9428984042207 0.03393840887678368
10.98503608425801 54.78306326231299 0.034473582359904706
10.256245686021257 52.77781329679379 0.008206234269594966
5.203812669901467 39.44282773175179 0.01741501193542138
10.326184676486845 52.75939062453817 0.006926164210783402
10.314238988456601 52.66208002463707 0.012241226279299099
10.29535364265093 52.57317211777055 0.017325023166666762
10.255494827915069 52.450684652022744 0.024750327359831514
10.239747946050098 52.35737570764636 -0.0013059643955023268
10.216130131362014 52.27048920755099 -0.0034948868624383516
10.193405233282814 52.19560317179449 0.0015123769184403712
9.268386141336146 49.86843267874767 0.008616946022842962
5.2259386069740135 39.37867861303731 0.01686664011107329
5.1797917026364075 39.101297089793874 0.01401371348624018
10.22002051130454 52.25588357858041 0.03543481413273373
10.191415027146643 52.160036687502185 0.015105095791721809
10.168615673736129 52.06713168747966 0.014862622414958684
10.14852623647627 51.969933294562836 0.02453836092628801
10.12449621831334 51.87790127081589 0.025368529430149674
10.091572612395888 51.77080401030593 -0.010371848425895225
10.066380245129372 51.68209207514835 -0.0028204185888080864
10.041568258855305 51.585133213643275 0.004376958003503704
10.008891152345946 51.485625065813956 0.01318366084172629
9.326129821438794 49.84631033594163 0.006525059851309996
5.2459398954725405 39.09475581142129 0.01425284988053151
9.994391410190554 51.34807173977611 0.04319697908864122
9.970423757335338 51.281622915053035 0.031106532429275836
9.948054961278931 51.1901991855345 0.02259236418953576
9.94698651474248 51.11676766186927 -0.013992491340545764
5.350308503482838 39.0613369724582 0.014421889076307239
9.650304866817086 50.11702582226908 -0.006253452515599111
9.624724450814044 50.02514657436133 0.011808659166331684
9.600054510711892 49.935150242058825 0.01614358309392952
9.570982801663439 49.839440389292214 0.007852336031564506
9.54662313410341 49.745132360819525 0.012447135696506951
9.518917177334675 49.64365043554721 0.016620173519546054
9.49213176911305 49.54377812096565 0.0070099943839864245
9.47465425919526 49.48300521737443 -0.023848284769430204
9.486236807712404 49.480252674475274 0.027318249407774338
8.622019102603085 46.99062552295897 -0.030573906620428516
8.59070482165605 46.88332663544071 -0.03558141706659153
8.553651207220039 46.79885132926775 -0.03958756658634383
5.391433046201532 38.74440229944734 0.01151460037040447
8.68163834622992 46.967907887009254 -0.03134232853028339
8.567874497718188 46.79930580511922 -0.039472886657140764
9.121219796544326 47.93888271286559 0.013193334809460645
9.098521078359138 47.86773485775609 0.010010443578602262
9.07520894910614 47.7734434531207 0.005772551658678777
9.049803232458748 47.672682190009915 0.0012321041238561679
9.022732638855029 47.576791412396666 -0.0031018696548991784
9.000297015338095 47.47281442084106 -0.007814931418133487
8.976248132118343 47.40096390794199 -0.011076499402354143
8.950721168552482 47.28833065155055 -0.016198451098026305
8.92411756570109 47.20086364671491 -0.020187435668891994
8.775107463570402 46.9291243064266 -0.03278858220466154
8.902363004857092 47.08545834202047 -0.025456014359472843
8.886166313441134 46.963957083846395 -0.0309739708270434
8.850232425196316 46.91921877922571 -0.03306752914183159
7.707652287803772 42.323850167675154 0.055633821239759296
7.263393949355281 41.21161765817075 0.04312969273000791
7.62548206027257 41.98841158884785 0.052033455547514894
7.416922323323653 41.30080300525412 0.044442661211479294
7.34140579426912 41.26152834815072 0.0438721232157741
7.456033928096148 41.330854786571855 0.04488469727900936
6.564144351097255 38.76756572825168 0.016241738010332983
6.508160434907557 38.71973007778096 0.01563352193102197
6.624545711340954 38.73825304172578 0.016150645978844375
6.816849363275225 38.957229055434496 0.018956607929649007
6.739430958673875 38.77226366113635 0.01680796074451983
6.687862933206201 38.7310876932725 0.016288704047269516
8.729292800845858 53.16032177749152 0.09043586184405723
8.698426243770262 53.050708287370384 0.09320890593443792
8.79685960114694 53.16698750559118 0.09013187321249427
8.700344374684809 53.03384496711765 0.09362756404964077
8.675131117875067 52.94780638316984 0.09579192871720107
8.653059978146612 52.85595355842046 0.0980902784350043
8.635149540994664 52.75809909470478 0.10052119271576777
8.618429706659496 52.65490176542972 0.10307441751061554
8.599857939783973 52.56316716347618 0.10533366247541397
8.575942925574704 52.471896532151476 0.10756502505646975
8.551077682856125 52.37661673787185 0.10987172044084374
9.052691568260403 53.42684215550843 0.082844859547724
9.038336765403981 53.37511794323558 0.08419454678896135
8.87009911743717 53.15620718268552 0.090217465722468
8.897142501537642 53.132117166840835 0.09074103039696473
8.549753725695643 52.35751725120679 0.11033639837865418
8.526834819911036 52.27535049897384 0.09054598302356781
8.49181077632008 52.16815238749639 0.08877190965784958
8.472460820704246 52.07616550995307 0.0918315294725771
8.455564760306778 51.97422875490629 0.09714659698141441
8.418081430312599 51.881416820507 0.10040315182395908
8.389863123462774 51.78484031596665 0.1013890085674532
8.363463955832893 51.69550185831048 0.10582454193500365
9.024420233410853 53.32932434231785 0.08539330923158578
9.010810337739915 53.25147910504201 0.08738529935588046
8.979666827348433 53.164088127293525 0.089677211233674
8.9705702203292 53.10793271375377 0.09111249112630564
8.044221928902434 50.51234019795721 0.09670357198284098
8.023631456718059 50.443603149604556 0.12190178636850138
8.048267041493974 50.48449941101751 0.10080436806576759
8.028726490786987 50.423884049393166 0.10712007607022368
8.001992894777132 50.327474760986796 0.11133292899894444
7.983045471644758 50.2293209320729 0.11046913155815942
7.956838673128985 50.132152343649075 0.1064777663627861
7.9286715457567425 50.03438331933204 0.10695579275080243
7.903714752192951 49.94329300823263 0.09920313611184264
7.98995028871218 49.98852940848887 0.129472994710755
8.17640864569519 50.14765131373888 0.09427216568615528
7.369303349076745 47.31654337784858 0.10350770449889997
7.343501315420772 47.29317478408844 0.10313815881840803
7.431327323172936 47.288026774333204 0.10367626466155537
7.404090800539945 47.28558090522903 0.10347742732444218
6.74542334527123 45.45715757939771 0.08263410569701231
6.711108094664975 45.319817420126185 0.08118522941990808
7.434117059875632 47.1895275945543 0.1027993604126662
6.668718150389145 45.15998215627931 0.07943213606364544
6.631864784331897 45.010877473970666 0.07785856850651786
6.595319103859934 44.8596261252816 0.07621633594226679
6.552709252535466 44.69144762956991 0.07443129085520317
6.508422496261957 44.517612698391765 0.07253109239271613
6.459676342387119 44.326230494569934 0.07049117545648001
6.404348470235292 44.10966435577279 0.06812152861435779
6.355697396630095 43.90772562397361 0.06598171767208134
6.304960807532829 43.69817202729498 0.06370051899416437
6.242410120509486 43.452517025113885 0.06107027588838681
6.185717489900982 43.21764285320357 0.05851251378072404
10.171896138530581 53.104810893749175 0.08225499824011502
10.149435004908216 53.02512765771027 0.08434879161896834
10.131782955791186 52.94799922525982 0.0863288544896682
10.107221541299618 52.84551326145155 0.08896743049254985
10.162982429557609 52.807357837680875 0.08920775792218062
10.261899924434717 52.78562109606694 0.08853016564749393
10.32593905680138 52.75130086741295 0.08850847250311673
10.311351837165619 52.65085612416654 0.09091149069503394
10.28705628290569 52.56155187923117 0.09318075484756323
10.252016979936167 52.45689221221167 0.09591541515928537
10.243307742142543 52.37442762254866 0.09780797985234552
10.218302672127239 52.27308986663739 0.10030779233949272
10.189731362029553 52.1831524610246 0.10260137714136697
9.265635650453362 49.87172100280097 0.10138466002223319
10.211805712889023 52.22685939449142 0.10137376519448558
10.187090874770233 52.15314621679529 0.10326465888700019
10.164934197173952 52.07736330521679 0.1051512640801212
10.144571652586949 51.975736901840655 0.1075228115645104
10.122204602783397 51.86142278207662 0.10039123149738376
10.095122245394466 51.76932068240854 0.08726008181018818
10.069649581983615 51.67825871144733 0.08890040307707427
10.04493626071643 51.585602513147826 0.0966602055770167
10.01543255335077 51.49157438370401 0.09422547668326611
9.332224265753043 49.855817182181234 0.10164858930644542
10.018898003670348 51.44672323494213 0.07800537666998066
9.96821936403878 51.25615084128812 0.11974602795886959
9.953577788223813 51.198497111097524 0.10768419310056486
9.649363719899359 50.098180242389866 0.0942514192847596
9.629430007345581 50.02948447270285 0.09844210348067385
9.604519908711149 49.934996563924535 0.11397959771649487
9.573160747897115 49.83718726020264 0.111169360355213
9.545125865640983 49.741391075475505 0.1104781777152563
9.523486906849664 49.64059265408581 0.10915090127771544
9.495367740187879 49.54802059946758 0.10422969711102066
8.620921885030402 46.9899223981627 0.10560363352683996
8.590660884050735 46.89347134694188 0.10454957963441285
8.546206035113897 46.804698785610974 0.10356634205744229
8.506433213124458 46.704593464206944 0.10246079307564686
8.4687315212401 46.57519798755558 0.10104482076336077
8.440396131746258 46.47391770128626 0.09996358595128958
8.68023798462494 46.963329280384045 0.10540335783695176
8.567204600535765 46.803402566071455 0.10359590612987032
8.412385750026722 46.38076401417472 0.09892908597394169
8.342848881755144 45.98042884098371 0.09467950294892978
8.307210996792618 45.84402011861611 0.09317865078171433
9.09933579726828 47.830113711263934 0.11458584062062893
9.079786503730453 47.776878845986424 0.11403341943246034
9.05438175117169 47.69196477754874 0.11316175993200993
9.027435032890912 47.5939485637153 0.11214966784547793
8.999474686694624 47.477496119298245 0.1109351641201631
8.975412520639237 47.398581934608444 0.11011261450083688
8.94998907253312 47.29884406860854 0.10906953569088479
8.929909856796078 47.21517404802904 0.10818428459975854
8.774453125826774 46.93560482142957 0.10520046641154765
8.908237102118402 47.100614408831895 0.1069893260024433
8.884684986578266 46.94417747959621 0.1053542446258513
8.849187814402113 46.91639610611408 0.10504358281243575
7.911134292668041 43.130848169958526 0.06441575799487188
7.848420519460455 42.881234970749475 0.06167990108446209
7.780449543444735 42.612219707813 0.0587954978251314
10.554651330751591 60.48851745144128 0.24003847360096853
10.705472963305436 60.56851372610989 0.24074610869585933
10.621923361102803 60.47936876014499 0.23992641961795025
10.47441090017004 60.19550570126691 0.2372563784165254
9.69356629941226 56.890896640854706 0.2057344655428953
9.613903550042243 56.73961369638538 0.20435997855028848
9.57722486418708 56.58454759888333 0.20290349018023773
9.542216356163319 56.43531260690228 0.20148252131682387
9.512338082498356 56.323645384132185 0.20044466232694627
9.757295148820717 56.884082479246565 0.20557521474601653
9.79658076568255 56.86415731577111 0.205341322359133
9.483051443488792 56.209890921643584 0.1993663020968083
9.45491014008211 56.09993965352734 0.1983442102092303
9.426834874650833 55.981934509047875 0.1972243316619388
9.399481887328067 55.86777941910538 0.1961612262263258
9.37352792329052 55.76151621325651 0.19515557581654086
9.349422128852877 55.67506290382955 0.19436115185740996
9.325056953585879 55.57657867380088 0.19343156530313588
9.301915084023738 55.47389654432289 0.19247692801537683
9.866357699173928 56.85576248980096 0.20519040843040587
9.877740999632387 56.835306104993386 0.2049731977975222
9.279630336037421 55.373149965479435 0.19152277492167333
9.257917493897624 55.27627697993532 0.19062369118109643
9.238229026872423 55.20331304584186 0.18994086800114096
9.218741820468255 55.124232550404784 0.18921488073427845
9.191043912337506 55.007472929314254 0.18812578623312665
9.165841121062678 54.90651583948943 0.18718902998724055
9.141200666421824 54.8164041729232 0.18636814749243455
8.734135247452917 53.156823245829564 0.21211636140546294
8.716238943807113 53.0920964327857 0.22351585756305517
8.798267733460689 53.155260463705936 0.21157228457267047
8.706341851402115 53.04808330955009 0.2038348845684828
8.684313270684468 52.96401294940747 0.2073229544512148
8.659290801672814 52.86505822619115 0.20486485528284573
8.636575000077316 52.761834178721664 0.20534669273293113
8.617858071562047 52.660079848621095 0.19970498663155736
8.599629598101341 52.557775790954764 0.19485794192257427
8.580370044185797 52.4662075979931 0.19730911439588372
8.552966012871465 52.38191765364582 0.19301542836402202
9.056722276296442 53.41741858810802 0.17271650778409858
9.042917584067466 53.38871489797715 0.17247283182465414
8.893957774831067 53.12594427030123 0.2119456473213461
8.574195312417642 52.427796811137235 0.19404659302810742
8.54992073404159 52.354124709273755 0.19259152151281703
8.529208947433673 52.27345117860963 0.189031210992411
8.492642464997312 52.1582530070264 0.19990547728677552
8.473550494399046 52.07678469672774 0.20620116636906208
8.454420956148047 51.975585986969215 0.2026067653700329
8.42077142229482 51.88048408149296 0.2017756320030116
8.392791776529183 51.78480047246899 0.19561012550405882
8.36971014151099 51.70139440548469 0.19750364050515531
9.028553497392245 53.32395685789459 0.17187322075104888
9.011258704800309 53.252621791263195 0.2132946207909398
8.99060498232216 53.15156977261842 0.2104655560280461
8.96097119544262 53.10326885176222 0.205702895473467
8.049078973472092 50.51217491136282 0.2096937071324368
8.031051449210036 50.46314145400423 0.23319296469178347
8.001993296889788 50.37712783320762 0.24741557862198535
8.051360123319355 50.49093486158976 0.18493441483349585
8.031492829959905 50.42260572363698 0.20091871427470917
8.007667024921332 50.3280490393953 0.20974521038314636
7.985895256505282 50.2334821278271 0.21195319480804908
7.9629846392171455 50.132925107205196 0.19624212907998986
7.935207211845523 50.03003632435472 0.20077421903429268
7.912520067860316 49.93820641392903 0.2072057905439408
11.933635173633679 60.15282967146425 0.23794896026379347
11.978916932272423 60.12682269956166 0.23781760431604027
8.18562894259317 50.153922551750114 0.17050102791269586
11.773697647373245 59.18180806320756 0.22883110032929618
11.88695831572718 59.184494495372775 0.229134846240813
11.836249004839196 59.178648817432574 0.2289569894388244
11.91127023302435 59.16540091257408 0.22903900872635718
7.422248152062119 47.300344847001774 0.23997563982405115
11.073976717273526 56.56089378896293 0.20366167234619642
7.461280068075611 47.270222434770794 0.24038858055115475
7.447498391633284 47.20224041287192 0.24204009417409666
11.14441411306368 56.509092369806 0.20342037845283129
11.254224925130423 56.5291968453799 0.203957539937482
11.228933047214076 56.50332409929851 0.20364544189106976
11.251866253461644 56.41160174572583 0.20293971208001518
11.212688928267632 56.26129693180767 0.20150944493893205
11.178192808020931 56.126243006050174 0.200238908930708
11.151313062715815 56.01181957387099 0.19916196329238406
11.120995586396036 55.89004674215575 0.19802185686937687
11.093769652356366 55.77779751371469 0.1969649209693993
11.059461925450279 55.65105776392769 0.19576973619411991
11.036262327919648 55.55217197358425 0.19484371545642776
11.009194179818003 55.44613481112672 0.1938530821592715
10.987886267362958 55.355019293019474 0.193001932743171
10.962708301460028 55.256759221643364 0.1920859206640472
10.934373858218535 55.15332027375815 0.19110601697358112
10.905827396242607 55.05206453619562 0.19015257570720068
10.843163031242877 54.878433724229964 0.18844954435602662
10.852547376724601 54.82630352821633 0.18806640378018966
10.164233894657588 53.119750515273964 0.17111693998723126
10.148745734634973 53.03904850475897 0.2047551835237325
10.123788788494002 52.94236241203021 0.21114050928400838
10.101580075471043 52.83581304267157 0.20834266335982257
10.92069717447429 54.79226948489831 0.18810622048058837
10.159938695304152 52.802806231724524 0.20843826632038306
10.98083473397455 54.77651599958057 0.18827931380570695
10.257281684000795 52.77893370740094 0.2094789661000553
9.20236025485028 49.88761890899091 0.24122741317174196
10.321272914212658 52.752073211255514 0.20995650831982024
10.307190792884848 52.66163933999915 0.20435415443001298
10.284628739534105 52.56840395221608 0.2098163234366725
10.24403102079281 52.44651590647097 0.1974252186199849
10.23392830920701 52.36435862029965 0.2064243344200658
10.21077959904517 52.27197186216668 0.20093569316232376
10.18588019349847 52.182882791191474 0.19102320242954274
9.291468493937206 49.89382219524914 0.20493604681898106
9.25562442836504 49.885491207209796 0.19932462292039854
10.179015860481579 52.14208731895601 0.20167835847912866
10.157197597700593 52.069790872571055 0.19368633440453198
10.13513920072688 51.970664386189654 0.18899996921222414
10.116481467094705 51.87438224588911 0.19091090179427436
10.091207989597574 51.7775729557212 0.19078787557035173
10.063641399725048 51.675835763265844 0.20375735796661823
10.040150814789076 51.58394397752698 0.2071712747137914
10.01688656789171 51.50061571955071 0.20332415442307483
9.981177653786887 51.35683132023058 0.16037709245309004
9.966758991111176 51.31436521670571 0.17881018673622065
9.335352862059969 49.877013588577476 0.20662906454411542
9.356900343478209 49.85632550184135 0.2200875507154266
10.023435775111286 51.45891261749996 0.24466330159763988
9.990497212651205 51.3560663503023 0.16050202344993353
9.968964244870897 51.28474206805276 0.1820419382025073
9.951435809576317 51.2057229747259 0.19877583407881383
9.95288526448782 51.12383602659258 0.23033385675240603
9.642073798311026 50.090184161265384 0.20305588806058703
9.62636798826537 50.027195727897045 0.20862533590714716
9.600405356519023 49.93118029849417 0.2115917371249943
9.573041415236457 49.843101192983745 0.20976974965540593
9.544964136783637 49.739469426454626 0.1975572251133994
9.520919941137423 49.641141596882804 0.20080473074963126
9.500697075331454 49.56786875893526 0.20071221031791717
8.629107465818631 46.9971307637541 0.24151747988786712
8.600956991380595 46.91953997305328 0.24345487608099786
8.688547648779739 46.9727991266847 0.24200694821034635
9.0705281949699 47.74207126213316 0.2229113194798192
9.049600932858707 47.68167389136709 0.22438426767676134
9.028012913427638 47.596425679654615 0.22646756148643174
9.000060019033647 47.48934330882545 0.22908539767967154
8.969887260718936 47.37648715977143 0.2318539048375278
8.944050268633937 47.268818604459845 0.2344960654901916
8.924060368268925 47.20617001474517 0.23604506869829328
8.782496036617905 46.94385153384975 0.24257534969327782
8.90926322002343 47.11452585331159 0.2382780867760626
8.84292363135219 46.917592327878694 0.24314992989882656
11.181048279707904 63.01286629255179 0.2642404188868685
11.265760579795277 62.996628045557586 0.26405708007456097
11.37178105253411 62.97703762773972 0.2638675336868797
11.45239018974252 62.94872160509483 0.2636045693257452
11.556524619464973 62.92298039902551 0.26338856288856755
11.658312889210606 62.884586947037114 0.2630619257673447
11.743605823904645 62.87154957948836 0.2629860985853455
11.8466848849738 62.84475489022012 0.2628032257797094
11.950401707747098 62.820337276769344 0.2626654334957712
12.034366328573169 62.80135902886025 0.2625726860118666
9.304549079007126 55.4873349650556 0.3549653859066499
12.138553499974588 62.774343697659596 0.26244418067586944
9.283351371823159 55.404639365277895 0.3512558240220968
9.261531568489682 55.30787121710443 0.34693759195880025
9.240565816338673 55.21504192270656 0.3427802764558771
9.211503819234048 55.096526653042325 0.3374955104114498
9.185426835768073 55.00376364789868 0.3333684815585992
9.159944704227518 54.896875275067565 0.32860462200226676
9.134684235722384 54.78788208014988 0.3237511229865585
9.118960781432477 54.72041825736732 0.32076208868907125
9.104099869216007 54.664917875524424 0.31829324799544423
12.243717587111353 62.755494320577775 0.26240341139749856
12.345023539309008 62.72146441171241 0.26223556118507907
8.730929944729057 53.1629319323504 0.3345376256772704
8.704537814328011 53.0694393744907 0.3275059525866069
8.686584073841683 53.0093228734057 0.3230322503335822
12.43235199836726 62.71386776742659 0.2623163974401382
12.46839678954894 62.69088577506364 0.26215090890852605
8.798990091319737 53.16437474179634 0.33381784123907865
8.70193716428937 53.036616835532186 0.32494507739213185
8.673943873581532 52.94334750381567 0.31803047386060307
8.654849888274597 52.856064601801336 0.311491832856222
8.635200230932474 52.76781787341414 0.3049391244154393
8.614333666394307 52.65272801521575 0.31232294630899166
8.594684084143646 52.560426767353036 0.31859718134913306
8.569942580233885 52.468295727753855 0.31634077060362126
8.55455677350357 52.394559097787884 0.30208932034157887
8.524889173753184 52.303236280810836 0.2718060947519976
12.553561644892676 62.66765973954898 0.2620932059503106
12.510754087010719 62.678356608936596 0.26212658413224516
9.050184433729536 53.42750512124379 0.3532332216304606
9.040057090792502 53.383669690151855 0.319946656020547
8.9065900919025 53.14266442681181 0.33109913502136423
8.891745371193002 53.137436198287546 0.3307989730935249
8.545990776469619 52.348684458056276 0.30222805342709635
8.527454744494284 52.28709572737501 0.2989283650390777
8.492489965729948 52.170434920479735 0.30952749204007973
8.472271267215492 52.07367880076067 0.320172622924561
8.453960043366537 51.971671691511034 0.3095260439358154
8.418400741823937 51.87664739974233 0.30547913673927485
8.389177498064091 51.783824950942346 0.3116041015352369
8.364973144103594 51.691197010520455 0.30377897141360466
8.343784085931759 51.63974236432984 0.29895931685896715
12.600649170450481 62.674264703825386 0.26225819855818483
9.03437330017587 53.35146666878963 0.2595239958719306
9.012775827869508 53.262523974724076 0.3401406971986872
8.972141718407661 53.15123915966222 0.33140386004043726
8.972285434711944 53.109623897080034 0.32806836374910703
8.04934879478004 50.51627339442686 0.3087327739749785
8.026674142924602 50.44699660998181 0.32154086926052405
8.055781074833638 50.49926647715928 0.3097911295377591
8.030418371863943 50.425214535491726 0.30777506243366576
8.006279802608693 50.3288754992788 0.3104474907365202
7.984639583396864 50.22566659276196 0.3160517444119499
7.956056414514562 50.1354733307506 0.3050392042256254
7.932434930636648 50.04136635396973 0.2919423740203007
7.90569093151768 49.940115480914955 0.30529788079034287
7.889018054150996 49.88126898967937 0.31531122157590113
8.243027971099895 50.175980936009154 0.31408883793771947
8.119319158166736 50.07418438225827 0.2979421762573743
6.753208567527928 45.500858124824475 0.28629006703475235
6.728499214706723 45.38772450722512 0.28905618768487634
8.576628323408505 49.976595194881234 0.3094363378224626
6.696197856460358 45.25395987649567 0.29239858063567314
6.66033840798209 45.108818298278635 0.29598510961460145
6.626175821485448 44.965180594813106 0.2995730583863217
6.580488256073277 44.789675923351915 0.3039325419895093
6.534916949202488 44.61415498099889 0.30834376045346557
6.49119990278201 44.440186848213294 0.31265674328110343
6.445758811666797 44.25191190077136 0.3173640790456308
6.39468427291738 44.04453268680341 0.3225024631493001
6.340365376769173 43.827742959283334 0.32793888717891034
6.2819309958884855 43.595558753483814 0.33370645208676086
6.228501067438111 43.37222927748352 0.33929427155955444
6.172530810153878 43.13720470662081 0.345113580089672
6.093031193021412 42.83207596395409 0.3527851638110219
10.934500321439165 55.1506238890447 0.3558871008305642
10.912594857491518 55.064008879757104 0.3520116045593618
10.842497868332885 54.87418734130923 0.3430933198033068
10.852963810903534 54.824527438751325 0.3413159137620837
10.172470212677776 53.127733602207385 0.3146563805524116
10.15499204888776 53.05287959658141 0.31539140418655054
10.129070864562854 52.941663230568054 0.3360444303635924
10.10219306203188 52.83529028711998 0.3276623386412157
10.922826630180156 54.793976274153735 0.34148519637358227
10.165256680620171 52.81783163881921 0.32908259441268234
10.976318004268055 54.7652375113991 0.34145298630196896
10.261474743665847 52.79132205056403 0.33152517940743587
10.327645838454817 52.753119718743065 0.33212982233068533
10.310426225323702 52.649030094927845 0.3247128494615735
10.291812993240608 52.573448504663624 0.31908020398712245
10.256325603012282 52.46193384730892 0.3104306103957086
10.240858999302143 52.36586096605967 0.3038328715910636
10.215275847816072 52.26080462708055 0.30430326573819705
10.19338517286559 52.19138882695519 0.32289227700643247
9.996643664944033 51.7814446878614 0.3296187549601347
9.980872163683191 51.72149361223305 0.32289871518021135
9.95171598568827 51.62643973226547 0.33388811549149433
9.923065519350692 51.54841622151319 0.3234196507277502
9.291536994010825 49.9009986091334 0.3111684437478538
9.30426505173527 49.881230637328215 0.35491087184485937
10.1878637961636 52.15519284274256 0.31975136127038806
10.17130349783131 52.072922564860214 0.3113017911586712
10.147264313374738 51.97730401770176 0.3018658927425627
10.121972050626143 51.877941898899536 0.2781835497255414
10.097138802082709 51.770282241852584 0.2667420740375253
10.06116489916644 51.69399619235686 0.3005350361378864
10.041444661044903 51.57917112489189 0.3165944426558292
10.013645869206528 51.49036990879275 0.308192093256952
9.983582612559388 51.35755896348757 0.3569961292418103
9.437258848025571 49.98016033525671 0.3100624241231313
9.331830971762372 49.87693279667628 0.305503873093927
9.355741166682542 49.85310640373887 0.30533123740313717
9.986562745950769 51.34828197655709 0.3567791479748548
9.974208694993212 51.287720821503214 0.31295710695468737
9.946535763085041 51.191974296787954 0.30224710343964223
9.941234743348568 51.134594846189955 0.3352764087729096
9.459090273615265 49.97163147493419 0.3309922497958908
9.456657540078023 49.90866186727695 0.32212926466830166
9.483774439841818 49.786113081824936 0.3423781658521558
9.438034266051988 49.70460723210759 0.30759716305246093
9.651471267767981 50.10675166568108 0.2981732054295225
9.629684744308566 50.02937096218038 0.30025580729415347
9.60354471021899 49.932858687687855 0.31000615948675503
9.571328917207431 49.83127487493146 0.31286311766950636
9.549979096557077 49.7352781200089 0.2885589868487392
9.524019876807886 49.63884378105965 0.2950074841305412
9.503098360421074 49.57586169405541 0.3065669540772167
9.054676071389968 47.66845020383796 0.33670181685386474
9.027393761143323 47.58423316647254 0.3416897886045555
9.00521950742221 47.48629022271656 0.3475064839623299
8.98133202995602 47.403479455078696 0.3524333945599409
8.962623403220913 47.332751177967324 0.3566400355501913
8.39547550521592 45.05330222455556 0.2893363185544253
8.362760065584528 44.938159430891574 0.29218613776310726
8.101050095557476 43.762041571699584 0.3214133559854362
7.9996429723912446 43.487923192707186 0.3283203446358038
7.945380506782454 43.27536817579137 0.3336544761092179
8.174615194988549 43.74402639794753 0.32167133256145186
7.882966150805476 43.01562711975064 0.3400984522699036
7.816272777832832 42.74846147834104 0.34679871849208266
7.743633235789403 42.454021925701454 0.3541157670629111
9.685964372905065 56.89838760012482 0.41848871994906417
9.61715820232914 56.74971421137952 0.41169856077737194
9.581638202951302 56.60673506019634 0.405263648846473
9.548290894016747 56.47555782125883 0.39934060055965964
9.515924027850648 56.34015590578735 0.3932566273330207
9.80945574478504 56.865411903686095 0.4173977244678967
9.757799510130017 56.87349652244331 0.4175851317841578
9.48544828456028 56.214587847263026 0.3875965601429037
9.457444515571261 56.10674088571524 0.38275571014214843
9.430509052918131 56.002795008631665 0.37807294819823634
9.40374708851838 55.896725603078686 0.3733191122958759
9.377038779378655 55.78261226417837 0.3681885628369432
9.351071383300642 55.6723446141941 0.36325379512879175
9.327547360234421 55.58591789497969 0.3593699326944979
9.883683712596687 56.86161857057181 0.41752503301695604
9.83813081739769 56.84130710777585 0.41642973176781467
9.121233374080946 54.74384374606034 0.45833388003393366
9.105543380348937 54.664559895302716 0.4520048289968947
8.732250980298357 53.1598778683561 0.4162074154212651
8.709949245097283 53.075145231785775 0.4069331907757157
8.80030555009059 53.16002227477742 0.4151576887681627
8.696637755544288 53.02527757333975 0.40150893518307507
8.68019915201555 52.957458906866215 0.39413655061416747
8.656101916706596 52.84953467272218 0.4142924437039228
8.634389487664144 52.76078285832559 0.40741407057237194
8.616753796205016 52.667189431148415 0.3992026872750529
8.597180072076457 52.56229147110557 0.41414389596559553
8.571049285528664 52.45049377796456 0.4185002745657889
8.550671465032572 52.381393846845306 0.42548761968201815
9.051249113540397 53.43064799427747 0.44444120069122905
9.0414504713751 53.38908584028678 0.4396747257783372
8.923583798818433 53.13793552651392 0.4112731095886309
8.884759245704323 53.13859157061597 0.41168366552884983
8.548533345483447 52.34735469545749 0.39752253905064516
8.528016346363229 52.28666284009141 0.40632780223103737
8.498528019998034 52.174915518583575 0.4189673396078268
8.476137849520292 52.0762035072476 0.4141562930797355
8.450984730609157 51.97123624010559 0.4034417401139864
8.42357912781831 51.88328327798829 0.4041844327285732
8.404827442136815 51.77654871385383 0.40556175402057243
8.376671697369707 51.68434062650312 0.39394505369846167
8.356944004194904 51.623042339284 0.3940046594921353
9.027218355728785 53.32671709208205 0.4325131102927907
9.009394484333269 53.25236951876239 0.42399466586855594
8.97620403412201 53.141010386308174 0.4113012454514336
8.965324158722439 53.11704967566537 0.40859280197456094
8.073009779281199 50.57895524986495 0.4085584195819403
8.065038846860025 50.54405433393764 0.40466622920876505
8.015094263972397 50.41075986856087 0.36094477566283395
8.06142777219521 50.5057920480461 0.40006164465440885
8.040574680352233 50.41797600400587 0.4027174040011781
8.014603344813843 50.329555315213895 0.40483908368699695
7.986652653371776 50.22787074336397 0.40884046418399234
7.961627480866371 50.125389213541816 0.4206931848477239
7.936391435097912 50.037664739984386 0.39087442428434455
7.907880559027583 49.93588170871643 0.40937284399338747
7.89039274523499 49.87540268902076 0.40055920056896427
8.023891313862011 49.98458826624792 0.38550664616811137
8.276405248999009 50.21096042573712 0.41357949196204113
11.048194721693676 56.70468918730895 0.42160009100648316
7.4201152277180835 47.29878943771179 0.3765963892014578
11.075381880086866 56.55966499136321 0.4159407343995689
7.439979636916269 47.187835435274515 0.3822757538920229
11.111248517216916 56.41733383439903 0.41057942716240275
11.255889200613868 56.52885019631141 0.4174849765877631
11.271511731908628 56.51186272348163 0.4170376969575132
11.20093176763813 56.40940272096001 0.4116849724626843
11.210557355032753 56.251956760647204 0.4053840242873662
11.18063532420121 56.12811754089913 0.3998281468740929
11.146852851862324 55.99720127329449 0.3939089409459965
11.11493401286212 55.87188531583726 0.388265568061903
11.087653143227799 55.75977031631425 0.3832308729199066
11.059627632962968 55.647854239667886 0.37820644811735404
11.03802268004671 55.55272979002661 0.37396759809325847
6.027091922391961 42.55834875713645 0.35957434938511995
5.947685156579402 42.240667630873794 0.3675444406153277
11.006134863331749 55.4358184186431 0.3686787596051955
10.979933143628102 55.33384867854264 0.36408775116281517
10.955507102133826 55.237537384310784 0.35977048553315116
10.170914763336036 53.119014799457965 0.44000613708904507
10.153739439385118 53.048741687387995 0.43198644192872726
10.124416393946571 52.94051914664465 0.4195016592061599
10.107862078488733 52.84423871556254 0.4089699778740844
5.868529678465295 41.91670193626576 0.375594394859166
5.790254270299149 41.588269837739915 0.3838162650185488
10.16982183934566 52.81679478230946 0.40992890326917414
9.026537182806923 49.896739574357355 0.4111533536823491
9.004549942604369 49.88275681314482 0.4063804414480234
5.6884642896322966 41.1835244889411 0.3939015845984665
5.572802947584494 40.728664033465655 0.4053268335122436
10.264973935134368 52.78842274534723 0.4131568641360659
10.327493038679993 52.75194909577306 0.41387497489274966
10.313088334789665 52.66479958659083 0.4048677475449741
10.286733439349893 52.57221761612528 0.3946100307743363
10.249468253479073 52.45231086447649 0.41732917949577225
10.236205857240533 52.36181021314144 0.4043289236120377
10.214552732483515 52.270335950471924 0.39850743380496134
10.18672533793325 52.18807134330473 0.4172907878714153
9.99034121357416 51.78224121387849 0.42714533272953287
9.974529472894252 51.71834399616017 0.41411096543582027
9.939489302816588 51.61556478708605 0.4054632992513107
9.917634904081082 51.54774194673403 0.4082268090781687
9.884290573389066 51.450337055734146 0.42765934159598945
9.288363941048779 49.91796512640967 0.39866591298790355
5.188925550036901 39.193946550343334 0.4436797495592895
10.182200548690812 52.15128779574407 0.412796577815119
10.160294727548239 52.064179685650274 0.41944179210895133
10.141012994174469 51.97910091006031 0.4118314550618088
10.105261075051517 51.90640281836343 0.4121952997766617
10.03319593432736 51.57648343214681 0.4056871732656373
10.012421648068447 51.4833640483483 0.4089310830406819
9.988715891046297 51.39588344586887 0.40952164138494085
