ply
format ascii 1.0
element vertex 829
property float x
property float y
property float z
end_header
-0.9623594810642109 15.214644030745811 0.10574144817656407
-0.9787913892382036 15.131733012189256 0.08472271060378708
-1.2360612545961716 14.46043183560352 0.08386823097315171
-1.2816208965493145 14.36836449200108 0.08926865340763498
-1.3067240867194598 14.287574528860784 0.10336443832851022
-1.3297983781703813 14.209811602473255 0.08725997988792716
-0.9819131114504788 15.095254091511368 0.08680553585689477
-1.0040390014237426 15.012797148406715 0.09112139079014588
-1.0268575768327437 14.912541112981001 0.09631295599271295
-1.0506052471705507 14.814044256580257 0.10120316286372721
-1.0783542349239201 14.718511575308105 0.07946082243139513
-1.104625744844473 14.622655977065788 0.08209081892569853
-1.1234546531700262 14.52260450123387 0.09066482723642966
-1.1926324451634185 14.451620006588874 0.09167906210344694
-1.2536502591426095 14.361083091451674 0.09625813363250886
-1.289394093596363 14.251640573763714 0.0883538429442865
-1.3188587662497921 14.164589876640788 0.09885975879453143
-1.3401739271245074 14.068422935260127 0.10106989981013806
-1.3668354460749652 13.972230296393114 0.10254261524811212
-1.394320449505191 13.884718083158756 0.09373972570628843
-1.418813973602598 13.811367502802192 0.08113024483139927
-1.4590709837843128 13.635844252622594 0.13043664470051058
-1.4584223588432976 13.594790761895098 0.1041679216686103
-1.4869661782375465 13.525709264561801 0.11861131981668739
-1.448866467191398 13.563660946345298 0.10932300795770838
-1.4235311803806228 13.462715768311282 0.10988067135454688
-1.4443216722857701 13.38550216664976 0.1125285500230829
-0.3615879202629235 16.0049048749955 0.1206025440793393
-1.3745880904421726 13.503049967189492 0.11853455028521824
-1.3813096528425972 13.483297177064438 0.12125562307343614
-1.3907980407688891 13.341226954150724 0.1065389983795909
-1.6449657888759233 12.539031762065365 0.078742746390255
0.08176818309851942 16.919462121250074 0.09131614281931714
0.02581947989022655 16.682814241788844 0.0988411131865451
-0.2627394657220949 15.90935734937493 0.12348526512633302
-1.2877987558055042 13.316716393402658 0.09669016731834348
-1.6265918158383768 12.549923834664588 0.10161662620801215
-1.6553372050546307 12.473263535978955 0.08598733538051767
-1.679310819562586 12.379385145812636 0.08603096679235896
-1.7063476945455662 12.284070615810533 0.11556316338445684
-1.7313458233647296 12.190685310884554 0.11296249282300974
-1.7573960500042265 12.090498862348191 0.11011506409693206
-1.7787872488654461 11.993458593015728 0.10741545222125776
-1.8086328888299077 11.893769266501963 0.10429598617532305
0.005522336432679048 16.569489718187747 0.10241644111505005
-0.018744026891710286 16.43552531561513 0.10665027708666326
-0.05237660191786275 16.256240944056835 0.11230747714831887
-0.07684102394139747 16.175199165367474 0.11488859827963278
-0.10015588019610146 16.071277935649995 0.1181728210751224
-0.12112104412112022 15.972176546752848 0.12129610624137237
-0.20315206620260584 15.882811703429903 0.1242236481468148
-1.193345079346303 13.292613099505969 0.10213970180418969
-0.14535129725259802 15.884794064836214 0.12405961250924985
-1.092379034450773 13.2636521784172 0.09352301571182556
-1.0252583766312078 13.165530288742271 0.07566045818613407
-1.0344939637857333 13.099839058125184 0.09837769863918291
-1.0591862480706187 13.000065352619396 0.09364961949765585
-1.0752794276478956 12.933373589936593 0.0882086711552457
-0.8706349606550747 12.710294512198004 0.09400653778612406
-0.8172888938388249 12.670357906682039 0.09565758815714201
-0.8106400864303095 12.581239542772044 0.09340977862643121
-0.8175838050263692 12.519949007051595 0.0783038169814519
-0.7511487226834213 12.5228052274013 0.09221244229260028
-0.7244798322248893 12.4837604882894 0.07723307962535189
-0.706650139539664 12.421361363236356 0.06844473406761584
1.2839822737676883 16.6116944732253 0.09232417637849363
1.3399736396026969 16.563427328957125 0.09314529126311835
-0.32310033732037957 12.155942357577537 0.09927536110917484
-0.3830504026738066 12.119028885739318 0.12139917368382362
1.4394112015828993 16.53944314022403 0.09270183227840251
-0.18095523048985085 12.213567122173332 0.0803306184050444
-0.25510278526299 12.138509771169922 0.10436798164966762
-0.2461831648421443 12.09712127517054 0.09464527266488798
1.4795853532235483 16.502630568603685 0.0932647419680821
1.4660039063763481 16.439749465983166 0.09521333448646882
1.4351923612844388 16.32245925054605 0.09892003327305049
1.4180225796975985 16.2338808026612 0.10164134105713213
1.3886738192932921 16.128159090660656 0.1049968489477219
1.3693625333825532 16.04332539700639 0.10762946816722421
1.3413850470629722 15.935863556414928 0.11100738423812337
1.3157089407917337 15.826653714040447 0.11439698389177852
1.2909899904741138 15.743377634587679 0.11704724463576091
-0.11369931952971324 12.206751791453264 0.08036185096727803
1.284584748122777 15.707351513128785 0.11813777859846346
1.2667917019939667 15.637633801229192 0.12030881721086815
1.2530035969290851 15.575847878040367 0.12220353402159065
1.219986393650652 15.41983074062996 0.12695282837497301
1.2298591512608699 15.382737183342806 0.07036752064274454
-0.060605697151605784 12.156315988196106 0.10334659673707783
-0.04617291779775394 12.120466941136723 0.09649373087743496
1.3151203753859488 15.367601022368698 0.12700551949626632
0.8137296616758611 13.93454290931221 0.0651125649218604
1.4150032325229929 15.342638381924965 0.12617844970379943
0.8352971869546988 13.94557589848515 0.061894152181818714
0.8427077642197967 13.893963623698976 0.08583495371292746
1.4612239084073237 15.308724208248174 0.12636346332527826
1.4406622038210748 15.238299150517516 0.11245388674433915
1.441906758741958 15.156412321656875 0.09501547710397512
1.4225254765051143 15.046809113334174 0.09577293229600123
1.395500559997805 14.952702703904437 0.09508795708057988
1.3671730700968554 14.855712721288775 0.10712642892658043
1.3289620977756857 14.766087590659017 0.11272116311083429
1.2845435525856088 14.672837684654581 0.11186499953795916
1.2711726057572756 14.589987502989175 0.09613533841849613
1.2461062850492282 14.513637987812404 0.0912389396324037
1.269001130166068 14.552745886805324 0.0884291714934072
1.2650497424250742 14.480771209659096 0.09181281332996966
1.2365938925929323 14.369343606081035 0.09793611733045754
1.2185869340559619 14.26674907098163 0.07634994105308579
1.2093182802661262 14.208754753604858 0.08481952280635947
0.1916660514924099 11.29771262693588 0.11274030283693562
0.17402493918519402 11.248111237896111 0.11106398277230872
0.1488346426765944 11.145085383582813 0.10745433049240147
0.12419324794537386 11.047456435738706 0.1040134734702472
0.10107355066565231 10.952712960628293 0.10064772161452537
0.08679417547213676 10.898284592982726 0.09870961626277336
0.07156587964285104 10.843916097230117 0.09677890491503555
0.049069309215433635 10.74128326069366 0.09307173701547747
-6.610907333738765 -9.320037345033931 0.14475579418784112
-6.4929196657888655 -9.355510100166626 0.14480538478346489
-6.414392339140289 -9.38567594550393 0.1448650048011645
-6.327099686929803 -9.38885549542329 0.1449126761818702
-6.25065788250366 -9.428203936972029 0.14494010599062176
-6.1294652795658955 -9.458284973223243 0.1449684758352952
-6.007150415855474 -9.492192750563262 0.1449784926660936
-5.927347099336559 -9.512595265517387 0.14502975047232267
-5.848955403733071 -9.524055576845516 0.14502521478121894
-5.79201417067812 -9.995338507418353 0.1440412740966225
-5.713871257872596 -10.036803295252273 0.14402624074770093
-5.629276253607433 -10.04654906484393 0.1440066903296299
-5.550612722732862 -10.077256696765797 0.14400551165197817
2.099065520850171 26.151143343622472 0.244581911487073
2.2548935551308165 26.134363490393675 0.24454876738969844
2.1880023146127665 26.142530347923326 0.2445695117604407
1.7248993207025496 24.805444986793752 0.2396190087970499
2.317187882032575 26.1022647074102 0.24446793528475513
1.7643648368511469 24.799011600086338 0.23957514693876358
2.4121679708129373 26.23667697160032 0.24500653263171998
1.4457865561266294 23.519190310280283 0.2348811878965023
0.6753856502951635 20.63132884355422 0.22437079952981293
0.8136915609758094 20.72930193884443 0.22465045716807275
0.7244076299662141 20.6252009375999 0.22431954533663415
0.9000510179607877 20.711549506429836 0.22454651789152594
0.5114475133600733 19.609778579854872 0.2206357522774177
0.4663332243707864 19.47647774125207 0.2201665487693049
0.9714167745594097 20.691313085065357 0.22445043387442756
0.4290055059458703 19.30318482646306 0.21955596891477777
0.3973727654104964 19.169422499615454 0.21906816348108657
0.3680212177657968 19.05150192811257 0.2186616549399349
0.33904235764119967 18.933434501780372 0.21823370705872627
0.31146673069387854 18.823259591381373 0.21785676374769145
-0.7489548608965126 16.06180158644827 0.2108287159033582
-0.7639439934970065 15.995092885362936 0.21069877859185693
-0.7841522041345531 15.908555973695412 0.21054858221832676
0.28496484433086106 18.704867551362575 0.21742570441754827
0.259977858698675 18.59638297481931 0.21705281709213717
0.2357013055798266 18.499774294414472 0.21670592580190612
0.212173055362261 18.405104983513745 0.21638620207179926
0.1892847167285247 18.316295753356574 0.21606911371957932
-0.6359178481194883 16.08194249426487 0.2102069229680069
-0.7109549808360163 15.98475562419397 0.21032398100828387
-0.7933918283782684 15.866980702871986 0.21047561748319604
-0.8131910080688808 15.791936606248356 0.2103778767689012
-0.8303787804115926 15.738136288397817 0.21033543288286816
-0.8658460043168467 15.589468513682041 0.21215551774890382
-0.8855470989125075 15.497552500609315 0.2121059367241076
-0.9101400162897785 15.39919455228256 0.2121200022172979
-0.9394681186744381 15.312459167344755 0.21225376118615558
-0.9592203890913309 15.206692670469959 0.20045513856139657
-0.9656228242458383 15.155668575697351 0.18012161235957394
-1.0015035516248871 15.05827826537415 0.2125343824985863
-1.2382877332050617 14.452907221950671 0.19362256297125394
-1.2803413946037918 14.365254898416916 0.19376965549546712
-1.3071589108144668 14.283204214148613 0.19452211766913408
-0.5864915326141117 16.09187370204787 0.2099687464091493
-0.583144147579849 16.056490459935443 0.20982092724368565
-0.9533497425684173 15.16986477279403 0.14760036620014758
-0.9769871896991408 15.102009889884192 0.18234581903796734
-1.00615196994004 15.010855595527493 0.17961664644624312
-1.0305586445976667 14.915211187491655 0.18470950049004067
-1.0519880908342134 14.815813237855824 0.18501325011083786
-1.0788333908092436 14.72186698694794 0.18460031312445263
-1.1027649045926682 14.623477013533165 0.18857118116245933
-1.1210846422308889 14.525080834085378 0.1884116718358451
-1.192771183790901 14.452636584607784 0.19048020614736158
-1.2533039973215203 14.373363424769902 0.18767520171068477
-1.2935299516328136 14.253941621606309 0.19102856828676915
-1.314172231657354 14.166941557033198 0.19528457081742315
-1.3388911604316938 14.069591101434527 0.19597909270477068
-1.365937127310099 13.97254075875418 0.19793985142672132
-1.3967431000290327 13.877545964217887 0.1987068407513707
-1.423044297624863 13.80106350095283 0.20165417688207313
-1.4634444185498077 13.585172690983187 0.17903016590153015
-1.4797539548455183 13.529522416927316 0.179585438617996
-0.4454424543901687 16.040037772085476 0.20906131986823115
-0.4944602437116673 16.00221467920322 0.20915954071784162
-1.1128432213770063 14.477924495776255 0.21407673025266236
-1.1256091416438736 14.447265664871276 0.21435090532541262
-1.4360726129969135 13.62630794667645 0.2258565290263579
-1.4442323913546147 13.567437236624842 0.21595261887452333
-1.4261578935302162 13.459769900798378 0.20317982687579406
-1.4380481256858102 13.393895449140246 0.19992516433854807
-0.37038246794321783 16.017594818981653 0.20864480271398153
-0.3741241613831967 16.00054699441253 0.20859234500869692
-1.3740295735883021 13.502191686971415 0.21121285237575255
-1.3769235544973657 13.486894510603781 0.21743295464241527
-1.405163747159114 13.353376962234348 0.2067110365326097
-1.6448703840012988 12.53122530042161 0.18623185648108867
3.4883269227925253 25.833353107544024 0.24486278853146345
0.08731832053681284 16.91581709153156 0.21082822504165616
0.06786573495849031 16.88476606245381 0.21074502197158615
0.01944941694916734 16.664560566093762 0.2099770708899567
-0.30036500370702424 15.982291731500341 0.20822852576756035
-0.2762996956048121 15.948535933095641 0.20800631896554475
-1.2886079101626469 13.316767993917821 0.2048339783333949
-1.6309737232613757 12.549526041681128 0.18628668838577453
-1.6532187126479505 12.478718529774396 0.18639707924570798
-1.6766931651933856 12.380541986034167 0.18659592224133517
-1.70477103401226 12.278936750821792 0.18672824687523998
-1.7338166992729858 12.180755045378772 0.18680836012868915
-1.7533777622520526 12.090639394377206 0.18692804854190748
-1.782653947581624 11.991671899048953 0.18695975615791344
-1.8036568374579953 11.894536512439903 0.18704320952009934
-1.8366065761375192 11.815814180326212 0.18695165814085613
3.5747876123158053 25.807927349045187 0.24494216655849874
-0.0012636633374490391 16.52115172476626 0.20945826966878073
-0.01858380285384239 16.44560639793221 0.20920365116056547
-0.03586588454155523 16.361986873924643 0.20891898181070265
-0.05701917439780384 16.275627040480284 0.20862668256037376
-0.0817134065784706 16.152503072282155 0.20820754276141545
-0.1003300025902959 16.07451296236147 0.207950521773017
-0.19867203916108256 15.871804766390975 0.2074469921551898
-1.1889515920932447 13.28939301957585 0.1969761729732347
3.673880988270597 25.757015775087176 0.24497413305588522
-0.12093766224412267 15.948359587307099 0.2075161297430696
-0.14082328392585858 15.860025552930775 0.2072247788149683
-1.1040128286897506 13.266152550750972 0.18842123380201858
3.5150352827221005 24.962425580499232 0.24211358221003715
-1.0278544032215828 13.159722694168039 0.17768096113111992
-1.0367469762705452 13.09922078764336 0.1907503468148955
-1.0599713370004966 13.003047486181828 0.19009684768908178
-1.0767489816405138 12.935118496858342 0.1866261892056725
3.4480412250552797 24.469502876776158 0.24040676033869232
-2.6872375799972525 8.342508157063007 0.18298729975519384
-2.6984716239125945 8.274362034470524 0.18287453314261623
-2.7190035051421866 8.186303310569377 0.18272170571966007
-2.7380423183570826 8.099867260829674 0.18255838882031966
-2.7663162581140175 7.993490243529991 0.18235573768172353
-2.785503252635129 7.905061040076892 0.1821874159932349
-2.815743279126763 7.790921431323136 0.18196711709945818
-0.8790181479565582 12.694201412154005 0.19260454519909545
-2.8386317861936163 7.688920023108565 0.18176756224376223
-2.8688978222711166 7.570539473882127 0.18154059306907716
-2.8888861850841474 7.4739763894703986 0.18135510520809014
-2.9255461782556673 7.33889530679295 0.18108449996472026
-2.959298005617543 7.207015695029318 0.18080698010366136
-2.990557244901798 7.078447354538159 0.18056046122387975
2.193884527473816 20.429250871441706 0.22487028384282867
-0.8286424990327168 12.659277267404615 0.19663215004556914
-0.8030885777680665 12.598662634233284 0.19095564484271152
-3.0217371092807697 6.947786811477215 0.18029009894304346
-3.0633775506218153 6.791181589622726 0.1799725264291984
-3.07588763928808 6.698379194490127 0.17980778174846349
-3.3574670627551533 5.875539993351905 0.177858492617894
2.275276713402555 20.3944488121958 0.2249639785638805
-0.7288066055602233 12.545603921978483 0.21234154567092237
-3.3181007575795123 5.701706780075379 0.17774786742952625
-3.384830388174912 5.460978293195518 0.17723026864029057
2.373569922832754 20.370541917369078 0.2251516301864133
-0.6750785879986565 12.498237407389544 0.22320175953011206
-0.6704328297012822 12.449052124046544 0.21472240076384833
-3.4428210536989936 5.238441595431389 0.17673697519663617
-3.495791012898475 5.022566037119663 0.17629209683688274
-3.547100523191536 4.804044795654999 0.1758188350035646
2.3665934236044417 20.169918048920394 0.22454175814418162
2.3157961438230523 19.964764545159355 0.22378763963850817
2.266479624908101 19.76756740540692 0.223076679186396
2.220452337856808 19.5796738784238 0.222389323206351
-3.6048787950756966 4.566657673258611 0.17532531574228596
-3.6720632983511856 4.303050579089312 0.17473809025062198
-3.6805299274667056 4.186210791383804 0.17455499671840535
2.1816947283371038 19.41465972617962 0.22180448131484828
2.1456921831088387 19.261304856114798 0.2212501629968898
2.1100724772756214 19.11206672555523 0.22072183593749958
2.0878572493924903 18.94661900301168 0.2201868239158941
-3.555837349651928 4.317841698065424 0.17507069355270355
2.1409977089209753 18.94229556376409 0.22034942134771612
1.2721154700723993 16.601050524805267 0.21103040195000203
-3.4630573753994613 4.26849524820469 0.1752254202560231
2.19725390334925 18.918907471929227 0.2204798442898906
1.339417819077261 16.56420705358313 0.21120063148093046
-0.32916189044668415 12.183411368974351 0.22105099179899051
-0.3933629711286067 12.133400828293794 0.21483064885036068
-3.3764177119618 4.208360007634436 0.17532103231125373
1.4384755346060014 16.53938788124669 0.21151081746176503
-0.17680244536485687 12.201023394866546 0.19496704087520628
-0.23650799002378187 12.15676919535952 0.21093679199166213
-3.288394734407529 4.1439161720245785 0.17540305268816062
1.461791043791016 16.446015902444856 0.21135418438377798
1.4350052665200759 16.335637071533448 0.21097486049432287
1.4055637616496424 16.22415702185244 0.21058909279262544
1.383549784938333 16.131139287128722 0.21028153683330095
1.3570675613833982 16.033522724731398 0.20994537905891406
1.3375862515013868 15.950848621411957 0.20967762785725008
1.3107604818464584 15.838112914694886 0.2093214280992288
1.2829234771381304 15.73177330242691 0.20897882696599154
-0.11218834809675729 12.20638331799583 0.19537044404245543
-3.2332341373282 4.095713791626988 0.17541973306914083
1.2667730450042485 15.65543080628288 0.20875447867515018
1.2336843765720376 15.555545899958735 0.20841115800765408
1.200785496254947 15.422552584672138 0.20802063354585112
1.2293604041118718 15.381804762206759 0.2081264880030178
0.04077835099444134 12.205520573408545 0.24027038261276512
-0.015530052646469741 12.175175224929369 0.23057604863519887
-0.028316530061573315 12.10008855306706 0.21068025342511984
1.323454646310655 15.36224808202264 0.20868200405073853
1.2946894585015243 15.363087636713917 0.20849818322885041
0.8214813225799813 13.95522957352862 0.21640846629441376
0.8140782470169358 13.934450720562365 0.216313817568041
0.059805079905912176 12.18038800172717 0.24104500357975422
1.407805246936833 15.341681920281516 0.20922584461753121
1.4397912880473063 15.29731719086114 0.2094301654510286
0.8434676083756107 13.961239860057383 0.2066182845062996
0.8402371292813301 13.905089564299839 0.20524380769886713
1.4445023321050718 15.266170371135 0.20945805601300957
1.4310320805695975 15.16610721343616 0.20936030829095567
1.4135101861314294 15.049371713738033 0.20926351562897766
1.3889727914668035 14.952437873937933 0.20913023985639112
1.3601566933698717 14.861881441711573 0.20897741699701194
1.322019758501306 14.767940853404982 0.2087666543611765
1.2813200490775374 14.677550700257271 0.20854587478314526
1.2646992621946673 14.581707239825612 0.18264718679180533
1.248057557911203 14.526587958364212 0.2085556663392826
1.0824718535742237 14.135786281135502 0.2082588351612763
-5.237307044266407 -2.384427225194088 0.16007166184045277
1.2636852043378635 14.529872022172643 0.1888086451285275
1.2596355642445274 14.473977251437944 0.17646785144682525
1.2362167040514935 14.371361658327194 0.18352052225044896
1.2147540296989605 14.267917810729745 0.18022485707787672
1.2046940699470206 14.21007030921898 0.19627664002076492
-5.152189634640238 -2.401256272740504 0.16017752569875437
0.1806709173742671 11.257293225598222 0.19094493856482878
0.1520686859456053 11.1507351798702 0.1908278750104305
0.12421611269993223 11.044172960279067 0.1906972262259129
0.10104752636204671 10.949526034501664 0.19056537949511532
-5.039764416329467 -2.4365828982709488 0.16029578263432015
-5.10165123421135 -2.434042024357314 0.1602261636701771
0.07973771474370485 10.857203293135065 0.19042328574801565
0.060709585483405035 10.786629788906556 0.19032529920350744
-4.954486969042027 -2.459647696848986 0.160394980656558
-5.880465395297631 -6.381436487385852 0.15150846500950704
-3.745010041991674 -2.7760087586981577 0.16080672594838746
-3.690223423975969 -2.7984277049217567 0.16074330613470394
-4.397650781773325 -5.38424905095976 0.15477525813738668
8.775657248062705 52.74906320401756 0.3438371542731024
7.301372126901017 46.76668827806719 0.3214331208838603
9.998021557516156 52.456857954671776 0.34418840507285164
5.238015384224546 38.30625876748117 0.28987216365931723
5.324463148454022 38.28755003105439 0.28991436640025803
8.56752779004896 46.463957302725746 0.321909959805615
3.7212433152363538 32.3444933850664 0.2676273443859676
3.813604903484365 32.3072047330526 0.26753697421308265
3.8801430652959206 32.31373346860134 0.26763828708929516
6.4365347278501295 38.00984889368317 0.2902078429246163
6.521761605503761 37.987021007752446 0.2902965395683623
5.011819781009746 32.03563224068419 0.26798971056175913
5.104811260197091 32.000443282239544 0.268014301526055
5.171533481548723 31.989918686084554 0.26812086203052554
-0.7466558038069104 16.05819681189753 0.30300802924183284
-0.7631687366705608 15.99734878778268 0.30099934774277837
-0.7833478855898275 15.921298459783578 0.2985076202765383
-0.6349103553717863 16.061718536363614 0.301570590107862
-0.7939129492496441 15.862737201669711 0.2965318524778384
-0.8136899841912134 15.797818817312534 0.29449836815534414
-0.8292292341461056 15.738644823217141 0.2926234557109755
-0.8641722918014132 15.588825677767078 0.2887334333117825
-0.8856284652825973 15.501233881748206 0.2861446644228395
-0.9135751009634661 15.401309735316158 0.28336733688588756
-0.941331940027079 15.303477275492131 0.2807649995492324
-0.9615443075993425 15.212703769181235 0.32084675844308297
-0.9809514646772954 15.120348974315586 0.31632823524646647
-1.0087032408714418 15.045179590040041 0.33623452895337447
-1.238697312445303 14.44988689206574 0.30729099673053567
-1.2683955625591623 14.368515057078353 0.3037163895320919
-0.5763504801323176 16.043853570756863 0.30016748477578314
-0.9549072775470193 15.169356727105649 0.2766666008087436
-0.9779735049339129 15.101532913265295 0.2923686152890844
-1.0079681534234546 15.01163851865252 0.2993781240754758
-1.0315910490687095 14.91757728295931 0.29942175416612626
-1.0528459659596257 14.817769755375323 0.2971911065288409
-1.079443240365905 14.719413105625133 0.29437417729910703
-1.1069698054369668 14.620953766926618 0.292802299186697
-1.1259651507536315 14.524146498505255 0.29112097714200036
-1.1893794915210538 14.453510339926162 0.28600237110035953
-1.2524179858867817 14.357068760191455 0.2876717745835078
-1.270266893374028 14.259852558089127 0.28742262302001675
-1.3049373568110207 14.162755808278714 0.290422882081208
-1.330545244514285 14.065397543297866 0.29000685424774164
-1.3589330429955107 13.969635065143544 0.29140183469331177
-1.3826258638022013 13.872052263294513 0.29239580332939674
-1.4173979356114017 13.776754082811008 0.29473279232711824
-1.4360817459612985 13.682710570639934 0.29813835894836077
-1.4597424479268972 13.59035812451484 0.31521484900266383
-1.4857711536237026 13.521758121260891 0.30163048137427445
-0.45161904375599027 16.037740358071378 0.298586791172664
-0.4668662907505075 16.000654424302848 0.2973138626746903
-1.1066639849960216 14.486904953331099 0.26261326881595515
-1.4259116659721378 13.636969988442551 0.27230475795642795
-1.4458235745562964 13.563438809879907 0.28750417525209815
-1.4247736889350615 13.463194030575503 0.29982708452514106
-1.4378337644805232 13.386582518901308 0.303700436071212
-0.37891198570292095 16.014994884802114 0.2970625852464364
-0.3789628509527506 15.977736055989245 0.29564659198818366
-1.3758494089763809 13.502269673322727 0.29356787774740456
-1.380419623537873 13.486795564938147 0.2715442085545854
-1.3998223182702942 13.346777705814851 0.2950329628144074
0.08336896028082945 16.92948763755952 0.3307994820369202
0.06922101422070624 16.886188364414284 0.3291277201940978
0.02040134902633929 16.65817478829529 0.32030337484979554
-0.3100539785444066 15.981093744244554 0.29522651549307727
-0.2878806786576827 15.945761103009056 0.29371970907753053
-1.2900329089374012 13.316029752584557 0.291061151457244
-1.6278461618405136 12.546209238685947 0.2817480648032147
-1.6484631033089685 12.477442551939836 0.2830217015303525
-1.6748749439125106 12.37963572979432 0.28897381209711503
-1.6978446290620324 12.282332343063812 0.29525185534414955
-1.723033861828897 12.188178700033601 0.2949492972579146
-1.7503819878483258 12.08945938381863 0.30665971687228855
-1.7717872404913422 11.995388823944095 0.29275395251457026
-1.7988232038843055 11.888147329030781 0.2696645439636408
0.0005712382008713213 16.542842713899855 0.3158430216318922
-0.012443858999341598 16.44327155549717 0.311999258641215
-0.039827878377839035 16.355916793494686 0.30864422547416015
-0.04970481676179354 16.256095015981398 0.3047882910100677
-0.08073105821541493 16.152520039026477 0.30082887824226295
-0.10351369476473256 16.061923095452315 0.29736987952589344
-0.20181575549294625 15.872800432706466 0.2904078414759661
-1.1906206931850887 13.288988803990462 0.30308960139962204
-0.12406432277108648 15.926504000975104 0.2921733363508444
-0.14449939119761224 15.889486990046613 0.2908055316381384
-1.0962148419728093 13.26433208436308 0.2958156973703914
-1.023762366120294 13.16119068896213 0.30400824244556107
-1.036545687614088 13.09681661290982 0.298918722645077
-1.0603460266632239 13.0026433994013 0.30148743988640847
-1.0792479089751799 12.930196652189153 0.2928483479075886
-0.9523406044458008 12.663101756656516 0.2777438220218573
-0.8765865321394347 12.67512024194823 0.2909371850184716
-0.9106928033594982 12.667757633859118 0.30717135141559554
-0.8224614290516938 12.647870436887898 0.2968652280373826
-0.7989771459018574 12.622253368627243 0.2931916682224659
-0.7230353506491578 12.560309337995985 0.2957205821967318
-0.6729703446734191 12.501846571955465 0.2944891535027415
-0.6679615118134761 12.432813875406012 0.3040421075301184
1.275937301468831 16.607962271693548 0.3296384117436229
-0.3950399545208026 12.16774229576664 0.3408658678642621
-0.4040402430124171 12.148561040491721 0.3099706306688562
1.3400521309802491 16.563879187006556 0.32930320118743867
-0.3304044749429206 12.190651063031165 0.3140387600814316
-0.39324637509520394 12.151509478992498 0.293124449641561
1.4383972246360643 16.53781322211114 0.33029119829615206
-0.1894110192999787 12.19542755278164 0.3141903926195891
-0.24254624241382833 12.183175871450068 0.31041336732350217
1.4747305145937526 16.481569392089757 0.3291022081492249
1.453178508464454 16.41608711377109 0.3264905518023934
1.4308949269030726 16.326781682769422 0.3230592390817422
1.4097244591767588 16.23060862084651 0.3194402841982434
1.379932477600447 16.123688133480993 0.31529872221667277
1.362846173221051 16.042651866974698 0.31228344610412634
1.333310895772105 15.932718112756167 0.3080746483636464
1.3072882898718925 15.822268861613441 0.30394453501345803
1.2860575543386965 15.73611799830046 0.3007203871097408
1.2674870526488062 15.67239262549783 0.29827039001928
-0.11453365823930783 12.195535561016014 0.3103943003441928
1.2592201296439876 15.626379624373355 0.2966384279261972
1.2443119555575586 15.571084616529637 0.29455249729807587
1.218393758113785 15.423141432206858 0.2893969541320828
1.210425287236926 15.387785618952755 0.28810781809350183
0.07280532479816919 12.307496932039145 0.3227877576834363
0.030983302097119483 12.21089194782159 0.2861378295818988
-0.0062468543728069065 12.174694827706677 0.3135247362923205
-0.008875557757608954 12.105506408383565 0.3430326105207167
1.320220769105836 15.36416833483341 0.2903286744702048
1.2995345480639937 15.361136534820426 0.28967948433217183
0.8195100872153164 13.94682767108569 0.28927014192295686
0.8121919984446561 13.936938545676131 0.3119375462361746
0.05448369058867651 12.205222640489655 0.28655506096668093
0.07223665723822863 12.172017976218742 0.3128082771400617
1.4073610570320596 15.340838960485598 0.2921332842847582
1.4402979127066793 15.303673086357236 0.29207700009589055
0.8441821440547425 13.954879375802864 0.29148218803591774
0.8395551401288835 13.902430491482704 0.2973050917920215
1.45668334684463 15.310681580250042 0.2927605509650034
1.4396195303064778 15.25406569033341 0.29073925213144375
1.4328997248873367 15.157942942258469 0.28804250849066193
1.4143007781874954 15.049972299225688 0.284747785955707
1.3879587311288368 14.951428512782034 0.28151625489986143
1.3594536464124005 14.843290118226081 0.29872748057045695
1.3231406731350828 14.759992113597326 0.30812496567583986
1.2827755630820148 14.666616030548244 0.30316205552103925
1.266111569871218 14.580261851071503 0.2981056809414674
1.245411345513175 14.521146564653787 0.267319639754548
1.272488054835745 14.525704183040807 0.3182728003633749
1.2641359633658056 14.471786048137481 0.2964610640503307
1.2413888131342543 14.372054089205434 0.29151434942343246
1.2214132748638677 14.266670829181804 0.2890550824472281
1.1889758567242428 14.194624683037448 0.2775156234819797
0.19116226328710223 11.306230220785253 0.26893952134416976
0.18323797205209075 11.276034627141827 0.2699222804024408
0.06894409377629514 10.820516282876005 0.2848165411999204
11.737002536098643 59.83211439840275 0.3717141178705141
0.51371882746876 19.61102252847293 0.4350966050238146
0.46734707861924174 19.46389899481827 0.42930567286649857
0.4340213450129613 19.334527175166482 0.42425191134259727
0.4025165468685719 19.204876468030292 0.41917264105734364
0.3720090960981015 19.075111161327385 0.41411552774488913
0.3421551593370061 18.94718680741456 0.40911352430060144
0.313732770174058 18.827143249005523 0.4044419523287384
0.28800012541063846 18.720813245097098 0.4002872812475423
-0.7509771888799676 16.061916216916373 0.39583628119741376
-0.770405304362606 15.995194622450327 0.3915774113318714
-0.7941657601444616 15.8998953645536 0.3854588792275749
0.2639240780919793 18.626377607957842 0.3966168235783782
0.23865092996908122 18.515891325736817 0.39230859943917584
0.2145379035057477 18.413323880204253 0.3883298835054784
0.1907912863981317 18.31062513396604 0.3843308718357114
-0.6710024285460521 16.06995152929081 0.39462751312061056
-0.8138135084768665 15.802459343666047 0.3791608344080986
-0.8278183861502197 15.738318761168305 0.37508578010580634
-0.8667731356347789 15.595587546930119 0.40190761754404764
-0.8895447681714337 15.501809756738153 0.40017433635940786
-0.9180129378130993 15.402958479307136 0.3929142490595742
-0.9469356708723109 15.311507713112421 0.38485092935693166
-0.9648284334011435 15.213042514985197 0.4044923400226583
-0.9818905731642854 15.124778250541134 0.4040424334431773
-0.9998138335113022 15.062320750991317 0.3994333164610964
-1.2405202914971334 14.448116458385922 0.4024381213133457
-1.278097834203179 14.376729493560417 0.4147126391052998
-1.3115626067588577 14.26879760148317 0.4190466159214783
-1.3308370272510297 14.203013662769841 0.4174871236404022
-1.5944067639233086 13.63689517168466 0.441619845372533
-0.560899741659647 16.04226055389547 0.39044659020004646
-0.9839355268732151 15.089195001439746 0.40085191302144996
-1.0110682868243608 15.010747462144389 0.39551755782504383
-1.0250259004529925 14.906877136500297 0.41146845332468324
-1.0513157068930026 14.819415099190794 0.4150948120365704
-1.0800885789623413 14.71931639240455 0.40150113320088077
-1.1104407946134927 14.625724464046565 0.39678570654816814
-1.1282726005692827 14.524765736094382 0.3922779134752803
-1.1802954281628466 14.458965053727049 0.3880707934449652
-1.2589584219496155 14.35292981416572 0.3748738524708259
-1.283580657062006 14.262540825383821 0.38224550345575053
-1.3137889988070197 14.163655456529147 0.38260575054867857
-1.338951609054517 14.070406282072366 0.38670919798062026
-1.3653114689217174 13.972800124243546 0.3877055339540643
-1.387644831470676 13.88251346384219 0.3739518789388249
-1.415137494782197 13.777883963321734 0.365627044314746
-1.436169917209442 13.680200478780923 0.36782310997137485
-1.4579825052769406 13.591952583316514 0.3883235150876728
-1.4806805234341278 13.525874641789573 0.37449882172413146
-0.4739886574120413 16.049384281623052 0.389512710787266
-0.47635541721862457 16.03638887202846 0.3886107649123411
-1.4256683507865815 13.651837409297796 0.3664817543834372
-1.4467636455510942 13.561478397114323 0.39318108103620614
-1.4246669050406167 13.46005016537162 0.3949539656573181
-1.437783771580232 13.391667294152485 0.3944682839158407
-0.38397625699115057 15.953044293366911 0.3812233701683079
-1.3758458123377932 13.505595969762929 0.3958053322614459
-1.3795320554794597 13.490266329498025 0.3621866686818728
-1.4000191461191147 13.348861700393796 0.3935303681195179
-1.6406192747519364 12.544804178404881 0.3787615422699221
-1.6537408594769853 12.512186400830279 0.4036557705331578
0.0308399475062779 16.751379814542787 0.4378349007982275
0.01385177465465208 16.596333620410768 0.42639106107027036
-0.3184159543584244 15.989449984589344 0.3831381084683808
-0.3309615286293789 15.942827959186836 0.3798434120574065
-1.2425259087788252 13.360496856070537 0.43139502767090926
-1.2832066991838655 13.315707079343584 0.37501167396193263
-1.6306083666829474 12.550697228936604 0.4207585047625834
-1.6595542682302504 12.476346885834415 0.38449216671689174
-1.6825221875429701 12.384750877349433 0.3921249129541061
-1.7084124882027536 12.28742285489634 0.4005351276803797
-1.7337838240942787 12.184339708961048 0.40947460769688104
-1.7546945317909732 12.093330371433115 0.41740156195575917
-1.7836912659933004 11.980565780096713 0.40732026358287254
-1.8021958576078907 11.884391828830308 0.3912036716683876
-1.8295304517713191 11.80901034191075 0.4435541804878574
0.0004554800172895668 16.504943189573886 0.41963881196202124
-0.015577122158390619 16.47148072855962 0.4171730797973863
-0.032802248341806166 16.398067529440965 0.4117657263696897
-0.05490041883444699 16.270747471581842 0.4023873162550984
-0.07955696649320192 16.161267198833112 0.3943473547301304
-0.10680629886321792 16.045549128787375 0.38587373820212695
-0.19749548896070557 15.871196594152808 0.3734342526787977
-1.1925799887600994 13.34324484293053 0.42235944733892666
-1.1880572622645909 13.290709436186244 0.40063237014777753
-0.1274012960271844 15.933669418375288 0.37768311216585543
-0.14334048164214858 15.878829161081974 0.3736974638508258
-1.0899546576108627 13.264494956690875 0.40444348393173374
-1.028169899353379 13.256684837991564 0.4310178765120697
-1.0187222086929826 13.174782787871052 0.40215253540130724
-1.0322574643582991 13.103088973250351 0.4040565400821666
-1.0627472936000515 12.996083723477582 0.39815474233381776
-1.080599408035679 12.928581055657478 0.3959574764917829
-1.189969460160185 12.840074719747 0.39463734368312986
-0.9637335037725129 12.647328356733878 0.3662684111211918
-2.7080854531474077 8.231206872510361 0.38891132692273783
-2.7195041464009693 8.161036446650487 0.39118395214047663
-2.743522269855306 8.063778090420055 0.3944099721118726
-2.77692511193745 7.946668510398309 0.39836438427489335
-2.7923367599294773 7.865393139225148 0.40100894197062414
-0.8642681133957364 12.66878597812393 0.39856814060407125
-0.909067259253096 12.656043631725428 0.37923145404466435
-2.819964082498189 7.754547501367165 0.4047096691675553
-2.843366933974289 7.650684706803064 0.40813503664088296
-2.878876335721123 7.521635611566661 0.4124835669137586
-2.9118797074751974 7.395954428894358 0.41668495732419913
-2.93859195029199 7.280627353207266 0.4205197070316817
-2.9702340332006223 7.152307384580049 0.42478977849731586
-3.00023252558614 7.025491219960413 0.429015997377068
-0.7912324788476081 12.650582027117741 0.3947806482302636
-0.8361969572145478 12.640348641586359 0.3559341299310304
-3.0382526550582627 6.878308323837614 0.4339364707346479
-3.0698224177582776 6.710902141659192 0.4394270267108514
-0.7297962163437044 12.614940195836267 0.40648149860556093
-0.7039133423841146 12.573782357049037 0.38622356110941425
-0.6613270238678306 12.506218472967724 0.40340519817326
-0.6505503841317956 12.44206051730248 0.3817617993117867
2.1756518294028138 19.39482396092827 0.4422956668798023
2.137402201316083 19.236030227475503 0.436065071230889
2.098720254997954 19.079516742032883 0.42992268733652417
2.1305176475406666 18.940105317540304 0.4255334071308161
-0.39605157788517875 12.176539404604709 0.4054181797137287
-0.4159930244390693 12.144490937830579 0.44438386172545125
2.2014243025350844 18.925416678027133 0.42621124150848133
-0.32682963845557716 12.19601160423442 0.4084539589860586
-0.20508337755872302 12.204458563768249 0.388645192801465
-0.2333427746433206 12.188429785530394 0.42653561663438977
1.4612025025588353 16.430067522785954 0.4432317362705469
1.431114391327467 16.314191650559394 0.4346913516316828
1.4082980922010557 16.216017006743286 0.42757574272831717
1.3829104621163826 16.117513173177777 0.4203566758765726
1.365152847603421 16.035814495783278 0.4145147235285535
1.3384237661666911 15.930591466839362 0.4068700528188981
1.3186299766288943 15.840229839895008 0.40045182425156534
1.297152754826445 15.761853331577594 0.3947309922835051
-0.11981512090992287 12.17905897157994 0.4079477971691535
1.2888709704884016 15.71419631115584 0.39146130234038207
1.2643581873601644 15.633760750318691 0.3855192023132231
1.2356699218336187 15.549471922441041 0.3791775078725461
1.2223162219497883 15.418692561486287 0.37079017412467635
1.2080668213925019 15.397696933973135 0.3688828276789304
-0.01703569753562574 12.162606569406591 0.406805998817184
-0.01626735888004248 12.107931236364847 0.4144997690152042
1.315353674856828 15.375033001614524 0.3726093324589893
0.8176397702289174 13.958226751885313 0.41582079764649255
0.8042741882392156 13.92971991728199 0.4179756456254105
0.09329240291551093 12.190804096759384 0.4303140717497616
0.06569306342115543 12.167255609180803 0.4121680297349585
1.4185855102124074 15.347665395786018 0.37622423632249996
0.9170987822707828 14.043647772279277 0.4093346442930678
0.8468246396104426 13.975551884550159 0.38337822804155886
0.8335175085518437 13.896527709840296 0.386162499735765
1.4662603356503332 15.309349960681656 0.3766223796069221
1.4523098512250112 15.257907298644144 0.3731700935315329
1.4437125322959339 15.142367566539281 0.392925439825679
1.4167871110758443 15.047018775366237 0.3984725068598895
1.3962420630217 14.959230294842865 0.3968357451246736
1.3694373104698156 14.870274405380629 0.3843164131570787
1.3282197357947114 14.767726548867163 0.40901871643985993
1.284008987861788 14.664504014206942 0.39817280751115014
1.2663228619109068 14.576808639773859 0.39092035199478486
1.2546968289651181 14.517660191878814 0.44608732479894664
0.9933300373461763 14.088826333838519 0.42560121083986274
1.2672524236384604 14.53423916755629 0.3883692836267167
1.2678609958675098 14.470099153881256 0.41148872170610906
1.239869485053684 14.370453500702634 0.40340777263919947
1.2232201039575121 14.27129326099857 0.39842601620201806
1.2069975590155626 14.207231384660494 0.3859910677008893
0.6775469937327325 20.627780616162323 0.4747251064352245
-2.034060290114348 13.691750768799288 0.5129530359181327
0.8176634092553688 20.740843654535638 0.4795518904558388
0.7380351649132988 20.61495752379151 0.4744289721501095
0.7014209188525983 20.617146765378163 0.4744003754815113
0.9036819357111866 20.720261394186153 0.47911798195434796
0.9746527369793706 20.6965292524362 0.4785381036475641
-0.7502477235541068 16.064597863930654 0.489207667675434
-0.7650226629511998 15.99716628163423 0.4826180318686802
-0.7910168614425463 15.904658977703297 0.4738597312901151
-0.8120686957016582 15.843803910411319 0.4683107707327176
-1.6378217235850827 13.722797775738982 0.5049636089424218
-0.6220331384666222 16.101260378364444 0.48929516537255413
-0.6202160215859591 16.09246621400394 0.4883055166716957
-0.6834717537049056 15.982102679331593 0.4783999218483602
-0.7994386659202629 15.860101355342028 0.46952790253420845
-0.8200911367153735 15.774669066394727 0.4855424724590151
-0.8283191113697529 15.732973254228847 0.499135925422726
-0.8693369313372254 15.603270389592765 0.5228926685600319
-0.8927521339468414 15.507239277069903 0.5115301075134282
-0.908009240123228 15.355027606631996 0.4924775991891567
-0.9238031003509578 15.291292071636065 0.48533434797598973
-0.9403529611597037 15.226848759725897 0.4952353824601765
-1.2417804394956802 14.448548368476677 0.48398921504701614
-1.2902984453945903 14.37772309623004 0.5049173380011505
-1.315987913998787 14.27437349447314 0.4992496559637746
-1.3385167417059665 14.19812541943268 0.5051564888313818
-1.359743211294415 14.124262988844665 0.5185367825136147
-0.5614458455188315 16.051410859917134 0.4824294541132134
-0.8791583577701788 15.35780973905103 0.49083823457648923
-0.9365003418491565 15.192264954060178 0.5180689942741814
-0.9546184717555048 15.103897413695918 0.4930676893790576
-0.9805110318051791 15.002262514569955 0.48319074334336903
-1.005750255338776 14.91088822106909 0.49981375763562746
-1.029023714132067 14.797478670208713 0.504640049750073
-1.051441682889772 14.70899229414853 0.5085014766665974
-1.0883996298471665 14.618729754083116 0.49867505771542553
-1.1251119720276375 14.525997124621068 0.49263640628578964
-1.1854018355702218 14.455042358763627 0.5021342887240172
-1.2517427424000862 14.36857432925505 0.5001373078351596
-1.2889714603921094 14.254459906664717 0.49398062039885543
-1.31628646964024 14.160770488646579 0.48432656931634827
-1.3292910872649875 14.06454329540707 0.4821634041455231
-1.3555742073080224 13.97515152018418 0.48573085437513064
-1.3662744206807378 13.902134861685061 0.5049476350839143
-1.4198468749349966 13.702687194579802 0.4617218756378774
-1.4564693892284661 13.602048222819052 0.5102417430847717
0.1765804931287075 17.792500038379046 0.5148672297474808
-0.45026115874408495 16.04677642456776 0.47949306663412344
-0.4934082286703504 16.02555600973497 0.47808855987016224
-1.0651710262928342 14.588441266999984 0.5189683033255937
-1.1156143660571487 14.472396124457012 0.5102462379398314
-1.4459189933135361 13.566002617587435 0.48944828764606235
-1.422837730044171 13.459172463623618 0.48287534472412613
-1.435087312243924 13.39060148121283 0.4930784561199198
-0.3657917329239979 15.955993617024843 0.46819035953096155
-1.3638536228016225 13.502301483321984 0.5072748634803359
-1.3819240121969976 13.469833015869508 0.5061628777350389
-1.4068000461091232 13.367010009117529 0.489313343049922
-1.65592669656315 12.505356704393044 0.4484593878046165
0.0851565458764945 16.938633267077 0.4517168107667939
0.0707731328863117 16.891442892601503 0.4482177985974324
-0.2952444406499773 15.933451939369562 0.4647456973158102
-1.236239851728621 13.356191116853331 0.4726734160302373
-1.2990519700862961 13.32609847785987 0.5343465747083341
-1.6353431658384536 12.531635723123495 0.5096864793534082
-1.6577165730760959 12.469243467730246 0.48525380816603414
-1.6790930743659134 12.381057770485125 0.49976301014709923
-1.7039041772572052 12.291532847289485 0.49574828800302906
-1.7309334292733334 12.188278097558554 0.48385049251974743
-1.7561410940064994 12.083409407792375 0.4961462159869093
-1.781756096302137 11.987433989499587 0.507835396142593
-1.8016795243514954 11.896497200453064 0.5186584045159439
-1.8204810580891666 11.819798379829058 0.5280721248247087
0.008771984732830126 16.564738228668645 0.5319780272713834
-0.01980305570341396 16.464098442855096 0.5209845655600698
-0.04783822532245215 16.34136769107659 0.5076061911195545
-0.06353419878130943 16.262021915033763 0.4989682935794685
-0.08322727416262264 16.15214175498982 0.4870242430889514
-0.10579922053298559 16.04143696735838 0.4750117623938965
-0.1182550591070756 15.975717155449919 0.46788710746176143
-0.20393105289437513 15.88345588760699 0.5006703674090844
-1.165762687838204 13.33218176199918 0.4649097910204885
-1.1744568323362201 13.296037059458307 0.48508835164990277
-0.13044140341164645 15.91789304639836 0.46163553576047556
-0.14604919656890927 15.881777658298008 0.5002075935700945
-1.1009116015201543 13.274311052463009 0.4767033826350973
-1.0315701330314229 13.258260089617522 0.46805548921530005
-1.0103450841072086 13.178898600361828 0.47055244843682603
-1.0244647789669281 13.082713133423207 0.4738903101385184
-1.0450858302561021 12.998603932655492 0.48120284612407527
-1.084019409788956 12.919972572496725 0.49569726471726516
-1.1784050361972729 12.844239905986129 0.49711942620733596
-1.046082873013243 12.967189743621882 0.5069422814464
-1.0593395278530218 12.93344768310369 0.4870417223286278
-0.9469172342151156 12.723767972142271 0.5279893885970224
-0.994318186570329 12.65824496175373 0.5121769872870696
-0.9960193076575503 12.598730387835449 0.5146656066780806
-0.8831367308399624 12.687549868974525 0.504416225739523
-0.9244572305120297 12.648091683538226 0.5027368100872184
2.171387674752093 20.51505860734954 0.4825111526169034
2.1922469812286485 20.418508342658665 0.47927433604814534
-0.7900927300010678 12.660105710043387 0.4914841648378637
2.28043482159872 20.403888589853374 0.4799481118118004
-0.7048666734821667 12.617728571290822 0.485853676095905
-0.6764992121507583 12.574168945061308 0.5089848055398767
-3.327036432231973 5.870574719468032 0.46803583143022576
-3.3468708209125766 5.590820155543945 0.4768723336921095
2.377835559352686 20.37707605797949 0.4803691871415954
-0.6574528617317172 12.582832326490593 0.46831728125623917
-0.6428736672569542 12.510792428647216 0.5089437946867058
-0.6563708504932596 12.448356678900026 0.49164699679813256
-3.4086073698548733 5.36120640247208 0.4846207271317597
-3.4598534608903107 5.15337923753734 0.49156536808549756
-3.514247802879421 4.929652367536368 0.4990607979172833
-3.565510297033033 4.709157127604163 0.5064007382538573
2.3531674928177564 20.128788874459726 0.4711235397318314
2.305730301368791 19.933210273554472 0.4634274035196895
2.26415853856439 19.756735063408563 0.4565173145147176
2.2195164546749604 19.572738732051576 0.44928466477177714
-0.5763291528008962 12.466378318883223 0.5282218507851193
-0.5596164320064986 12.420096563884783 0.5383944678300381
-3.6196925699863876 4.481300073591912 0.5140272659341882
-3.7299556892508807 4.005289685676166 0.5299095583159976
-3.6747178646772136 3.9473928670426055 0.5311612543620883
1.2802608291949646 16.61577681058824 0.4491936239477626
-0.3893529903359566 12.17615514972318 0.4878440095136676
-0.4320474892734631 12.123044985549749 0.5007879936548429
-0.47631628676343807 12.072630241620242 0.5133481180203597
-3.582385333420843 3.937385415717813 0.5305828461608639
1.3438867007369804 16.57043912476555 0.4482859770587253
-0.2822069890427303 12.238227351153713 0.5043191864272343
-0.33541840208759316 12.189971810196848 0.4955079697581722
-0.37005446011413806 12.138526830602364 0.5465345597815247
-3.473496722505808 3.9301688061656748 0.5297741320579645
-3.532281929889968 3.921359174892441 0.5306116944477419
1.4460607010684199 16.551522959946077 0.45056001712831184
-0.20558826908562922 12.237115561154958 0.49337601515054436
-3.386868783677022 3.906406264103863 0.5297061806742218
1.4287915693386641 16.297063590081702 0.5455596028801142
1.404340483368696 16.21862994076403 0.5368100678525987
1.3861770592523448 16.13278655330386 0.5277203625834791
1.3569118491977723 16.02060216672314 0.5155619887491378
1.3413578640520263 15.944570823754258 0.5075945253782786
1.311960527004817 15.837716139762255 0.49600142730202385
1.288622310763395 15.73884247473599 0.4855386533098629
1.2028753394188196 15.528465628932741 0.5465392329930168
-0.11400788537725796 12.201353363400838 0.4978346755854871
-3.320422857375396 3.883800393297749 0.5298115468936815
1.2671615708847066 15.64574453083913 0.4757642147062881
1.2276047304322508 15.543787641655705 0.5066539560348805
