ply
format ascii 1.0
element vertex 846
property float x
property float y
property float z
end_header
10.464102523332656 53.36144484807941 -0.6092855789927217
10.485580752296158 53.44795635581796 -0.6091986456085006
10.49919420776373 53.58336571316429 -0.6096978146591233
10.497342515137492 53.6172636285244 -0.6173949571237197
10.884287305951398 55.06205344791934 -0.6117617367799003
10.891433027748953 55.100564718824174 -0.6150071433266646
11.23698332265595 56.49345943136185 -0.6502391322274772
10.296404083486816 53.40953325226676 -0.6172491969959857
10.826685259648539 55.62247778529297 -0.6275633360952868
10.255116529742374 53.513573708231355 -0.6207490769351637
10.222764426557008 53.5872703741313 -0.6054973585180763
10.774448286647269 55.605269935706445 -0.6236940458163742
10.778983445622279 55.61968098301944 -0.6249035524626253
10.213086119126478 53.62990588538854 -0.6033486565536875
10.196070035436813 53.7041134666629 -0.6179777605862381
10.634470823906131 55.59802520809769 -0.6259551413967476
10.690221962595334 55.64422137117564 -0.6242694103132167
9.990198887671887 53.501077285228945 -0.6116694460374482
10.0074806541163 53.552099946262096 -0.6163529448306388
10.573518925000693 55.610435396390386 -0.6248375775500864
10.558555240320697 55.674246489960545 -0.6266202806504764
9.816651620050115 53.11131552204504 -0.6279924737062048
9.939898492418456 53.48778813195559 -0.6080727822750439
9.985558713004288 53.69723371339055 -0.6126525806417559
9.998441382556216 53.76377711058672 -0.6048513784951134
10.409246694515721 55.595405693318234 -0.6235546431377527
10.466801515998803 55.640910169012244 -0.6250346537479075
10.488596940769215 55.68881345672075 -0.6260978898116148
9.742047957143441 53.122692300022784 -0.6313177682972175
9.83361697318532 53.49178766535993 -0.6174767758568983
10.338908168545265 55.60489193754891 -0.6228120658320054
10.36464210387023 55.64119178247028 -0.6257482892948902
10.411103485983125 55.72657083309081 -0.6271417509262404
10.38384700300108 55.861334013054375 -0.6280189185736309
10.469642790186487 55.896056832666446 -0.6321495276493466
9.66886325035898 53.09481071533375 -0.6527133191384926
9.639513971995163 53.138145294825264 -0.6359732014062294
9.736118258412858 53.53482511813962 -0.6102119602517281
10.23625370057416 55.61387612157978 -0.6224333544832871
10.267732350985337 55.689268861662285 -0.6247996780036824
10.263853906201955 55.75479482518577 -0.6267061379380136
10.369580929806741 55.880918329908816 -0.6284554090925597
10.44424836455357 56.26636865683551 -0.6427713663996402
10.39991155177381 56.337692026816036 -0.642142375626631
9.549046187505592 53.178463343047696 -0.6276872676748259
9.63429664736339 53.55899881048599 -0.6096037314969586
10.130777945291456 55.54827922778962 -0.6199947325894742
10.148432430274113 55.58770515427057 -0.621531609041308
10.189032594616949 55.693899695185245 -0.6246516174929405
10.172796332455283 55.78172879689917 -0.6250183553027198
10.203883177835003 55.92225221608173 -0.6291632265535911
9.443647887349112 53.20077450120466 -0.6273180589663523
9.537787299919215 53.57840311918067 -0.6118039726141123
10.045708358684294 55.57471458506199 -0.6213378632595091
10.054775326970281 55.617860506042085 -0.621971244297934
10.068734433067494 55.7062261369955 -0.6246081840797012
9.392795173774099 53.214740198416756 -0.6262919530814904
9.448440226397773 53.61577700560748 -0.6112919838731485
9.462248927801928 53.70447807818397 -0.5947847423999063
9.503174894331028 53.7985908212576 -0.5843198948446913
9.989249783289722 55.5914089510029 -0.6220187272747586
9.956476802077882 55.649998690758935 -0.6230258785794159
9.990365842698427 55.772487891394114 -0.6283442777101783
10.010596099628838 55.988285602858 -0.630210452752403
9.225549635021851 53.182906184344915 -0.6359214792209784
9.256816709834647 53.22801172874999 -0.6383979261358369
8.978474971741226 52.713290879449374 -0.6280539158282828
9.065681235965565 52.88707085700526 -0.6336378366982457
9.115718642960566 52.97693313596597 -0.6287732364552526
9.745178639579507 55.73887700363041 -0.6241534244534526
9.78905301923695 55.784421748097735 -0.6258940753905134
9.837053062583593 55.913800149394326 -0.628314752416401
8.922507399488614 52.6214704178441 -0.6233916563351038
9.125724428873761 53.68379087617227 -0.6113068559453982
9.694182152942583 55.76215472313022 -0.6252487834867351
9.681737057563303 55.798249016731226 -0.6264248886114203
9.706919498708924 55.92532817517616 -0.6299493882170241
9.087810175062385 53.71593296111431 -0.615168608082445
9.102780292908578 53.7687555976899 -0.6108035933620003
9.588888189191547 55.77377529381095 -0.6239383819250568
9.584546158596535 55.8475693965592 -0.6266095460479918
9.608529951441929 55.933063650371295 -0.626339074739503
8.991543459364042 53.95394081138569 -0.6211276538409735
9.051819757378853 53.99629409946639 -0.6137927791411988
9.061751940655098 54.32016103052664 -0.6101951771840537
9.103494420400638 54.50502403898717 -0.6220783410601668
9.156033523991324 54.635093152681094 -0.6074393371506794
9.163375142488622 54.73943588879703 -0.6285759307207516
9.191240392104506 54.858478571500704 -0.6342792197926236
9.220753537024335 54.94303759198641 -0.6244400969512178
9.229230719171117 54.970138923224894 -0.6203681578544555
9.270741416774749 55.13460636894555 -0.6246349143202783
9.276973743925211 55.177123838314145 -0.6244097793702468
9.311728701217174 55.31651336324129 -0.6334146111287151
9.333177093319081 55.38150247766724 -0.6321115977565027
9.465269996922897 55.813487678188544 -0.6252964750132738
9.48497283728089 55.86530276621325 -0.6278677139451347
8.14881278418684 50.95596393434229 -0.5548424362931167
8.18368762001364 51.08164658438908 -0.5486282238219307
8.202858220842478 51.11770940482783 -0.5381757847370068
8.26336615772214 51.43146577853183 -0.5946593805414057
8.858550703889524 53.783658423671696 -0.6055582434193332
8.876551815250377 53.8305889623612 -0.6035858653183326
8.956258754242912 53.92782273939849 -0.6179336955428242
8.981548953508607 54.28083975986117 -0.6048455595535248
9.006825468610144 54.3530540976003 -0.6146867923398823
9.02432177318875 54.44591157308055 -0.6199915205231558
9.040059423798994 54.53588295639573 -0.6168689878393743
9.081156469771601 54.640055744709535 -0.6208478737557328
9.123003007743513 54.75804881331864 -0.6265856533953057
9.122931952235442 54.81306180221898 -0.6297882730341707
9.178912131896018 54.935092287571635 -0.6246922484627169
9.187627007323089 55.016656400314716 -0.6274242133116084
9.225016144525672 55.12107234399175 -0.6246911207443893
9.2525929351314 55.20652484566828 -0.6250304497225221
9.27459356911303 55.318593814196824 -0.631175077820217
9.279528477491331 55.406667014852246 -0.6317608307921877
9.301442366038692 55.50616294739672 -0.6362567315137433
9.330103048117909 55.60948084390825 -0.6323483713257648
9.34404116666597 55.700114296808046 -0.6411144644571176
9.42304905395128 55.89868967615547 -0.6262102479987475
9.443505570705716 55.9583952685082 -0.626106058282033
8.96544265664039 54.37591284892933 -0.6149370347995532
8.97433519191204 54.40785734496009 -0.6168413175454707
9.055839442806887 54.7454574894871 -0.6252044569876617
9.07629618977452 54.83767340049055 -0.6271117776839046
10.868072421131128 54.02049072069176 -0.5841716850614332
10.911501950689598 54.16613145782074 -0.5868448498561329
10.973328043162828 54.381142369878035 -0.5918867584966869
10.98995814974662 54.48370827224999 -0.5941605973246505
11.01788116484669 54.56681449992504 -0.5965119564201422
11.047401874270536 54.67722525197751 -0.5993297990336609
11.067824261622103 54.752497360421096 -0.5985259992084799
11.093606384151684 54.85951279698831 -0.6020162978061556
11.100404311842404 54.95487857544217 -0.6040382936166055
12.026930932989803 58.767184827203494 -0.6096912270525509
12.099768051816884 58.8459392326735 -0.6207648637415748
11.02804327390076 54.96806229438978 -0.5991389327930644
11.872188520146535 58.597511624767854 -0.6664252271441768
11.918549676668404 58.76062443117793 -0.6613837371325486
11.976199222707043 58.97737028289428 -0.6298863445113092
9.914641475411772 51.037641250880505 -0.49875405850520443
9.940244698588435 51.18562462335936 -0.5060848791414917
10.491593112812362 53.36651557325465 -0.5512689959723015
10.514816230163513 53.45430198315344 -0.55113496056478
10.515782489545385 53.52140806442634 -0.5411986853055156
10.917047403846102 55.01426382767492 -0.599475474298749
10.915775853977069 55.16392441579617 -0.5193680139182175
10.93950766436887 55.21127088470573 -0.5609273746201403
10.959535036305278 55.27779516840376 -0.5531496654370814
11.03032225299888 55.528301065446215 -0.5363655135407276
11.040855088981328 55.59794015852111 -0.5638218681924992
11.060468273466288 55.68888374005931 -0.5604604647568171
11.087265158991974 55.787570141014655 -0.5718431084888019
11.10272680472331 55.880954368852095 -0.5734792769746185
11.135069328146024 55.98637526518722 -0.5902479268331734
11.171434083310432 56.095064604490936 -0.5513579901202498
11.185311834795534 56.167374675932656 -0.5844341869812867
11.207893351670464 56.28281717361424 -0.5909564413040748
11.23728768273385 56.364810260141155 -0.619094459895969
11.262467351514086 56.472378396891806 -0.6246852812148511
11.284378737640884 56.55632941989002 -0.6117972629698585
11.301218333569102 56.668080230889004 -0.6136429221971085
11.800680485573368 58.46161751016838 -0.6539978773967798
11.830951530131827 58.57837116668685 -0.6492404273474122
11.842985858681583 58.69322723672339 -0.6408642861604656
11.864900992579829 58.80506298921298 -0.6357182899229462
11.919479185448488 58.89571851862464 -0.6472351423544768
11.893558001926506 58.995685272137244 -0.6203822870575982
11.952738981054658 59.04092063698469 -0.6238948073773363
9.832989954366765 50.9774152222061 -0.4619213287057913
9.87110366507703 51.09311059386432 -0.46576081655085155
9.857040713863341 51.13891224996779 -0.4545258477896595
9.929028286255713 51.224200942013674 -0.49265870385503446
9.942682308941107 51.33937282893938 -0.5106312878563293
9.956738957753535 51.41842542624591 -0.49669551297429587
10.05594657335625 51.841904159965466 -0.5130422886125822
10.062064004588272 52.00134724996091 -0.497596509420591
10.415422619739669 53.35731283755216 -0.537434399477574
10.507063780632075 53.55410487263837 -0.5077248788428071
10.881094702828545 55.05639270331125 -0.6076616016409014
10.89162642791626 55.12953084885114 -0.6015846426623952
10.925633797630487 55.225352078469285 -0.5958547787824199
10.937844347777387 55.27275871709257 -0.5922389156791673
10.978518972524954 55.55419186080665 -0.6044329483442488
10.974980099034722 55.598292939415956 -0.608312951336198
11.006365647073986 55.6928047329609 -0.6094481758391288
11.064023954000918 55.818845527979335 -0.5929715326449105
11.084961316412036 55.883031327548125 -0.600559010398395
11.071553756031761 56.000533775514974 -0.6071730934883389
11.094746805817843 56.08926689715744 -0.6106136793437277
11.144734459304777 56.189058578664664 -0.5991511201680744
11.17903890248405 56.293585372893496 -0.6030820878761782
11.202225051445936 56.48929909608185 -0.6288199581637701
11.212494805808424 56.57868630708237 -0.6110584828436275
11.240496358489374 56.66848320533337 -0.6084690576127755
11.271443012951814 56.77524052213488 -0.6074650850905564
11.410427698565154 57.510984012155795 -0.6302141135300762
11.441026618644285 57.5503972965126 -0.6181940211416768
11.468754390364806 57.61620384343755 -0.6295463591261016
11.674620984692114 58.320743976939596 -0.6138847269791213
11.709480146108067 58.407861020224644 -0.6101274929347306
11.750740722023439 58.54023808991909 -0.6158086213726451
11.709886898913306 58.7307726384934 -0.6502889538342773
11.72476021831891 58.844576249278404 -0.6271670842596695
11.85637768071169 59.080098213476 -0.6236618034097248
11.840532730920767 59.22953066479378 -0.6324050696270991
11.907216923371838 59.29546240767266 -0.638630245275088
10.327370061486343 53.37572048672563 -0.5375717945106453
10.866672979188452 55.57062444888489 -0.6084267526366395
10.869716050482289 55.61943970342073 -0.6126816366697952
10.911586174807505 55.6975789607491 -0.6090602245351499
11.12957764712469 56.71057149614255 -0.6217620879661221
11.163841703529792 56.785388098706456 -0.6384897083171386
11.300015562616583 57.3180881355024 -0.6072852299840517
11.382764900296307 57.56988495186239 -0.6326174611728751
11.38151242505109 57.67140542018053 -0.6564423903995188
11.412058336008172 57.754988901874405 -0.6678521511432612
11.589791432076996 58.46571868331329 -0.6508349089267961
11.62856105463875 58.55229435658605 -0.6461488032230535
11.652333396747364 58.646557919421056 -0.6203609635080095
11.816514828622617 59.26091550327697 -0.6245908809535651
10.762913870178643 55.60732953262099 -0.6154685854623455
10.791610089051607 55.62387432569662 -0.6172550914148047
11.048411589310367 56.75627852171915 -0.5963986886639833
11.066118530913297 56.823169155751096 -0.6164781695318399
11.06982716514458 56.93468493288924 -0.5934800940106568
11.111376882262952 57.03309250820884 -0.6114414573987147
11.137226563571607 57.089773634494826 -0.6274274789994302
11.302281286378289 57.615817286954126 -0.6549348322604441
11.30990411795263 57.70005233635356 -0.6511585060126854
11.326423045065196 57.8003317750666 -0.6498963706467021
11.343009368815544 57.90609879098586 -0.641622423992719
11.391172788306466 58.031891928733735 -0.6315036063041983
10.653753457188564 55.601673213575346 -0.6158829070292172
10.685982648019731 55.65051423969353 -0.6196655857819904
10.895489479931811 56.7395076063964 -0.6346248142303403
10.970613529742742 56.85500641783161 -0.61912130563462
10.966420344076237 56.957344835438924 -0.6000651271107793
11.031994886599666 57.02603291953979 -0.6142725243714978
9.993612911705247 53.49448282355726 -0.5597023700697225
10.136662629222721 53.83347076353132 -0.4759171629515364
10.5832954078997 55.62239835823114 -0.6198633706795647
10.555711171316682 55.67729885854876 -0.6192895830937374
10.81302143519919 56.686385266769875 -0.618630030968753
10.83916581731835 56.81651445026697 -0.6088128507799799
10.892456774269862 56.84896640362304 -0.611036434390231
10.93218612854242 57.005721362409254 -0.6033284870914424
10.924114597852713 57.06638389525402 -0.6175750544621472
10.94094577603748 57.13264021877178 -0.6404708499105218
11.312594715955857 58.43845107547223 -0.6343630216562121
11.406999332749509 58.84844028224192 -0.6479903331844912
11.382568831875373 58.8941563671588 -0.6611240329041165
11.425370034925907 58.98324079559446 -0.6608801186502691
11.455487324736662 59.09004011505681 -0.6652389101647727
11.46062367336092 59.173056484143174 -0.6666635845718363
11.493185058751463 59.269536390963275 -0.6503913348577853
9.943995013703917 53.44493912041263 -0.48615126587873153
9.961896229070742 53.47235002534639 -0.5087830302570825
10.012131608057821 53.79350558627074 -0.5593555794268557
10.414947116747962 55.5917831610263 -0.6191264523910389
10.461011732420983 55.64106272370803 -0.6177789677008891
10.498139954730615 55.68537681085278 -0.6190815660877136
10.505470304691377 55.97607561605919 -0.6243709733431959
10.500927278416446 55.988150376330175 -0.6254026432459817
10.637518185709869 56.441968005669224 -0.6170425021026228
10.677893546869193 56.52993032129023 -0.6229692531062775
10.72054944240756 56.59178271280401 -0.6245068562559889
10.766539433918775 56.6938188517388 -0.6138519586563762
10.775395254986494 56.89260885941903 -0.6179448040728546
10.79569247236379 57.005179258217076 -0.6228127901008499
10.815029032830964 57.08808164995003 -0.6193092456178245
11.042450854794602 57.974785845858065 -0.6701026092545687
11.063494930297294 58.061002453708184 -0.6514506945387883
11.098354168755664 58.15620796996352 -0.6363998524791635
11.137813539743995 58.2469141651362 -0.6177130147431628
11.174297477429388 58.35108427216157 -0.626725598704393
10.346719476945827 55.600339758666664 -0.6170436691472118
10.369251278258151 55.65916769088496 -0.6181632596945831
10.412258651710975 55.73315120701724 -0.6189828199839722
10.402156267643248 55.873268530265115 -0.6197406892938279
10.459079582779738 55.92895056353173 -0.6196523201532398
10.484026803077175 55.999710344530534 -0.6232711793253585
10.6469427874451 56.60165966548311 -0.6168306128265004
10.653197509550832 56.735951188696205 -0.6277284883429639
10.675155610199731 56.807482886074276 -0.6210724703090271
10.691814813901141 56.93541499988842 -0.6272421508035677
10.713685536831678 56.99877869219675 -0.6193450108213913
10.73948327280585 57.09913320631324 -0.6204167539891249
10.780106719763946 57.160955020254775 -0.6429300973609351
10.193610962636097 55.545995585370456 -0.6144915462244043
10.23792194705806 55.60503634091772 -0.6160414234930967
10.260090116756068 55.68133693433869 -0.6180069797657138
10.26604240630438 55.75050658291015 -0.619456223907279
10.358404997380477 55.863094244603346 -0.6216164330139852
10.338822616772957 56.068854946704654 -0.6177368964355594
10.40512297350902 56.1910466312655 -0.6165658249548419
10.42282417256565 56.26397406494263 -0.623913413662642
10.419192002543618 56.33591873591341 -0.6278478606963244
10.500093216981696 56.68149453263447 -0.6086128684507993
10.505935257528636 56.70817323200718 -0.6133606789054811
10.599890071292554 56.96194966731556 -0.6285610134423074
10.606052789819618 57.004952420851374 -0.6408153704283043
10.638811621852758 57.1176044252444 -0.6236003444658125
10.131377381519 55.54926662204121 -0.6147046507891446
10.153679221665339 55.59600430331196 -0.6144400102710833
10.179368163557958 55.70608102868472 -0.6156866663896982
10.20627968662662 55.78177564761464 -0.6183006444802892
10.20982615315065 55.92693272900748 -0.6189391847977558
10.210334813707926 55.975193847154664 -0.6202235190892689
10.498393603815492 57.118798238235584 -0.6054399407181368
10.523199758977738 57.164361475085286 -0.6210140730106423
10.541322009365144 57.2255809161756 -0.6361485978206902
10.04071325237566 55.57225543415106 -0.6163690621193774
10.056816005633749 55.642910145368965 -0.6166001319789597
10.068330794174049 55.72400015592005 -0.6159532600887428
10.220226416213261 56.1532746383524 -0.6086856054007916
10.22430239096489 56.21304103117487 -0.6097255770215549
10.223816969489993 56.26884719321323 -0.6173991854318926
10.36260600132736 56.91045848231023 -0.5859229962965374
10.343311225299805 56.961555114852054 -0.608184932035367
10.417018208846805 57.12678783680602 -0.6056388972517689
10.43432909795712 57.15655298059908 -0.6138913453250636
9.549327331349968 53.92136841889382 -0.510999948030805
9.528286759970815 53.969147937008856 -0.48780822085312325
9.94406719276413 55.64152759941859 -0.6175861818999898
9.976839311721442 55.787795624391066 -0.6173331777283569
9.989003563887303 55.80801093668983 -0.6165025488560331
10.036081816581994 55.95766550334104 -0.6166785075370135
10.044454198397752 56.0008205068952 -0.622894934830311
10.267873440196515 56.95238571564775 -0.5948598129385086
10.296658757936063 56.97697666551672 -0.6034126950096085
10.327226039258138 57.130563299927736 -0.5984744868733383
10.331577578779815 57.18032469136555 -0.6148297557543406
9.819376141254333 55.689904193481404 -0.6149613047477656
9.866212879219363 55.826176481120015 -0.6098620232065134
9.857250906214325 55.84825186380938 -0.6150577696042288
10.157429226722861 56.95772350590338 -0.5896216441825634
10.210810103511596 57.04673942797888 -0.6020093815615102
10.196997189388737 57.1428053348967 -0.6098361528723913
10.252291909765647 57.20101706893659 -0.617773337215356
9.777607668686661 55.7237206115288 -0.6173075483839624
9.798395804510525 55.78132095536234 -0.6174652772925693
9.844124102564452 55.88744840736719 -0.6198009844704878
9.894522809505586 56.207119746688335 -0.6144202835853456
9.911390802371026 56.27994963913788 -0.6155446146073551
10.06568623953724 56.999458552056 -0.5972967768430222
10.087757714351957 57.03497718298538 -0.6085086868607771
10.16034774694343 57.20275792077107 -0.6129944722408646
10.131791626120592 57.269995804317 -0.629023834536
10.116535274219567 57.33244091237027 -0.6380345507789305
9.107548313846536 53.65116815813582 -0.5210959971005051
9.683557435309034 55.764468945313574 -0.6177888742111004
9.67571082334071 55.81487494256108 -0.6187687993473234
9.702342283736886 55.93735184239645 -0.6151144593634148
9.732491722832247 56.00419471806299 -0.614411514190541
9.755625759039905 56.11726106767067 -0.6133567127290699
9.77706364975292 56.217478083108894 -0.6112767592805669
9.793898690021058 56.30304371916354 -0.6073394952815628
9.820617298580899 56.401224832553 -0.6072817238926546
9.82960737823505 56.51023987075213 -0.6198780988179844
9.873189400333342 56.591984484671094 -0.6052537589817901
9.91799016551071 56.703368649757905 -0.6059028346218249
9.951505173415956 56.793943535227044 -0.5998500772179532
9.972466063978535 56.88936990532506 -0.5991700205189622
9.999021189472035 56.986048759063706 -0.6013383809589647
10.012334486978745 57.098587865407175 -0.6106422537156254
10.005461152648072 57.19483767619032 -0.609715033020093
10.04022355701907 57.28256381989499 -0.6143209841542314
10.077079528628024 57.340317667195656 -0.6367489455146491
9.061371104381697 53.69460465132973 -0.5372947918311569
9.59632506421933 55.77745639761392 -0.6171228050947604
9.606275288157171 55.85838657231581 -0.6172091485083687
9.639952734363826 55.93613533380499 -0.6195894292174675
9.671638801115442 55.98746002891563 -0.6230739460259727
9.772294526383472 56.56881401404115 -0.5675796970160649
9.779019407750262 56.59741911571842 -0.6048863851592216
9.99442984982676 57.320438023068604 -0.5894340759891749
9.997605669509754 57.36036119987342 -0.6073490881249124
10.314056452217892 58.97653101444848 -0.6100611328419355
10.413578976023386 59.301490352526024 -0.6145009379107302
8.969181716461922 53.7213337441543 -0.5377082179252586
9.475093103869995 55.806298863108324 -0.6192215318204559
9.515453438252138 55.8837983778982 -0.6201358658970979
9.480727595170926 55.99990842177837 -0.612693361590766
9.48948616429389 56.03755812733847 -0.6109642978706348
10.060103300874186 58.14229815646095 -0.5906949518538496
10.05379256484637 58.221279372666906 -0.6021621663127456
10.069399803533697 58.295122088053 -0.611911241865904
10.09608617125907 58.48120389796569 -0.6134236457169243
10.153307815311688 58.67541453259362 -0.6255511675384051
10.200174105941773 58.75100349084759 -0.610987552000989
10.232285619936633 58.930068207058916 -0.6489651085177042
10.263430171389409 58.986190924905586 -0.6362266499800845
10.280312812588138 59.06068191937963 -0.628836350722429
10.298561010695744 59.16289808376423 -0.636689766953626
10.392349709118701 59.357560364123344 -0.6265963528155212
10.372626130817633 59.460346790477516 -0.6462236487983394
8.852652259662946 53.77988578074712 -0.5389200383732069
8.857110581946614 53.83102875826545 -0.5431019861915957
9.071049813116163 54.77997436266257 -0.5854129278418616
9.087466082592783 54.8372251054606 -0.5639499252667559
9.170875302978388 54.9646095894926 -0.5281992318872687
9.187629121203223 55.03698728778939 -0.5482872603790425
9.212591622786997 55.12174215472229 -0.5514080137425439
9.233688842066655 55.217091340240074 -0.5559767333327996
9.251546561949468 55.317263933872404 -0.5582081790527348
9.276384227857255 55.41502823693578 -0.561152649951694
9.314142641126406 55.5303547321357 -0.5567291403877708
9.330489507714157 55.60369364246805 -0.5598825127610169
9.337683561213431 55.6905314335642 -0.5734419874897042
9.398844551081627 55.827105617639624 -0.5790059162716182
9.414397664601553 55.88527955710576 -0.580467052385716
9.445975444434763 55.98970947922617 -0.5795277812929045
9.461104704782406 56.04552912101172 -0.5694128761933608
10.020761426505773 58.23319765465713 -0.5896579548446779
9.066145744395842 54.775561566532176 -0.5932573062313944
9.083769028144845 54.84873178538995 -0.5640787287825273
9.99682226994331 58.64779590755955 -0.5975128644698681
11.008281535959975 54.406533605261274 -0.4256098638511198
11.014619514508091 54.432376717468145 -0.4268170114080117
12.041045072079104 58.68894647684059 -0.6064574836584721
11.975838429494274 58.71270765020543 -0.5854283442708997
11.97545789418458 58.73685939632425 -0.5800345514955912
11.985732183409034 58.855776625471826 -0.5922219989658501
11.996095321422397 58.93871650542862 -0.6014843185567765
10.913525926127498 55.05782985311056 -0.4587231052184689
11.052039995469007 55.67905792778475 -0.5252976871775473
11.086962712920801 55.80570543563235 -0.5244935767291881
11.109287316406261 55.887986796501025 -0.5274641759076885
11.136725603744427 55.98324505291376 -0.5271600334110927
11.157571856421507 56.06466750249167 -0.5302124353770153
11.186683455778297 56.173548842935524 -0.5329825981772575
11.205780504843712 56.269545620414306 -0.5293492840900101
11.225107321284028 56.36826336301219 -0.5280437060432434
11.265116311627398 56.47349761819997 -0.537063965677432
11.288331174641797 56.58402001130784 -0.528964920991625
11.304914565911352 56.67695799305804 -0.5318258896945164
11.311872836062477 56.75420427355551 -0.5323421271927371
11.342270515463133 56.82332030394339 -0.5530116709547173
11.896019291889358 58.913824710743256 -0.6072055108214176
11.912448201690426 59.0243040239129 -0.6132109743072368
11.91785535722694 59.0766974595728 -0.606916052315325
10.904568724390945 55.153087210739606 -0.46167161799745793
11.077183496547683 55.82105581230066 -0.5239801235696154
11.237246628732368 56.47373408649844 -0.5178382735152757
11.246727982358493 56.59639767559511 -0.5005835613452433
11.28104434538093 56.64876590128328 -0.5164426388121289
11.267447961353644 56.779731395581436 -0.5347911026845428
11.364714698605566 57.36421004121027 -0.5409945844314893
11.745249599173329 58.895784997594916 -0.6038450339385204
10.31343909355457 53.366560360235326 -0.4283506150866446
11.161086546767287 56.791108930067416 -0.5348035708153179
11.686264317453256 59.06171644910854 -0.5898184178765198
11.719250054624526 59.12033510013421 -0.5898863822419981
11.811408543814581 59.320854714776814 -0.593771515123763
11.810864644707232 59.431811096711826 -0.5901353039901901
11.087874940707618 56.82154422027576 -0.5269427297523736
11.610341263413341 59.001116264150546 -0.5784041332959323
11.6496138568184 59.03630374707856 -0.5807670890405616
11.666568529895438 59.12029350995528 -0.5798417139898309
11.70214896329614 59.25168934664437 -0.5855473961543487
11.536864698737675 59.30497836841063 -0.6186950831669942
11.55987448389352 59.420113841003314 -0.6050769460712107
11.594723684092022 59.52010860836489 -0.6027199704295796
9.99389130019786 53.5223119498231 -0.44200169035045783
10.130278529034175 53.83663932063485 -0.43017257327844316
11.508996140437066 59.27303866808902 -0.6158606805936802
11.541766939256977 59.36703446517425 -0.6138848615495623
9.895203847544106 53.440843876698935 -0.38703728080057415
9.949849449615419 53.504866107709326 -0.4217691176544305
9.585973814014357 53.92295046176259 -0.382563158080652
9.570895893389174 53.91195756316782 -0.44010702687474573
9.520921857404515 53.974135901461075 -0.47257284877507516
9.865799256728838 56.59199940206067 -0.4907709226877594
9.986257112998116 57.216064799322865 -0.5322674095266354
9.991834414635683 57.2539956473371 -0.5444230024901141
9.776647410963896 56.56870817581276 -0.4947910134810103
9.980317050846033 57.227007080943956 -0.5073821160121925
9.990376720515435 57.271465605511416 -0.5493134808310325
10.49429958496714 59.47442627222842 -0.6038503044018306
10.469997494848641 59.5518613672376 -0.5735721424113713
10.049528453677873 58.119578379950546 -0.5773185580782365
10.036287128540815 58.16452681923817 -0.5780001359358021
10.242177456446216 59.02160573734529 -0.5552219233875781
10.28345482592911 59.06366380483723 -0.5514032049163139
10.319291710666427 59.17257544599237 -0.5516920770347729
10.35076479702407 59.25785229070052 -0.5622645124764657
10.390032060482866 59.386095574046074 -0.5327206100669959
10.435283184103069 59.48767944072365 -0.5244673539376233
10.462972254292447 59.639807689492486 -0.5387613890584085
8.834478488924942 53.774793546901826 -0.41545746242718584
9.171615470238027 54.959428644123584 -0.4517181440726448
10.015325786582475 58.24926676046016 -0.578618840046089
10.006096358526221 58.34259284737514 -0.5824527448258092
10.115679300563166 58.85418895201814 -0.5353053183948414
10.135270572186565 58.89928223122891 -0.5520531110867709
10.141199471085864 59.002604006112925 -0.558266963037453
10.212443423030354 59.068949108645555 -0.5882320799780765
8.101211412455367 50.91428260329458 -0.34218961949392657
8.09038803130459 50.9761149607939 -0.39049798139430075
8.815432128136417 53.76696010678326 -0.4390150689640559
9.98753582143833 58.66445724910409 -0.5541846803213096
9.989069653479024 58.745397186130596 -0.5430043062563221
9.992398562631692 58.8347508439361 -0.538202458280855
9.985899603064546 58.89896442129659 -0.5160764352936784
9.972712399846522 58.860043289378616 -0.5073683618837052
10.959150976883583 54.200989929054735 -0.3060557557493291
10.9695423960302 54.277804367113006 -0.3250842616081338
11.006273710555169 54.40542342828279 -0.3822122540764551
11.013229824622643 54.4350040739355 -0.3775325507626112
11.12889589623888 54.87744231071842 -0.3336517452949129
10.91392588261044 55.059117709099766 -0.3626438052860814
10.931719719900922 55.061004883788655 -0.40336402100576274
10.368223451982141 53.343730439181996 -0.2723097692964327
10.902860420807153 55.15269061081528 -0.3670177125073347
10.352645625308323 53.3480891681646 -0.32834451302394013
10.348121549183766 53.36016089783105 -0.29792217429988216
11.177978563192903 57.04321882763592 -0.3982430840343153
11.127322323403325 56.9563717029528 -0.399835181131277
11.159497771832628 57.014173230947534 -0.3894685076084417
9.90376557858042 53.448971589731556 -0.3605862293985377
9.953296878300735 53.50771469931759 -0.3013334974550156
9.595124597177152 53.932838201940626 -0.3127957165220661
9.8656706683845 56.59554595440846 -0.3913740750135778
9.982449422270655 57.14675647175801 -0.40390646715588385
9.981893394541551 57.17737591380637 -0.411399969528932
9.779505946072863 56.567719118098964 -0.3952557258364208
9.96662136150242 57.217088729388124 -0.3639516719421749
10.407629428212925 59.30634701886841 -0.4980387679584889
10.385184530649454 59.33882060752006 -0.5052114770027385
10.462421568301263 59.6022746813191 -0.5082901260145929
8.839920691191912 53.73997156218524 -0.3163304815512823
9.16981898251795 54.96019973490493 -0.3594915560789487
10.098234228373247 58.91745129960328 -0.4796082939791854
9.990900935954903 58.85634658719617 -0.4873591786288386
10.101058845731623 58.966740658613986 -0.4559084541065211
10.088326711774709 59.03887526522256 -0.43111058976946626
10.090904138637177 59.10366652600461 -0.407700124867972
9.96363248623539 58.864978386147804 -0.46032766968434835
9.964540507083386 58.941401109348014 -0.45530694823607615
10.963723119963433 54.1693494492995 -0.2833788888449534
10.975046293763675 54.28227792100216 -0.26259607915214983
11.123429346604356 54.83154296468008 -0.270911416927016
10.908905707450867 55.062124463308784 -0.2696246247971221
10.913688850207292 55.06885427582815 -0.2682028383492027
10.389697692903923 53.36483931345128 -0.22756639556098923
10.905039575862498 55.148229881330074 -0.2620521138364835
11.150726453622681 57.00237532105587 -0.3170329790447031
10.104965092083363 53.897122940079306 -0.23733601549456093
9.606150606005016 53.94537638242042 -0.22272427731718925
9.61259067365247 53.97639064768759 -0.1933096451698784
9.556018382057271 54.04166786634365 -0.1938025997541917
9.868134400930565 56.58135057140694 -0.2826689119079545
9.97888031562934 57.18406732218823 -0.3548714137094185
9.777812554583813 56.57545711866475 -0.30028477988060837
9.778226499813334 56.58887254536731 -0.28830500725355085
9.971461141028344 57.23076046440559 -0.33326185556568333
9.970144333908616 57.284330612893655 -0.3109558988618743
8.14409317471299 50.969960097014045 -0.1251825533284473
8.88563938111718 53.746940913075306 -0.21211691957231107
9.07085705702801 54.78746359025483 -0.2068763115836438
9.085794956170185 54.83594862246797 -0.2206672502739165
9.17588970107031 54.95836979967342 -0.24338324889316443
9.059643932974966 54.7972878165636 -0.21560581193354428
9.07380503808813 54.83180930744711 -0.2160883282675728
9.962433117291061 58.763208296649125 -0.3857961274945045
10.095447258140904 59.053818539792445 -0.37187663247452746
10.905209302301818 53.8721482445698 -0.103305667347718
10.95104216214029 54.06398972366625 -0.11742627321629469
10.972128246662761 54.143327404670025 -0.09607056939183256
11.037757542495761 54.4112338183516 -0.10988823685528767
11.050777817404027 54.452473667212956 -0.11550979876857917
10.862135097888697 53.827117926712134 -0.1584591282669188
10.890718940861747 53.89560702348752 -0.132230622733019
10.917604094459467 53.99145150565135 -0.1340212961857399
10.944541551706887 54.079061490191336 -0.1239418036313485
10.950695855184078 54.15113719383506 -0.13297097870015268
10.975910646564284 54.26828284435297 -0.137690104460245
11.015773105822797 54.408843896055835 -0.1332668954436466
11.031757422095083 54.4635261437213 -0.14414707002640867
11.055613263657097 54.565706784492 -0.16173546904107042
11.084976813460557 54.6575447986975 -0.14823832968068637
11.109800649126347 54.7699524910341 -0.16441880880884918
11.118996026971516 54.81721853556423 -0.18536850401563582
10.471821035696152 53.34022755636929 -0.1533187740465439
10.91135082116656 55.065021635544106 -0.16587666338082382
10.912270858490427 55.151149391169575 -0.14148791451552198
10.461727404984797 53.3772157212591 -0.13371126623989418
10.899682805752764 55.12934148707202 -0.16253950607808648
11.175938400611937 57.04779778751875 -0.2460294412587267
11.19030372819908 57.074692753781655 -0.17572103833147154
10.263062976648516 53.75728363730706 -0.07843943592484827
11.16372118443509 57.02620093980134 -0.20355237564701578
10.246767721025908 53.75416050522411 -0.09736195849074318
10.126501815918875 53.903658510196095 -0.14232160516313624
9.611588146240921 53.991622992192774 -0.16807182548684985
9.584238378558647 54.04400945921571 -0.1678619127145541
9.550503331198286 54.0921651077703 -0.13544736580831718
9.866559912345977 56.593693875796205 -0.19523372208531226
9.783534137513474 56.55262162607597 -0.2015027712185723
9.778700974766439 56.5930706843971 -0.22820900059624705
9.966864743427863 57.29780219975487 -0.22400348750346585
8.927161861800126 53.73288189496504 -0.09360021297502598
8.148712517009734 50.97452094386197 -0.0904650881187069
8.906680921827572 53.71455526003489 -0.09353870330431681
8.895054845547596 53.73157145511311 -0.14667305364315206
9.098421373279974 54.844800848170195 -0.13570938557809034
9.172345970075215 54.95855371866938 -0.14990459715568624
10.094032279350037 59.051152034483515 -0.2562037662065626
10.094799333664326 59.1151747194341 -0.24582371508449796
11.101477349983666 54.65113785307556 -0.05111105923387624
10.957921399679233 54.15858726154939 -0.08234707953585636
10.977466562362556 54.26700131997475 -0.043255411437776774
11.011151238859236 54.392798186392874 -0.04353214757076283
11.088672878272774 54.647020874646735 -0.05867747716293416
11.151432834138117 54.98614984389139 -0.055206783841942164
10.487255704179823 53.3776878156801 0.0044748130716857
10.912103610154055 55.06301895436325 -0.05980811051959392
10.90932764141925 55.13455952376893 -0.10284910093693804
10.900123910936598 55.13318273674566 -0.06187107391006348
11.179867069027722 57.047902701732845 -0.1214362514234492
11.189739890180284 57.07053369567907 -0.12792252261479828
10.261865866899775 53.7694443736909 -0.034586516556736155
11.12247940022073 56.96267179943996 -0.06438570060044442
11.154621988214517 57.008991714224805 -0.10385009293955899
10.258138880448904 53.77596043052924 -0.01724131034388825
9.99204899365278 53.86681333692839 -0.05230742689494599
9.649675552904814 54.021018686481305 -0.007597887198463479
9.533243177760424 54.09408535558254 -0.054177230439469586
9.489906019467954 54.163610456067225 0.005027645657226003
9.86933014481554 56.56842033894358 -0.05094007552576626
9.868117983437006 56.58483172392522 -0.0984014177627302
9.976609564964537 57.14695512914801 -0.11861726953699775
9.972868587705824 57.17933430119691 -0.0992570396824059
9.974144872607372 57.23747683195312 -0.10052392907881558
9.97252094550439 57.268805637099845 -0.1329571835401058
8.922780013642557 53.705054315622256 -0.0373335010043734
8.957279342288762 53.719993771255304 -0.013378732036415021
8.143527858684703 50.99867572309333 0.07560852783150133
8.14617390493911 51.02463774067212 0.054455675073875026
9.080098581954607 54.797037193906164 0.00483697815184084
9.092998578144963 54.843023294115376 -0.03083751754220055
9.176167637778462 54.95860162811147 -0.04544087444639683
9.986448872169802 58.4879571961892 -0.1002129021490394
10.07955225141537 58.8015393003889 -0.15715706994869622
9.075699281744871 54.833944764065926 -0.025186137222826754
9.972546253979257 58.5665002928949 -0.10727014626587812
9.954133827043835 58.641796640288256 -0.12685056733382696
10.101650438181988 59.02312437946763 -0.19614631630581486
11.00722668025665 54.248568163605064 0.07628211866413988
11.040882337891505 54.411538938188656 0.044198737385095964
11.06352110458131 54.457983509526606 0.0682787383369786
10.987402456767065 54.27740973254086 0.05517426730565019
11.017021097741074 54.3947236171825 0.061866167790059615
11.048094641183692 54.46294402155339 0.06372966881893842
11.146852210033405 54.9867216944965 0.04850348686897118
10.912466572179085 55.06384212885738 0.0432900183385029
11.322967606681527 56.70047130461438 0.013468659377998692
11.343690985793499 56.74339356467404 -0.009847437588776112
10.89912196407423 55.13253225105077 0.027721753371621832
11.302776414678785 56.827078506054825 0.033209660424852315
11.313460417267727 56.836758407345286 0.02879826294536353
11.192872855372332 57.09202593935656 0.0040580990872657804
10.26776414856263 53.766986892844066 0.10686884977205202
11.12393387232554 56.96728602701433 -0.03031055054832406
11.15604611014603 57.02313203880129 -0.02137726953022674
10.258343459386014 53.78234160038329 0.04370539475467346
9.975794011990748 53.826704014811924 0.11665825132669773
9.660073800502255 54.04026224839106 0.036723296456522656
9.670049054883602 54.066829661202746 0.07523489523473358
9.495395181724446 54.137977459752925 0.05780523194353255
9.756282900614611 56.03848628415708 0.02885169938832874
9.77220756342144 56.13403654316197 0.030417485891896995
9.790231036574909 56.225747726361156 0.030306993513862415
9.806054060346046 56.32933068738768 0.03491561352342676
9.811739592062121 56.42574064939202 0.04188007710479315
9.822199213323433 56.514085703651574 0.03151881929934648
9.870691460616206 56.59900414095286 0.00872897218976755
9.953513849166255 57.04205912446356 0.03997262231971206
9.961942191876847 57.1070818025504 0.024723719642582534
9.784665520431437 56.57198908618346 -0.011711367879652483
9.776213414492613 56.59860124598214 -0.01929932810489381
9.975343030957193 57.23400486389624 -0.05432268902140661
9.971846548171165 57.28119458422279 -0.024260555361184936
8.158056876938163 51.00037691933691 0.13818319430279913
8.16537282695112 51.05048521309378 0.13669246841849006
9.068653443897858 54.76920167578673 0.019481639727475488
9.094502182620879 54.84797883979752 0.05183701082914701
9.173286236483285 54.9603681176465 0.05400668361584303
9.998350712148111 58.45066506568945 -0.01083708616292731
9.992222131215687 58.51111083214516 -0.05182117353528753
10.082206329016579 58.864342526826086 -0.015110935558964197
8.074518471606527 50.83378169665735 0.1872878394696888
8.09873076885144 50.91787121626932 0.18367133605200672
8.121239679314352 50.99492607517137 0.19693980976690242
9.059485091812833 54.77136233295644 0.01682148858956202
9.082763872631935 54.84768720462911 0.0568653356406978
9.984553143990498 58.49535747990864 -0.018250092971127847
9.980594920231143 58.53451390937065 -0.054791459800073786
10.07763588981859 58.95698946492334 -0.03625398842472252
11.746501224738067 54.27718037021744 0.18949752366206013
11.057848510854843 54.48847698666793 0.113378334930045
10.963134341876364 54.28735008011582 0.17475724676193735
10.997327841515702 54.36637052163717 0.13361065911187014
11.055949085078973 54.49183488106964 0.11173877348556431
11.146221988923411 54.98208256609239 0.13618810028405384
10.907461625465654 55.06422754081623 0.14187244726792
11.336987881320763 56.7102681695355 0.1224701074129373
11.34818550653986 56.73248205642595 0.09456333469277703
10.89526783206794 55.11997760576376 0.12404588286929834
11.273467461135048 56.835975211291355 0.08258560816492838
11.281220032241537 56.85190140696318 0.08821428563878154
10.269946691487316 53.761107241771505 0.13326804632372657
11.12848122731648 56.96389048768744 0.112849958868562
11.140926163294992 56.98908606562195 0.13181986154766434
9.715028440610464 55.96829315209047 0.0972681334430549
9.735082933520435 56.03731426454686 0.15794227005785152
9.810191808233233 56.454031987582106 0.06290940791815221
9.87942429845314 56.62712801034599 0.0765203101356347
9.93840224679727 56.837190176204864 0.08382611208678989
9.949638473524036 56.91306539766058 0.08732300172224465
9.958421187105643 57.000272754788924 0.08678948636980294
9.988794822700127 57.11496797233458 0.10836329986327466
9.990827884329693 57.19136795085882 0.11106600652243312
9.660999844861042 55.97578350862117 0.10644983594887786
9.54650783404516 56.00216305437604 0.12331330683792362
8.1569793166365 51.05616893538171 0.24243302281500564
8.221765924154873 51.17420839267477 0.27094735363683337
8.244106823431906 51.2152632381111 0.278090020707516
9.077510799154208 54.798485194214585 0.1765165679382949
9.090348152014684 54.8406135436794 0.16487344592324982
9.172928591971523 54.96275219906267 0.14469466349678914
9.987555112943895 58.397224176976756 0.054987579715361425
9.996931847189426 58.42428785532068 0.05020470983130189
8.109763741411129 50.96995045861159 0.22313218476755614
9.070844833402306 54.79536464323513 0.17772661527394978
9.078101744708285 54.83610348415814 0.18527027583521335
10.083211831164961 58.94112662215689 0.0045712947163094675
10.085079305863548 59.02383354669423 0.03185905842197672
10.072306026649777 59.147964453496236 0.07134092419257408
12.067086476901874 54.1639497196389 0.2354040742521544
11.79442667236819 54.26075737388074 0.20724434584882281
11.144172241781758 54.82620249636082 0.23412612650678546
10.836500145918036 53.73906876388315 0.27769872885973995
10.983083760016516 54.238200990384456 0.2890412450166289
10.976439908911644 54.26660514085779 0.25926365853475636
11.011271723611536 54.39545334339671 0.24941354832682397
11.121475908852787 54.82281931746746 0.2491403074884518
11.131731481887558 54.826239128667254 0.24317701944500167
11.14976939448024 54.98672361204806 0.22522870666259662
10.907733025499278 55.06441736847321 0.19793364625066562
11.336477996108773 56.70011860087519 0.19616003366458482
11.355295854345531 56.73405810058664 0.23048710499960878
10.021480194098029 51.925148899089315 0.32710512384394175
11.244822179277222 56.838367343130194 0.15561712763226773
11.249768613773226 56.8661868659333 0.19536203046285072
11.225825716472594 56.85477881048961 0.24074120679712804
11.230504686177344 56.85894463802796 0.23489702221223516
11.118559200324302 56.956650238267066 0.21275897702346164
11.148099043943247 57.004840218857325 0.14689257451744897
9.846256210945224 56.65996064611212 0.17844662537319622
9.882050580782122 56.693130408235405 0.1818042263471866
9.933450343112131 56.935494208301904 0.20542123956097777
9.959887601191987 57.028415262773926 0.18987365423602892
9.971002873455705 57.10505302281391 0.18600264681576378
9.993151551476913 57.17697853983119 0.14529433951750065
9.781102577653032 56.745900859463184 0.18949915466228393
9.85985873383387 56.95581134811455 0.22931091436495926
9.911943256062292 57.03843161045232 0.2342850613728234
9.932040204265812 57.092687586282345 0.22623264343570054
9.760002298792399 56.80296627350717 0.19807174527912236
9.73640922128165 56.86704153985258 0.21371824812838583
9.719848042046873 56.92851976836444 0.2278691615706492
9.822510113679662 57.03176877031473 0.24186135944249343
8.171596722214128 51.103813600743095 0.3503602700097114
8.225448377463405 51.19169193092032 0.31860281485540676
9.080201921168555 54.826900710556984 0.20551588413881605
9.167810743123104 54.964174653803425 0.20384851898357195
9.464128252413461 56.14237882931553 0.18147237676401082
9.470907907103822 56.21536423334585 0.20675372716056764
9.487331339844653 56.28512731020102 0.23062920391143663
9.675550413887894 56.90613073771022 0.23789781374620694
9.686714729415927 56.94952371156221 0.23667303088391947
9.99889350468481 58.3687408977673 0.17193076286877024
9.993146692750935 58.42268094405271 0.15478060265315455
8.072571714557723 50.91283041125294 0.4021980611259136
8.113719394997121 50.99260823804109 0.3774697591096045
9.072095850074005 54.826772024862194 0.21024382948036086
10.079029483376441 59.17492868810906 0.12769658893259175
11.305106825733828 56.62626250246879 0.30930547295242855
11.318818035660433 56.662488118239295 0.2964310910522275
11.362273079369121 56.74929698616331 0.25230803377420125
9.914354399987893 51.28910237342271 0.4848987453441736
11.204235951656818 56.842165688264544 0.3048818381173653
11.226281780520198 56.864250184628155 0.26772348799609774
11.100981937621354 56.9314669304227 0.24277022377078142
9.795430395983598 57.09115474796648 0.2587412620400077
8.165771238227013 51.108193194124496 0.4901444153446261
9.611482734411995 56.708920765133286 0.29145335222149044
9.606496404836356 56.75621290462217 0.29723278380061746
9.656917070569236 56.891449252869045 0.25918795982724996
9.996670065134852 58.27165449686163 0.2752675094080967
9.998542745213964 58.32305995104498 0.2500858696086033
10.067823105156437 58.76843311122027 0.27839973728062906
10.068533085144244 58.80506117864729 0.29326218581793945
8.056409455295384 50.89502606205156 0.4457718474492329
8.100746319770433 50.98946117761722 0.48280070567932054
10.064748543549412 58.82366462250814 0.27045232783666856
11.26480128006581 56.42147908013952 0.43817351062692433
11.278088897933966 56.463062014446386 0.41596245073745025
11.331507911829915 56.65821524511137 0.351523571690996
9.898367735857374 51.17703355106114 0.515032121389783
9.888799576244724 51.320065310124846 0.5565242159298202
9.893234947419138 51.372554890925805 0.5394498269887674
9.894425810340186 51.43454057086734 0.5189751198024478
11.194739847719672 56.82269620618584 0.40024912793944933
11.1219795032776 56.955067755129015 0.3502193152737796
8.163936296398449 51.10060476789064 0.5219481526970079
9.987865120354849 58.273646659884214 0.4061549781724549
9.978289002014781 58.371912569669895 0.3596173667163542
10.067945862121817 58.76037320217002 0.37534755436991346
10.070921183514798 58.805365156270994 0.36065686948478604
8.123481677700298 51.01828954403525 0.5811893033099451
8.145879545433012 51.08449148325953 0.5433370273772987
9.968546638342287 58.46934493264898 0.37903561227433025
10.069628830065232 58.860777155060845 0.315986608922069
11.272424353243217 56.419853173531585 0.502769634155661
11.291702362671199 56.44888990793145 0.48792272852098595
9.889092876671006 51.112217322604664 0.6710348642122793
9.890193336738365 51.18291958719361 0.663844004107162
9.88783684424227 51.302611699017675 0.6095826191373689
9.88304815915749 51.346171818722496 0.5894885316724761
11.23232736199035 56.718543929578736 0.515040959707784
11.188220363748346 56.74030358314569 0.515741529635645
11.197190623045387 56.812010093916264 0.4786685241867907
8.173626945089929 51.12863174380654 0.6912879627816948
8.193001024983163 51.19634949517637 0.6857875607066802
9.98851645914954 58.303356690291245 0.424987426516425
9.987317915819828 58.36739303561103 0.44891502089478535
10.07470072593546 58.665885656689035 0.4339035668256193
10.073236900716847 58.74047402484969 0.40779868949840875
8.124992771631538 51.01377010158481 0.6363404184063142
8.159875804252044 51.14004234705932 0.660165406560331
11.309411000123923 56.74981456784848 0.5637351196345464
9.852237251746326 50.97210373300957 0.7951677356606675
