ply
format ascii 1.0
element vertex 826
property float x
property float y
property float z
end_header
-2.826569725767608 4.8167142971229735 -0.47879634870884896
-2.8307004945967402 4.854387929246499 -0.5056427460152659
-2.293052257656562 6.748515446050061 -0.5488318326369643
-2.248931683131221 6.870002289263922 -0.5531919301591217
-2.192476392497014 6.990578650378891 -0.5548530815204267
-2.1621438080838664 7.096121357521722 -0.5558042554702037
-2.139843148512819 7.203058957724157 -0.5577602570384931
-1.450677390357078 9.614721177056591 -0.569795172714563
-1.410527266962963 9.850081272169763 -0.592139685007914
-1.3886021074717867 9.932804790385326 -0.5859261706608055
-1.3889574113918437 9.971175674315283 -0.5836385190592762
-1.3547017420493062 10.101335450608644 -0.5771677041640543
-1.3443417429766074 10.20324780288103 -0.552280964932686
-2.868364809975776 4.837565430738695 -0.4409064410364883
-2.869206099971053 4.899779039574512 -0.49926121873603496
-2.3537995198027053 6.853168704696605 -0.5545097599405596
-2.2700371667387405 7.060812586078218 -0.5576398224974799
-2.5261562599910885 7.078076724171605 -0.5573477308462862
-2.0006143323925567 9.047234417572511 -0.5025193207460726
-2.539719142476362 7.133876764898622 -0.554496933337915
-2.4091311271502773 7.792776793664403 -0.5577920549896948
-2.380262057467098 7.884760830686252 -0.5590482328697695
-2.3516446576063212 7.986179971994215 -0.5644281737715348
-2.152630835414633 8.789941819720116 -0.5593086550220664
-2.1274471359573477 8.858059965375325 -0.5500224947445927
-2.0924386972426205 8.937400642934282 -0.5334601475083852
-2.0479742377771473 9.024338726155946 -0.5186524051896293
-2.0318919264013426 9.14351167455185 -0.5109559866509171
-2.020404756895301 9.234905940737905 -0.5179431818303303
-2.008996569357406 9.351477739339181 -0.5347046260443347
-1.9019094809237238 9.634410358710085 -0.5498686030788382
-1.9132343639847285 9.730150963106576 -0.5645867840126894
-1.876365229500264 9.85494364291348 -0.5621199482407475
-1.8371774004527226 9.956462614198696 -0.5385349922941324
-2.0758025537064797 9.276855152905934 -0.521248731196302
-2.088480014992888 9.332849984898234 -0.515946834750303
-1.9331611600136183 9.811708892127687 -0.5751244793305813
-1.8881775550406457 9.944041947235437 -0.5746818834316845
-1.884406396700524 10.043469981709318 -0.5867814857591046
-1.871104546709185 10.134825346136576 -0.5847134300643284
-1.8400859901027826 10.23751424440853 -0.5814943943054077
-4.220609400959442 1.8831518281367439 -0.39307859242956533
-4.199457694470734 1.918353564666969 -0.37011236369133765
-4.083950299722787 2.3599695252542867 -0.4141122213773864
-4.063730922019654 2.420593427564958 -0.38893999037955385
-2.7186614500005906 7.452289479674032 -0.5555342520987635
-2.6819229174887322 7.529498495778245 -0.5350700493238987
-2.690943643884704 7.678007289739929 -0.5612729125319661
-2.631885977516399 7.748839394811178 -0.5588644937294331
-2.5973064156018433 7.842537138506459 -0.5521315106726146
-2.531738251544457 8.140175485100318 -0.5720857450437034
-2.480854955444185 8.217496198511938 -0.5579652754448601
-2.4682988555394205 8.302895166094856 -0.5595358738272784
-2.4417697995412415 8.590068445995174 -0.5574804318894597
-2.197659899148524 9.263663221571626 -0.5233866728724549
-2.149453432232328 9.487815932052834 -0.5433744799452747
-2.12717695864191 9.617625881875982 -0.5487064425292429
-2.1382553973085345 9.659253219958138 -0.5544488147538565
-2.0271923596686117 9.819595671844237 -0.5265253605359571
-2.00217803357222 9.980582159426461 -0.5420409513996093
-1.9930910190130078 10.04558180707997 -0.5460897330461554
-1.9820614406502552 10.179512207876376 -0.5526907103145263
-1.9626949597122723 10.255992514834688 -0.5511534250836722
-1.9418328184098455 10.382261312542855 -0.5567504523618286
-4.294305021877964 1.870206363655404 -0.4526823111882377
-4.24203478008922 1.9945475000137929 -0.4346777306107938
-4.2199233135796685 2.1012396569886134 -0.4376602295517153
-3.246875262156207 5.868346884337749 -0.4470688890800962
-3.2458340022326246 5.9727799442048015 -0.48134305379450254
-3.2323591774199985 6.04256120304736 -0.4986249646303738
-3.2127236679081363 6.132569559000318 -0.5017910203558319
-3.1789287720537214 6.238159586739459 -0.4964445698159104
-3.1559271778663773 6.332331301742708 -0.49969034930830786
-3.1289922904141343 6.434274419602076 -0.4979501349697703
-2.7032793350550586 7.688943699118328 -0.560619240254982
-2.7126349398096705 7.723936937537983 -0.5672782088883651
-2.60099296335131 8.02583662110786 -0.5694159329010513
-2.4426701935344073 8.639902980157935 -0.5599219351900852
-2.439454757345837 8.730398960947813 -0.5616500948667758
-2.4248867527991846 8.840180583132229 -0.5537027963711185
-2.4204945887399396 8.966470654589678 -0.5374444963263737
-2.42081497148798 8.999937976733658 -0.5189887702267696
-2.361188052072278 9.27968819250418 -0.4960966240380326
-2.347825500294017 9.282819829514102 -0.4992501174478701
-2.2136515870021163 9.620325339601074 -0.5582535477709404
-3.2629395590894275 5.963814439396679 -0.4541674128674596
-3.254872023492486 6.003464931807009 -0.5142307553002952
-3.21275145911899 6.162385116642877 -0.5072567860336498
-3.188814106141746 6.250126494989493 -0.5055718861915272
-3.1561925842845744 6.354871566823447 -0.5039278685491745
-3.13802136005636 6.446261113160887 -0.5035315918487332
-3.133938928717979 6.54076185253125 -0.5162028851073918
-3.1021289366954687 6.633204326766839 -0.5116358735726944
-3.0843555829109217 6.72478775119494 -0.4964415312768234
-2.436327811846163 9.12345594853406 -0.5319318483135735
-2.4220728116599854 9.265258957534 -0.5143864416179282
-2.3367868777637715 9.454323720000211 -0.5021501649603295
-2.301546814194058 9.643967771293509 -0.547619058739741
-2.3234758841025878 9.740000646194355 -0.5263644621944605
-2.3094332707247065 9.853867666516567 -0.5505314323214393
-2.493251367924456 9.42432842622855 -0.5014435489214198
-2.321645387653711 9.860281836552016 -0.5741239253551572
-1.596316816285055 3.877366178590709 -0.33487657654333225
-1.5773474849513431 3.9340431773137468 -0.3475409657160479
-1.5360652769992473 4.038765863661382 -0.35616495034527546
-1.5253011041766547 4.108306987120165 -0.35650544573848547
-1.3831077360738424 4.740803000786924 -0.34584862516459214
-1.372575388044159 4.819178531151723 -0.3384856275012647
-1.3455654480272856 4.919232263578079 -0.3430971069459914
-1.326044761333732 5.022410621090546 -0.3397147813624889
-1.3056689006573468 5.1091105455589645 -0.3377290728201176
-1.280075963776184 5.22081737019406 -0.3398302807331569
-1.261832219277645 5.302363420280191 -0.3375133323780963
-1.2312614271869209 5.406762508051865 -0.33958643676445777
-1.195996158866193 5.501470941562379 -0.34833745735216076
-1.173040080610821 5.600173763317176 -0.34443198438572886
-1.1592961243813682 5.674866745618118 -0.34248764429351436
-1.127425870508224 5.787345025409909 -0.3463588339829463
-1.096931379715935 5.883753031776234 -0.3484363993168987
-1.075175446646922 5.955616282238436 -0.34961142474324
-1.0167875497765035 6.19711133667144 -0.3509783094301297
-0.9514424718963435 6.438110197867408 -0.3552014075975555
-1.8224224764899852 3.5851537849389317 -0.3415058220991856
-1.3109563385047118 5.136163599687096 -0.33151169668125713
-1.2932313402701126 5.2139646438875324 -0.33525523854996764
-1.2696924105801708 5.295555797916891 -0.3380273160148091
-1.219247141429448 5.473505196802928 -0.34182604081209833
-1.1487498754782852 5.739753726402828 -0.3451134351803181
-1.1414889303611397 5.766111513496058 -0.34557457619047693
-0.8919547995213462 6.69191833588231 -0.35818941580204783
-1.9199520027622197 3.561807984833539 -0.352480077399702
-1.8721811704100992 3.582749958180959 -0.3465819223563077
-1.9560781254204278 3.563703980336273 -0.35181766090789035
-1.9795681093599506 3.6060673094708133 -0.35438977152467965
-2.0453816552460755 3.683815587606167 -0.3364730108137037
-1.8480543537157659 4.362584494559898 -0.41348459735050297
-2.1134790695014356 3.7164308981736194 -0.3408286461970269
-2.2318745536428506 4.047902425571633 -0.38588202415110906
-2.234752128892637 4.122368375224269 -0.3602028175400615
-1.069261685040003 10.572617772126609 -0.508295473696844
-1.0492401195686905 10.626860774064536 -0.5087762246279872
-1.0174959263356593 10.733351792318448 -0.5159648502305163
-2.6691110945380903 4.79511256268187 -0.3698451748408876
-2.68416545500797 4.833282466345113 -0.39404439363893823
-1.0100448421820603 10.8412667710917 -0.5086529196528948
-2.786059460901172 4.823708284247962 -0.3830810634644761
-2.7471214245319224 4.870730377945358 -0.3233198899538296
-1.3591773405958696 10.209155784369516 -0.5095421444091757
-1.3423459816745886 10.304487939414962 -0.4990619727520849
-1.3339228720653953 10.445105056457088 -0.49047275234771676
-1.312134951150566 10.684773975833341 -0.5190438473302025
-1.392667688974845 10.714994926357921 -0.5049421306441282
-1.650567567195444 10.426469964646685 -0.5075411113731555
-1.6228261331800993 10.534245216585376 -0.5085272285100405
-3.9626433337565405 2.5814564339556934 -0.3335784655259139
-4.2408531477910305 1.8170383367088414 -0.3082246122163509
-4.202922983862221 1.9053036783192163 -0.31709300344129465
-4.178850712243193 1.9515040873173728 -0.33881131730759173
-4.05770709534519 2.4238859451869716 -0.3408390035042059
-4.00054228554615 2.5368573108803565 -0.33031782941138776
-3.6382290931986656 4.435048122689993 -0.36071760070331416
-3.6157352686293023 4.487285340404263 -0.36049347172409285
-3.6058899110648133 4.5975889147202285 -0.36630460775219864
-3.5977338391013314 4.6638450301963825 -0.3687942694122872
-3.3730908497878582 5.26982723516056 -0.3429129517564741
-3.363456332821964 5.360927212185871 -0.35249036981071497
-3.337706239898711 5.463563162869287 -0.35344716973552903
-3.314236774455547 5.558148458890378 -0.3523925179383747
-3.284913674767142 5.6487340691844885 -0.35136035018229306
-3.271531307857269 5.742128590743844 -0.35626047826419643
-3.2457342175145376 5.8553265583263485 -0.38022298743421185
-3.2441918409168418 5.964421573263643 -0.38693223947334204
-3.014981060872744 6.856098715864824 -0.35887798531531434
-3.0077953694015287 6.893579166565242 -0.3682402495318782
-2.9620550429758743 7.031255099298194 -0.36243449021709073
-2.9304587995800984 7.109509234504362 -0.3611232699117967
-2.9084039443756273 7.207066763800242 -0.36161281830537806
-2.8836263670921665 7.287637274502898 -0.3618505081912919
-2.867150663017133 7.3904677940190435 -0.3659889786493965
-2.8461345616456786 7.461467174949762 -0.3651388753342886
-2.758826249043934 7.805519963651385 -0.3767646604727286
-2.721786435712121 7.941811890972673 -0.37412737504166826
-2.366392227270021 9.206714622332248 -0.4799081220038314
-2.3511111246630025 9.298852793710608 -0.4829328718377814
-3.635455560505989 4.589711689123311 -0.3833329054866455
-3.260532341509391 5.969533444702735 -0.39247371476569853
-3.0785583096273013 6.738709644540757 -0.40038353992689135
-3.0148382615660405 6.8997040976953965 -0.3698651119935643
-2.9761441146945287 7.036598642222884 -0.36865012921505874
-2.8716348314868743 7.4154696671624185 -0.3694702142267652
-2.861105080235046 7.490445447393487 -0.36958077897983643
-2.806810174548309 7.644493638013416 -0.3700869973862271
-2.807644347095278 7.722302048829624 -0.3727541501765802
-2.78172996639655 7.790133017338359 -0.372774440348713
-2.7302012081176734 7.939839863968038 -0.3721415118892434
-2.6974048392438337 8.050026720800572 -0.3741086247709567
-2.6898793951160265 8.169863591618872 -0.3833050821883319
-2.630431196739001 8.379851868490013 -0.3865083920582015
-2.3610240576094883 9.319090342278706 -0.47563959488441093
-2.3283017888521647 9.454732008766078 -0.4791982999441427
-2.32691661930619 9.621092316601578 -0.49560346792910764
-2.306323292826531 9.85224872470345 -0.47701623554300737
-2.514082026255002 9.172105546560298 -0.409177877245695
-2.3277583002514617 9.847849209176108 -0.40771407584027314
-2.3127285702650946 9.944086082334746 -0.45823043310517314
-1.588861188762408 3.8691708803898663 -0.22456838064113438
-1.6168283269488173 3.921452957312356 -0.2588009593034597
-1.1519238721992893 5.71179337562822 -0.3368119981271222
-1.0752736811059447 5.976165646003406 -0.34323507516140617
-1.0439140397050324 6.095392868983744 -0.3434495380175295
-1.019029519090448 6.192383156063264 -0.34495943979283206
-0.9649855213719412 6.406278109497242 -0.34935422843098396
-0.9494607389768746 6.452268902794819 -0.3496046646192338
-0.9128992397632301 6.578232393110209 -0.3467114972283593
-0.8866217875953275 6.696229925142521 -0.3545227428482288
-0.8562293286966371 6.797367765081156 -0.3498029850400415
-0.8500321088564995 6.81420450459045 -0.3550027075082535
-0.7250773176286733 7.28264287418615 -0.35586901808980503
-0.7085371186645206 7.3166111712588995 -0.3660362076742894
-0.6034162622494872 7.7405716954288515 -0.36265535666527765
-0.5486344728712791 7.925716834176022 -0.3694503005286747
-1.2986866151480616 5.194507210949999 -0.33072289327145743
-1.2678609231146953 5.3044345894826215 -0.3329046633204808
-1.245074398274302 5.388260201544749 -0.33422581933338585
-1.1808783004854206 5.618707274535435 -0.3385969117074047
-1.1595834849815996 5.706419272833762 -0.3373501537967317
-1.145178486323959 5.748299585695587 -0.3408641965892416
-1.0776561703168772 6.007996727687504 -0.3385458253069443
-1.0581496262489887 6.077676004368696 -0.33941681057931267
-1.0347382537292857 6.1640826888896285 -0.34317198949523586
-1.006770982563003 6.261517345263922 -0.34434735104565656
-0.9667156913851962 6.410510844843305 -0.34568934949960867
-0.9526653105698621 6.475259574388047 -0.34596156853671145
-0.9351807550882878 6.5677448912850585 -0.3449869475008654
-0.9099332927239225 6.659027426271402 -0.3474785935371795
-0.8771046592560294 6.756370905827818 -0.3515496975843679
-0.8618753314680272 6.856421601516068 -0.34745224285337295
-0.8466036455100383 6.951397058225599 -0.34688229509522395
-0.8018564073037215 7.0600630517766945 -0.3500931327238537
-0.7953849098867056 7.148077498452158 -0.34406695328086584
-0.7598217157219331 7.233647621894332 -0.35013593287160566
-0.7235064279253085 7.343278874705827 -0.3531500462526568
-0.711374635169973 7.435130860387821 -0.351263278134509
-0.6880621738805246 7.543338783683898 -0.3499098054585914
-0.6752072783230922 7.625595275671473 -0.34935860120744566
-0.6179145508624249 7.74554931178698 -0.35725693283713383
-0.5903646872806732 7.824570645459911 -0.3594759324520905
-0.5710941248794954 7.920439898803387 -0.36446834565785885
-0.5481281757241148 7.996575294846634 -0.35514944232194706
-0.5398548484866115 8.111943308085513 -0.35231476629511993
-0.5231598885923636 8.2230080478525 -0.3520227029740005
-0.50836703272289 8.300443106560873 -0.34520495815579366
-0.48226013731938533 8.39945772116091 -0.3432085135096284
-0.44712960256174217 8.513032879405518 -0.3496127401173771
-0.40890214355381316 8.583131368653387 -0.35396503408162866
-0.4271389435993682 8.691920852752354 -0.3315696905806123
-0.3972212552677883 8.804563837938355 -0.33548818499811434
-0.37352053552119435 8.920489318014496 -0.33171863318060746
-0.34987649805016074 9.012297530283437 -0.3321239204902058
-0.3264006944099518 9.081110344239116 -0.32331923035424576
-0.27136056729622915 9.197385480660584 -0.3415966359129247
-0.26035945622054957 9.251940762118593 -0.31500346810425356
-0.5079585267007785 8.523610276087972 -0.32458955970515
-0.41245525633752633 8.832839230703755 -0.32644321245920516
-0.38152490111183246 8.958251545467789 -0.337583247594512
-1.8474275765426125 4.36813543090439 -0.2880953407725917
-2.19825586816342 4.142903016201266 -0.29396351252368064
-2.1915673791187804 4.171880069063264 -0.27270680290057964
-2.2082578406524407 4.15681954582816 -0.3008427882009886
-2.1920355490846966 4.208305101088499 -0.24814934070755562
-2.3315316010345453 4.175973403908918 -0.2576147728775042
-2.6702104544819547 4.794715486359603 -0.3147167334156332
-2.6549990463758286 4.83072725596876 -0.24786246617549268
-2.755019155818893 4.8819928539468185 -0.2873204764795339
-3.229588756384932 5.865627770387021 -0.2927608632815953
-3.2413893215327017 5.963593116813757 -0.2879952493607641
-3.012732326820272 6.827359304222645 -0.3113569297512791
-2.9395063183762034 7.056216055233429 -0.3533519017862016
-2.918707125639603 7.104147991525593 -0.3514268285357165
-2.8962749337345355 7.220745330414897 -0.3540832028500584
-2.867251240022231 7.291728945885919 -0.35327821562337736
-2.863891081298478 7.3826908724923905 -0.3568361296472711
-2.826862771955245 7.504186917530702 -0.35633436343739994
-2.8061410074600337 7.595248090430527 -0.35882696079131154
-2.745925995952084 7.793737340719981 -0.3576125420350905
-2.721138717213153 7.875126560625173 -0.35635550580465847
-2.6996682829187013 7.979873057793315 -0.35760837356909897
-2.6864769140033946 8.059865564571524 -0.35946989201521706
-2.6430156684395016 8.18536272482149 -0.3565111343491997
-2.626890315266058 8.259870699392094 -0.36111426446892275
-2.5932931135215025 8.365607589245833 -0.354874259458067
-2.578256822028609 8.443773164606545 -0.3572258828694902
-2.5443143898071128 8.558497629588999 -0.3592282181791489
-2.498029986123586 8.762089962109624 -0.35083711980848864
-2.1117634823406335 10.01641848164743 -0.32221854931799127
-2.074170918352297 10.214439571702531 -0.34345218648408826
-2.0295436111027088 10.326809135702014 -0.33077701573691665
-2.0116275981224754 10.475323089926047 -0.3405989553037496
-3.083950655314882 6.747748979476945 -0.3093553013284626
-2.8478540675407817 7.513108221952958 -0.3597450199652751
-2.79836693326343 7.716325898578556 -0.36284254972784713
-2.7648489295289576 7.810668184792028 -0.3598249485044299
-2.695812647509465 8.055858034371353 -0.3615711651848173
-2.685099355808569 8.163766717596205 -0.36850988068649515
-2.6190530111039205 8.362081504860372 -0.36760281697498015
-2.58488406000917 8.483994438794866 -0.3711582687093206
-2.568362092896726 8.531981706649802 -0.36887642861011194
-2.532684571512408 8.661683101262678 -0.3646135857190297
-2.52791050436976 8.769994973766256 -0.37092554643912073
-2.509559784118246 8.849663837286002 -0.3726089980443695
-2.515039550870901 8.931631119736808 -0.3693873946725203
-2.317385330144184 9.768170295825668 -0.3744201752546263
-2.1870356151873516 10.144172345575141 -0.34112007783958415
-2.1865502761229356 10.193861258126066 -0.33020694394844974
-2.1224844331027053 10.322866851591309 -0.37962079425036577
-2.536078999178129 9.096615219720189 -0.3847732457049285
-2.30893979737356 9.944549679085036 -0.35297666612018186
-2.341911110918384 10.104300156755256 -0.392384987967971
-2.335986837348621 10.125999183857115 -0.3457324223536577
-2.3414399429716437 10.161077254583407 -0.36603512481715367
-1.588455994096599 3.893480879828505 -0.20334792423134163
-1.601733207780563 3.924065251499194 -0.17514074511207842
-0.3635755072638718 8.9693500288544 -0.23280086243155423
-0.24538184518289885 9.283905620160992 -0.2900326679614408
-0.2156117070646284 9.345954455621623 -0.2462226796057998
-1.935832779229022 3.5739131571063285 -0.11980164207511526
-0.39383824584646887 8.923258691097729 -0.2441863604658196
-1.9431960597331335 3.5769810654968714 -0.123606268437737
-1.8214283509710767 4.368332131356072 -0.1297754258679925
-1.8393202689800972 4.38626467184367 -0.18878365964742141
-2.141959066127947 4.281421167004045 -0.1277690883924066
-2.315233404332655 4.229529421144545 -0.20156286807068197
-2.647297232329976 4.860283641473229 -0.1788109422005986
-2.756198516667781 4.90927548400757 -0.22014182246541686
-2.921327784562554 4.892477005005198 -0.13590610663093303
-2.0441654140507497 10.028815435850348 -0.29790359794813587
-3.2406497738500564 5.8693754856092495 -0.18121707580587942
-3.2454472207292278 5.965334566845597 -0.17900479596054744
-3.002696689831896 6.812142690255808 -0.1874420617322155
-3.0878766174895476 6.755237004587273 -0.20102000445903045
-2.316184959793567 9.755146013915315 -0.2730257058471075
-2.2161757548899006 10.14165903048028 -0.261714096988025
-2.318736440284461 9.884949194466683 -0.23292498543765927
-2.3249632146629757 9.960242356842741 -0.23952171338155248
-2.336090768935947 10.020368222333573 -0.28350769519785435
-2.2339272516597655 10.166990789420385 -0.2218271561126564
-2.236214297017601 10.209039342656794 -0.2640096392089059
-1.594834540519781 3.9009069177109965 -0.025912301692948635
-1.6014020087170693 3.9093408103815928 -0.022456202098586654
-0.34891280282693526 9.0115960244838 -0.18842356811761266
-1.9129549382876587 3.641848671557931 -0.007458657448483209
-0.46943150694986135 8.868152574007667 -0.12269576319541298
-0.44145649923562646 8.924229144741016 -0.13435237028557406
-0.384328589397094 9.020041051681769 -0.14336458234529853
-0.3948221881376863 9.109356518433348 -0.13257464078042994
-0.3346239271297866 9.194003731897215 -0.1544847365995923
-0.2988445847529242 9.27784876974222 -0.18073878173798227
-1.9383692369966938 3.68225150057372 -0.05626300169735652
-1.9444504419930968 3.7232350900733473 -0.03071708478338713
-1.8231078461720258 4.392893675226391 -0.10729893895529677
-1.8365064739366743 4.404856988442662 -0.0815617293920484
-1.9771627788976807 4.3775711916368305 -0.05862538246610286
-2.121903795306134 4.34220669716365 -0.07601261793231315
-2.113299906702991 4.36273501312248 -0.0551022698834232
-2.2658959937370953 4.287171719840536 -0.07425684511699199
-2.6433006963910066 4.902665925472176 -0.08550729177954422
-2.6486026196087478 4.942473189896921 -0.07881926249254029
-2.906535014559785 4.938443223132008 -0.03292749589174241
-3.31615726171196 3.846167903416877 -0.00413307527039785
-3.305090559797468 3.8835490869517146 -0.026053426038111054
-3.323600425761206 3.8503648327170117 -0.01212225110802704
-3.316194332109575 3.865203475420298 -0.039570246028884946
-3.2422396329583583 5.870019599342582 -0.0833730558590643
-3.2494045392623168 5.964961296180898 -0.08650979646965773
-3.010419629736342 6.825331617551424 -0.10509577926813451
-3.08066759245027 6.745813156703283 -0.10368509821267582
-2.3202773730868675 9.790861610814488 -0.18529529326506533
-2.326399642076971 9.958340571424324 -0.14739024877480797
-2.329894865084989 10.031954111570483 -0.16146560643229277
-2.2373756950154187 10.252530974997377 -0.16571692037884106
-2.2412688413214292 10.300893803613896 -0.11443977338476771
-1.6169382611580112 3.9039121152503675 0.06928486860598199
-0.4145419796382681 9.02850841286966 -0.05550255262983501
-0.3805904902441539 9.096064307216452 -0.01634158951790076
-0.3328093613522922 9.186155642015274 -0.08768083954696909
-1.8447132653854357 4.415131246807056 0.03024938389864124
-1.9972744605782278 4.348328233423651 0.0744717480301371
-2.068316571206346 4.390445474909914 0.0635795229231588
-2.6563995650812133 4.908689859608929 0.004457257638250604
-2.644155933625799 4.977502104477942 0.02608873683400876
-2.722426652993989 5.041340400440105 0.023513873704933325
-2.9131701412688913 4.942239805200522 -0.005509188725773863
-3.3596298709460055 3.6489193837573684 0.07996554551165981
-3.3300788382179167 3.7041626215518235 0.04360258368281511
-3.3089896935899406 3.81380526528978 0.056572497077981385
-3.3000663317236913 3.874890116536558 0.04950660973809657
-2.9187461435157336 4.949331198446219 0.0409922543401883
-3.2304855285053184 5.869670429510483 0.015454181435806284
-3.2511136231743674 5.967539578081498 0.011159002722052606
-3.056858414379678 6.710578143192236 -0.022540022476032533
-2.999367566814002 6.811332036588057 0.006270211752501455
-3.2674149695013464 5.971821888661167 -0.027492632371935548
-3.0765432312346928 6.741181571501722 0.0038937615095198594
-2.3311551736148086 9.975044628217066 -0.02933070057533064
-2.3315918327710863 10.041146294525511 -0.07381736956288917
-2.2479171680044248 10.271214698216944 -0.053864812438372885
-2.355957495343331 10.11079863909482 -0.053865055107782826
-1.613196840974886 3.897556873546222 0.15709769846527116
-0.37195310143240357 8.958627804586875 0.0859396241675088
-0.3432224426615207 9.03920458338724 0.07539724692402835
-0.28182624207492957 9.235487252439597 0.08966268128179437
-0.14929525687476142 9.506189717300206 0.05558728016168028
-0.37175060329454546 9.118977266753689 0.014559467777436108
-0.32391870108545007 9.204449751318602 0.03199567267201332
-1.835503654381967 4.378566368840227 0.16079793678527945
-1.853202808849977 4.422475268900824 0.09665140565051983
-2.017226747109525 4.311460929642682 0.14793777378466724
-2.0111991860938576 4.348732026124049 0.10878256483219931
-2.049500334976395 4.372661626849026 0.11509749986154547
-2.213288858023348 4.334761568079777 0.1376292592895987
-2.625724478109391 4.904107191597928 0.16558954126660716
-2.632580333268652 4.980250357069956 0.08116134823960724
-3.3425017775924735 3.7125145179418966 0.14337331203819342
-3.320962600359922 3.7909985192084394 0.13693604080974198
-3.3025092677003953 3.856880405876116 0.18834572888907408
-2.925648886031761 4.963628034578772 0.14384095049191528
-3.358105327598567 3.7396160394161915 0.15521313913774396
-3.3388377905833413 3.780831833350314 0.1168691853464847
-3.6200795246883968 3.1337285984699896 0.11961007835633382
-3.8598799623533537 2.7546844389661627 0.20463579962333353
-3.23216597248217 5.870137326379099 0.11544483444836612
-3.251337898096474 5.966834037264675 0.11167041729236371
-2.997493068701759 6.806365497875448 0.054154240497347156
-3.2622969410585267 5.970071370319729 0.11420265744765146
-3.0894304038005136 6.758631538588694 0.10328355852887822
-2.3301069350178283 9.951874903939654 0.04360842908439535
-2.348121657846808 10.037051284943985 0.055992662837055854
-2.2434875992349257 10.15485083558566 0.04439209810178675
-2.350061774486597 10.159697793205083 0.006047250262786956
-1.6440327612203498 3.9455173222654656 0.24284375652509668
-0.3568703216594551 8.995106338880062 0.15239229933167006
-0.29972763901714505 9.212325092961564 0.11496825924990167
-0.2754359416422101 9.259565344732344 0.14122675098231294
-0.2064768208447334 9.392052111187247 0.10030247723512092
-0.38321445856146164 9.06247905548414 0.17010990974182902
-0.362843630043139 9.098958303964116 0.18120257300629294
-1.8245636673135448 4.3486645994331345 0.2643170856641536
-2.64239115095551 4.980626979896568 0.20186965310048127
-2.7315922150141674 5.007662625815146 0.20519427382844227
-2.9265214197243816 4.969824109438181 0.18150328839987387
-3.3823692936259064 3.7533600205640254 0.20803242714441395
-3.628491988003711 3.3044212959082495 0.22129774512544553
-3.932283444706431 2.6347270212080103 0.22382456760046973
-4.127908815521716 2.3660721512496248 0.28271864501041144
-4.0675286600039495 2.4493730567365612 0.2769642868766027
-4.013165178784097 2.5266405225850472 0.250705367979504
-4.19776892762853 2.3067484515181382 0.31736371582869594
-4.16147819162011 2.386328953759572 0.28222750842182914
-4.135635704382743 2.442732997444318 0.2930643025771427
-3.2296955786566883 5.870981803790674 0.21366624750576102
-3.2451203118098526 5.965508697725266 0.21260072995939722
-3.081722325577005 6.7515721177955506 0.19627115935877926
-2.2479367658030767 10.045248164702972 0.18180342136073246
-2.2323515898820965 10.13888652507189 0.11125098485634359
-2.3236208136540504 9.861022754569522 0.11245330079729618
-2.3254234033019983 9.924129819436269 0.1340553093279472
-2.3005396220800653 10.056049784906076 0.1574771980747777
-2.245630298603279 10.161133356067047 0.15734118995766705
-2.2527102845998956 10.216967416269705 0.11569520247471557
-2.3554610886881426 10.167118219030542 0.17851073514458962
-1.6033398623602255 3.878522050694194 0.3516909777349646
-0.36228282146268453 8.956322696193824 0.286664947046195
-0.3420470925350616 9.015095986500405 0.2613149736475061
-0.3141429025684548 9.056246289112497 0.2905928612976411
-1.7548105068705984 4.204687952037403 0.3171037781464853
-0.39538658418707806 8.919238661724243 0.25228585629113853
-0.4166203965781967 9.02380362574957 0.23239930068631764
-0.3471100092521844 9.12683616359925 0.2616230780639162
-4.273742401611585 2.213606031361621 0.3403388602450122
-4.23606070890642 2.2913325166784664 0.3492766482386313
-4.207718702240808 2.366156464879439 0.3648822209983084
-4.152805324204768 2.4685805909488954 0.4122629344789536
-3.233712216427577 5.871205496815211 0.29211033806848596
-3.254489662531567 5.9701147125569936 0.2846980453836933
-3.22913214778675 6.085883662680748 0.30940497468955913
-3.2023200107927163 6.1740890700521565 0.3013560362637238
-4.295510071760539 2.1772580082975668 0.35886685816492025
-4.270618726831895 2.2868626919112063 0.3804631251971441
-4.269400103403647 2.3587560759189756 0.3304043357236671
-3.2627730439299722 5.982399100821179 0.3176610200824352
-3.236350974371333 6.0844719822442 0.3130148146955294
-3.218028622041625 6.155727426520361 0.29923645403086846
-3.0689738548986574 6.733425493994205 0.2798309532819969
-2.2474844694574627 9.917719747070866 0.22944469760537536
-2.245209495695601 10.055237325524724 0.20328000323577528
-2.232260279768668 10.097234941394097 0.20094057390047138
-2.2316738673340666 10.14702030358507 0.22410858433205275
-2.353855234605858 10.121565704390282 0.2604658436499882
-2.351853135468065 10.194158957563822 0.23896020307631205
-2.357802472487379 10.268603658089702 0.21870270799272165
-1.6071738134926805 3.886651709631842 0.3939665821603951
-0.33369982890512095 9.03109555564667 0.34805803230969223
-0.30370832021532457 9.216121109261545 0.3551864060826463
-0.3377414933553853 9.159136602242986 0.34984294898415846
-0.32799266853120623 9.16434294240824 0.30935876911852866
-4.159313251233816 2.42504812279369 0.46614022156522705
-4.140837546914931 2.4557580713822054 0.44808122780103915
-2.7956116436486926 7.641134724603122 0.42549821269203997
-2.8265394532674195 7.58699232850811 0.43349190957722306
-2.8083737773118433 7.677351070257968 0.4324954292907773
-2.35192702310135 9.981458683964465 0.3767121006128113
-2.3421875744363483 10.06313572364187 0.3430068312513722
-2.33943699464366 10.122481921052362 0.34538732446185316
-2.3672379515922506 10.099383958072966 0.3584477958372257
-2.3525904383305427 10.178558140777794 0.3315306385826172
-2.3650983597657813 10.2394934032568 0.3573526763934809
-0.3324848938820715 9.02392186047344 0.4444219039675147
-0.2903421822041101 9.229125342543064 0.4193378162051389
-0.24500374423630333 9.315690621565649 0.43564573225467446
-4.286062488176325 2.1672096611067917 0.5288343322027224
-2.8459298964904387 7.446666897952214 0.47211394491610914
-2.8523320189289896 7.467137795279765 0.46757654812337357
-2.779517240476964 7.744587060455698 0.49074126223586273
-2.7539102091877776 7.8292964188857574 0.4893280625012998
-2.7303671798984643 7.887675915502031 0.46700813912942063
-4.3994325064692115 1.9788307444524715 0.6189267728172209
-4.375442970150335 2.0202876009225545 0.5888688435940135
-4.329417536114396 2.0964957160402893 0.5541474982531394
-2.8754890307845917 7.435731873548456 0.456638748315842
-2.8753960989780545 7.528362564818631 0.4570334344878763
-2.840040664560156 7.616782970811331 0.4448356178255285
-2.8066382970252057 7.715189947532446 0.46088560836957143
-2.787666425839794 7.822238390742821 0.4515036657987205
-2.755100811024638 7.878080592819406 0.4629612249741006
-2.740535356019019 8.00163112183228 0.4687021446130594
-2.737821170181285 8.10283792858316 0.46819246160541333
-2.700978397210411 8.182851653541924 0.470974458892687
-2.6693788475770472 8.283539965791544 0.4928142672465228
-2.3443667265000583 9.861456565395626 0.4351942819420376
-2.348260949072814 9.934050605496493 0.4571312653966378
-2.238854421728955 10.17753344043982 0.3961216352349907
-2.2415075912997593 10.265219971200521 0.41736480717238433
-2.23223459481028 10.346363010917198 0.405630679167276
-2.2348593253979727 10.441347935549691 0.42797740581293214
-2.371650047061793 10.058776609605879 0.4003677698575364
-0.3541777122015657 9.013706770683392 0.5438221940052992
-0.3135327849615164 9.170905323580557 0.5282869059590751
-0.2651962354922448 9.265444325204864 0.5939239406462141
-0.20555497344731877 9.384187131994029 0.585699855361777
-0.1662624814230671 9.456670176513887 0.5198077634155727
-0.39041863435589597 8.948203077015364 0.5385511956792531
-0.37507080132285653 8.988659263819747 0.5313661223233547
-0.3270941583127682 9.157718315426944 0.5592669699807623
-4.27901776792605 2.1494168966062848 0.726577566730537
-4.246226743686845 2.20707232281836 0.6786757189831887
-2.7034292439752305 7.943267378893016 0.6127998222325156
-2.683866284589984 7.990162585994706 0.6079809610396552
-2.6628751809285736 8.067789150505007 0.6161977407544796
-4.429239022014969 1.9588684419071805 0.6468780976990302
-4.374460375463218 2.0402351819119855 0.6645095125094379
-2.6650638118842886 8.337104236968269 0.5605953653167529
-2.665927520921876 8.354781936217679 0.5945806823643357
-2.1945723610039805 10.282912024607 0.5162712833724601
-2.3281197281956043 9.804834570208023 0.5748829737628588
-2.346564840330919 10.002412866908836 0.5081268864518269
-2.346522192419428 10.051750022492268 0.5674265302647202
-2.199156636003836 10.464840147236785 0.5575543645948345
-2.3536444415327664 10.124725637565966 0.5421564145637425
-0.353332417297878 9.019407348118321 0.6639259703548851
-0.312942691162007 9.074875839212416 0.6931154558084756
-0.24506229159301385 9.308625586223204 0.6353459378392667
-0.22422541925879846 9.353147189458962 0.6775953731640643
-0.36931048756208495 8.99338847395204 0.6255809159732453
-0.3543297671620975 9.115900332970982 0.6523686602613182
-2.6945873359184436 8.0080568635333 0.6430041722973668
-2.670203811952434 8.084428671226963 0.6456225845284411
-4.350097048956362 2.0401035740957543 0.7892964990095673
-4.3224747265182035 2.0757117162086054 0.7714226475919033
-2.660088739581534 8.339767044624745 0.6992561593592812
-2.668171301295039 8.378226605135323 0.6730403755978115
-2.3378849721770365 9.882302399250213 0.6780000843109704
-0.281467565639713 9.242253900584593 0.7841853281782761
-0.26681281709663707 9.266695629822447 0.7899160315053546
-0.3941227624940198 9.044472677305817 0.7446814690734354
-0.341653400515777 9.135909830447021 0.7388423338788136
-4.328986260121219 2.0080052183420203 0.8875112374515604
-4.27296463327723 2.093161368250653 0.9053169871747022
-4.237631736562474 2.156628878444565 0.9272604130985179
-4.405873700147868 1.8709707261671604 0.8754278700050172
-4.379054950663975 1.933295691954016 0.862029741296001
-2.6544773991681585 8.328499550964521 0.7766615465650045
-2.6583965542452397 8.35392485770932 0.7780400472762491
-2.3427101975853137 9.888726752283143 0.7095657615022968
-2.343200743209599 9.975960177908151 0.7643434350429945
-0.31854837937332414 9.10813294796324 0.8530681361715942
-0.27867639943016975 9.173192997165607 0.8597603787250082
-0.42544894725149573 8.986083574518092 0.8285140962846015
-0.4001107027508004 9.044476664635297 0.8592930181568921
-0.37142945885660894 9.099148854662939 0.8772550983759787
-4.260922095455015 2.1020749758924677 0.9554012770227288
-4.220812136003213 2.1775554444034046 0.9641752910646116
-2.6598547579927962 8.34220972464765 0.8536975400719375
-2.661745951311289 8.361572953500447 0.8463044421189774
-2.5599222747164507 9.13015038046644 0.8593552542375126
-2.5786351053781686 9.242930728289629 0.8988589012117546
-2.34111390458527 9.900453198297807 0.8839974540708491
-2.3480500019669694 9.976610912447402 0.8194810916791226
-0.34647677152970346 9.134552102365975 0.936483736957838
-2.5761458739321426 9.25188902063496 0.9691953961755727
-2.3399231252729855 9.865204075656035 0.94223512992407
-2.344500054493408 9.9762858490059 0.9181259736798351
-2.5854788992416915 9.313190407608717 0.9689393160144011
-0.2745175624950127 9.20608089387084 1.0270897867508129
-0.25132323536431045 9.29884268458453 1.0574563973208349
-0.2270408946658482 9.359947222717185 1.0801125808306404
-2.569480207383774 9.047533719013845 1.10454950460023
-2.5594585284925304 9.10798774756543 1.0755586940775979
-2.594756188424758 9.317922114226022 1.0762370453687502
-0.2148611816519086 9.362148986123426 1.106769408005617
-2.5641419242398884 9.019953220111107 1.1157813959787093
-2.5718991036218846 9.070717579444937 1.1209593049567255
-2.5764098296037363 9.253208605738863 1.1177857632901624
-1.699153191796987 12.097356079820932 -0.2380648285964515
-1.730713550466769 11.975688910524607 -0.22948199968624244
-1.7600130678507693 11.87373737979344 -0.22230059102499156
-2.222431363162602 9.982148472778695 -0.24136452700710087
-2.2372619398752027 9.920368617966593 -0.23490004919358248
-2.251278910813481 9.862475763087037 -0.22886949104187287
-2.2645218965742555 9.800608543025529 -0.22241168134690542
-2.277833790282057 9.752576711881938 -0.2174120480838781
-2.5406978336103228 8.881475605866235 -0.24159603905278043
-2.5350439869587666 8.726612409123042 -0.22015433759882624
-2.65209012536214 8.219049261529179 -0.24400406892218163
-2.6650952687472635 8.146838835363518 -0.23190621232088549
-2.6812643763117414 8.072981654004106 -0.2196379089854788
-2.7698803740405236 7.736423161645177 -0.24242071683457805
-2.787729279269579 7.665236436109023 -0.22883968334899812
-2.8068697252346597 7.605558604501288 -0.2177594108268076
-2.8636619996831736 7.367840589282762 -0.23211078779101862
-2.8831823241425614 7.305241431899563 -0.21948293825057258
-2.9122734562274406 7.129487099931727 -0.24182274577288343
-2.930271875023167 7.077584474269761 -0.23095613107708968
-2.9478026393468246 7.01706376795798 -0.21813277186653524
-3.539629856463543 4.749705615614257 -0.22192029224750753
-3.557012549348185 4.663895230842787 -0.23786024098559505
-3.6296664453744643 4.410173734697148 -0.2203664987018743
-3.640409978549096 4.3534119861779015 -0.23014977421756444
-3.6614978528556565 4.284800604084288 -0.2434220507420416
-3.559677377723534 4.178937001224154 -0.24368360670159278
-3.534055529172976 4.170518868139409 -0.24124290162962087
-4.657649824044741 0.4173260311124194 -0.22287464330352402
-4.681283573998747 0.3182594626366484 -0.23011231691122247
-4.710682342565827 0.204422977373242 -0.2384989181444146
0.3118125162536205 11.614312467026188 -0.23999889661037577
0.2771783450200771 11.477277791088156 -0.23035605035868822
0.24978526935730683 11.358821824508006 -0.2220493043404984
-0.49866711325560154 8.364593541111692 -0.2372596902899734
-0.5104197967291093 8.29616786095863 -0.22824651100499987
-0.5363042078744718 8.21701537883207 -0.21696096963870737
-0.654496354895038 7.693593863276192 -0.2376452049226453
-0.6741490902853833 7.611683523488804 -0.22406751474231634
-0.7706286600850973 7.215761566775944 -0.23522357333767652
-0.784941391479806 7.1485823841512355 -0.22264653932487732
-0.8572623667581076 6.889372820195091 -0.23891621747832137
-0.8673912366084713 6.835810278858849 -0.22804694049373436
-0.9322072351317701 6.604510537914419 -0.237137379443842
-0.9459335040612038 6.552247374514211 -0.22507482627257552
-0.9498525064217938 6.517755056984242 -0.21839839360169705
-1.5466020098728677 4.180348633817475 -0.223222767363992
-1.5607706335149296 4.115307079884841 -0.23692708673033042
-1.6264147808237102 3.8659169760301504 -0.2195394589755429
-1.6405532637261067 3.807539615577877 -0.23065761097727522
-1.6572056833136661 3.7533757862294443 -0.24080494437782368
-2.59519519372357 -0.007311437575983959 -0.21980884972128456
-2.6216194899253917 -0.09332972121548178 -0.2261557988567799
-2.5341569562913495 0.009478154310616382 -0.21858409552010477
-2.4166144460539676 -0.017376616970886438 -0.2207322246204549
-2.4411505344232602 -0.020257825243341188 -0.2208984175269333
-2.3326916136909466 -0.03906920879427567 -0.2225947521877114
-2.357923163590377 -0.06539534880148867 -0.2244446477506119
-4.375482618076541 -5.480189126520378 -0.23163606368070033
-4.418412364773502 -5.492094049685936 -0.232271662680462
-4.317535006092822 -5.489360851776046 -0.23176193368321213
-0.43533556050520117 15.848359940525548 -0.14598520011839614
-0.33400019019230864 15.809357558166706 -0.145465452447695
-0.247153597886 15.792400567586725 -0.1455903871573587
-1.7909934901708615 11.73587216878433 -0.2126262720945704
-1.818979701498053 11.625678393983625 -0.20490033011679998
-1.8466630365108228 11.503449976274219 -0.19632798014977432
-1.872518313590728 11.402980950786137 -0.1892891445467937
-0.14777439932598524 15.834004529341595 -0.14774449799940054
-1.898448315946089 11.292504521945009 -0.18153959750015392
-1.9229121937741216 11.195820377074384 -0.1747758928047052
-1.9466952045862769 11.099080432312046 -0.1679873956848951
-1.9698204921090663 10.996210315944904 -0.16081672877717437
-2.0013961025234517 10.881628876644882 -0.15277390900436716
-2.0428928481267703 10.703324760394423 -0.14032965472266432
-2.071723915618406 10.566394557276677 -0.13079386313385083
-2.089882133849787 10.498923131748372 -0.1260910566994398
-2.1166489982065952 10.406625385334277 -0.11962752997146078
-2.37953571441777 9.512161746410605 -0.19237118227164313
-2.403690611138329 9.471056336090992 -0.18811826514729552
-2.291049184531872 9.708521364290492 -0.21280603998487324
-2.3099335549069897 9.631368479140338 -0.20478516877270336
-2.346470889472395 9.506149865373459 -0.19177323368253385
-2.402011220053895 9.441262589355293 -0.18502955401958862
-2.427893325534196 9.33407896404158 -0.17397026826443565
-2.4471739371596444 9.247029027462863 -0.16500049221177807
-2.4714561170749683 9.158053538389098 -0.15586118488685125
-2.4979849077928407 9.04597634821248 -0.14436417407570476
-2.5191110600566295 8.965367311275546 -0.1361282294146336
-2.537045041270872 8.864149601959785 -0.12577752650747898
-2.549810135172476 8.624173761037586 -0.2061424778188063
-2.5725353662899124 8.559874054824649 -0.19751601547340553
-2.5975079891173456 8.453907349156632 -0.18321876673635187
-2.621734921674118 8.357512462436219 -0.17029552943549603
-2.64195413773695 8.278006715126102 -0.15969138234230681
-2.6513278544253334 8.22340062664159 -0.15235452183792506
-2.6645645642662372 8.175094906542089 -0.14597944337747465
-2.6885251215398966 8.049772065750982 -0.15795187082392537
-2.7111050506591683 7.952589586317568 -0.16633134034361727
-2.7375376393232 7.8574120372138125 -0.1845150486625567
-2.7567700099110843 7.764668142937343 -0.16945580476970246
-2.780625303252613 7.658826168862207 -0.1525130639016848
-2.8088152677785105 7.566426176134765 -0.1700387471681618
-2.8395918822982282 7.471003748240768 -0.1856618329712809
-2.8118051877994636 7.52484636579657 -0.13140634839506113
-2.8361923915653753 7.454725813974125 -0.14872412672700566
-2.862514877362225 7.3685460933762945 -0.16702178668930062
-2.894649923707669 7.270698228926506 -0.1744974026480085
-2.9126708117990527 7.174891129197727 -0.16463831581144678
-2.933794105868828 7.081525513278702 -0.15230230150010104
-2.962458971639218 6.975448856505993 -0.1811879077827051
-2.9839555128340014 6.88514918419134 -0.16424350402552615
-3.010149115056919 6.786928429423815 -0.1468637325718403
-3.034908365954571 6.694370576304351 -0.15624909010727653
-3.0921093608307357 6.582259802325568 -0.14333490462794032
-3.1239740046585647 6.5081985760890015 -0.13524965748807322
-3.1447957163819704 6.412231327052037 -0.12242750019721205
-3.163393609739009 6.353044653775405 -0.11660866436519271
-3.0313149985687797 6.667312916787674 -0.14975551609753876
-3.049188213999399 6.592938461111339 -0.13740424272150767
-3.374081431897273 5.39005637160714 -0.11778953765567379
-3.38767301460525 5.325125259265849 -0.1251814722158002
-3.411722990305691 5.228519929644491 -0.13831188966713223
-3.437009020705719 5.133190675525982 -0.15292266363293655
-3.465210231133348 5.03015860375513 -0.15137556294516413
-3.488785931158822 4.944286263427234 -0.15380552801156078
-3.5111115721960537 4.8699492558186455 -0.16486648200440607
-3.4892180921669738 4.908295952173111 -0.18994001029638857
-3.5151119400330284 4.831359991279985 -0.17147115687226214
-3.543946231763331 4.733559052689028 -0.16342189523501835
-3.567791685291512 4.636879780693916 -0.16795185736334786
-3.590499222253282 4.550051400435874 -0.1635589907713712
-3.6139019568497357 4.454971127796522 -0.16836909545695794
-3.643284415074614 4.347473831098455 -0.15906313151905346
-3.6656819946865133 4.252095787346778 -0.17351655448557854
-3.6927317570724236 4.149726776516435 -0.1765439809038905
-3.711604289917271 4.083903729112457 -0.17374087621709028
-3.5687485178956253 4.186579776678415 -0.16922095846014307
-3.6060980407298393 4.162105565575867 -0.17706254550672115
-3.7089391762277475 4.061475199549334 -0.2029378590592868
-3.5497213846320914 4.180829427295649 -0.1675992420499354
-4.484469404632254 1.205375466603197 -0.16608406916260968
-4.4739293565237706 1.16643502786392 -0.1682372190169997
-4.497964863322336 1.0579382514954823 -0.17603802965007648
-4.518278246210366 0.9767413188642307 -0.18195845899548713
-4.5422246964237765 0.8862169869126486 -0.18861104020652886
-4.577404077538846 0.7480639371073652 -0.1987281131665246
-4.608307514986485 0.6146480393293556 -0.2084121704880288
-4.629729965517447 0.5232052137068406 -0.21506833635289957
-5.340812171331321 -2.31531195276109 -0.12299893825637334
-5.359552560403634 -2.4453905433863694 -0.12783598828436468
-5.268422239897917 -2.463239372209153 -0.12730502805346838
-5.313273032137201 -2.4525580467113643 -0.12749386143364033
-5.193615885570685 -2.4825593725726476 -0.12708687533388516
-5.088933389410566 -2.506943822362712 -0.1267354534602699
0.21866112914546232 11.233146070188255 -0.2132306819737616
0.1912713860160662 11.118882134683176 -0.20520122233057547
0.16530851015814063 11.010390252555247 -0.19762022104342336
0.1315336185772411 10.885701965673967 -0.1887694095491732
0.09796455321146702 10.762975913991609 -0.18009025890606403
0.03273201261708936 10.550490411315723 -0.1648440975917974
-5.000795852968944 -2.527767073145987 -0.1265025119024173
0.0753124895716013 10.487371943011027 -0.1619740253553596
-4.9407594097663114 -2.539719386891041 -0.12629555220554844
0.17641109028043545 10.462615412263755 -0.1631844722613637
-0.4229045126342199 8.967534863044676 -0.18381172516916747
-0.42716456256143753 8.918951499400952 -0.1791067738208963
-0.448244393111757 8.78829530436991 -0.16602713428472157
-2.158286164513604 4.280310078919701 -0.1601324446458519
-2.212291783610507 4.235407443652978 -0.16029194489287657
-2.249634934388377 4.15861477608226 -0.19078115280801472
0.2537762405492705 10.431887080635818 -0.16343934252140854
0.2737731800999126 10.372437838637747 -0.1603007987798532
0.26031570518261793 10.288187487782105 -0.15465743974161122
-0.4067197010149828 8.75081663367736 -0.1645715824106281
-0.418535902091125 8.670508913465946 -0.15665537927725878
-0.4356372953149683 8.596166705129619 -0.1490398151849325
-0.4611603093684786 8.498392201955573 -0.13889581377688634
-0.4855305215714756 8.394918946346536 -0.12831623194127356
-0.5108121549315345 8.304581751856052 -0.11890179232166759
-0.5460330095942845 8.173638278409008 -0.21111757234287248
-0.5506120908807981 8.13864666367793 -0.2066493636788232
-2.1269061587178686 4.256530673303814 -0.16656712561523215
-2.1106249054581605 4.229975704431476 -0.173582353341363
-0.5644857027672663 8.082760989519405 -0.19903785342535252
-0.5834669895819959 8.002150025376944 -0.18817692939938102
-0.6082131438224023 7.9002860350629405 -0.1744506968428125
-0.6326897780022165 7.796004018165386 -0.16053658113763897
-0.6564647190928439 7.697787202619347 -0.14745385002061925
-0.6803937680069132 7.603413903545673 -0.13486986868525153
-0.7010181776855346 7.514083831004979 -0.161706504684574
-0.7219915740973373 7.426471253061323 -0.1815259969323361
-0.7414468224300435 7.353284522230472 -0.18122821596861208
-1.965446762987205 4.230718528063563 -0.14804463447454952
-2.008707275592682 4.188979002703351 -0.16805630305481248
-0.7498389268682961 7.309585258287363 -0.17440730413860042
-0.7726762101591456 7.218698828747537 -0.15974408320393454
-0.7986996066756298 7.108229376991776 -0.16839652821426507
-0.8181759167697391 7.021319280857956 -0.16163139768601412
-0.8424024279659783 6.928386694409608 -0.16864592112812027
-0.8699004998167819 6.822473212761643 -0.1675723104593281
-0.8940673815529465 6.732200390747117 -0.17555099987732997
-0.9218157571519223 6.6308737252958805 -0.15704780947195301
-0.9398702776602541 6.558565028613034 -0.15419607650067427
