ply
format ascii 1.0
element vertex 840
property float x
property float y
property float z
end_header
-3.3767396302861226 5.325804623230639 0.42511458680467357
-3.3929634181145927 5.233002971590665 0.4099435331506746
2.3959107326595697 20.27269660395499 0.37468838899962886
-3.3938714205660636 5.195646861237302 0.4140681748846438
-3.4175993042679895 5.119815721321579 0.40237277334221944
-3.4405331264705667 5.0262715010517365 0.40017958261170183
-3.463721851958163 4.924944301980122 0.42891116105516786
-3.492212830404816 4.825718147843373 0.42245836543642973
-3.514734456961592 4.728717519689495 0.40833755633560725
-3.541048003617524 4.632041137974122 0.4142899006406206
-3.566975205643299 4.539929119891995 0.4072956553034418
-3.598678907853947 4.4462896127767575 0.4020592586843822
-3.625918905601736 4.346136885354353 0.4038800637424007
-3.650069995223027 4.268319523657204 0.39352578297405527
-3.549370994240939 4.508072043739773 0.44399995158684175
-3.5752278268671596 4.434547661400069 0.43752069918573994
-3.613414840607627 4.330124659650878 0.4343666516030538
-3.6397502943952342 4.242859834440294 0.4309486971653881
-3.66608328271026 4.170452165861969 0.43858929202696567
-3.6886288178118667 4.095954059131476 0.45812410562516465
-3.741665221242477 3.93203272191878 0.4369992900183023
-3.8539239500153224 3.560567734686386 0.41721816999535943
-3.8777088181563313 3.4810672073202427 0.41871998248149805
-3.9041212757676766 3.3785572108992077 0.41113540481318894
-3.9289554887359373 3.2834353541717727 0.42467472652541566
-3.9566044906474653 3.1905350697150068 0.4232921385977827
-3.984855105531516 3.1108768325216722 0.3736490862483178
-3.915239681258787 3.2782380136741027 0.3994149741859334
-3.957464775251206 3.155802444081143 0.4188680258875453
-3.975602647845855 3.0917202421270664 0.406644535689401
-4.007533570328355 2.992692144497596 0.4080333457691716
-4.03310638308052 2.893773277110979 0.42133637227063975
-4.058440210774271 2.8017450998453057 0.42802854113633054
-4.0903645935661075 2.6966674655819114 0.41625566795830493
-4.114473214724946 2.5919880379899567 0.41325066580663566
-4.142728402272108 2.50311626388599 0.40183993753507996
-4.1652409889270245 2.4076801132709873 0.4172844725763482
-4.187352193429265 2.3163289322373166 0.41862007052789457
-4.2111016878835805 2.239938499357562 0.39616415876011085
-4.215763275133678 2.203279798159981 0.3991441586841283
-4.234999537647345 2.1255343911718243 0.40601204674742114
-4.25383583358006 2.045750298757735 0.41306684103474256
-4.323980857251382 1.9167714423240592 0.4265131761593839
-4.355998596489419 1.8255831203274298 0.43519851714624647
-4.373010039308831 1.7421177224264417 0.4425988148405319
-4.399317777609306 1.642193117037957 0.45179913857446835
-4.4223325591783285 1.5364104658345106 0.4419906051202989
-4.44080980644004 1.4311662760066666 0.3710224351248535
-4.449552904845277 1.3415117754235584 0.376038522255104
-4.483938924675911 1.199789517625803 0.3844778449059055
-4.471601816408754 1.14617521121894 0.3871481166620933
-4.498602094169365 1.0369034026420443 0.39372062420468684
-4.5262116299920425 0.9277253989982808 0.40031765661762647
-4.553970771220852 0.8279830121900433 0.40641522161681287
-4.57594451664817 0.733611076322275 0.412113418540653
-4.604373574271357 0.6243987529082426 0.41877579668304105
-4.627470076598961 0.5339215908392352 0.42429851776575833
-4.650657870033319 0.4413970011274082 0.4299476222090092
-4.67905919133908 0.33597548060182314 0.4364302140804441
-4.695027952733926 0.25012798764844835 0.44158958466918846
-4.7170970611556005 0.1655262469892449 0.4467878260811767
-4.740572039459473 0.07839060768302808 0.4521720278324582
-4.763651321628158 -0.028021096587250938 0.45865274719711485
-4.783711953905215 -0.1155447895599413 0.4640138006925549
-3.363212789816777 2.4926250640533576 0.4366058910489055
-3.387365182625901 2.4514981378906766 0.40363522883868047
-3.2980590608897296 2.4945749573012557 0.411698078011604
-3.3536175622146716 2.464571380590708 0.3906180568293233
-3.2028096374241346 2.4804589585699555 0.4070825318436326
-3.108548473996447 2.450865723912335 0.40744062954622307
-3.051440113701286 2.3924764748314153 0.42025372921138127
-3.0378983484478304 2.327900891809798 0.42102596527812336
-0.4250745979359456 8.644678916129184 0.46181525930935624
-0.44370315409505556 8.562684076782737 0.45826282604238033
-0.4690983406546061 8.468408748058323 0.454058539568669
-0.4932822145478295 8.377869389829609 0.4500335560772488
-0.5119435715231009 8.300169973177452 0.4466437373205573
-2.852399649616302 2.2131836699399736 0.4131302524800559
-2.8901783001187638 2.1510559565187966 0.3928053079105022
-0.5355152255414337 8.195763486343779 0.44214215366229076
-0.5641414507212112 8.082583942070068 0.43717447985444324
-0.5866132341834782 8.002068053210383 0.43357744631052153
-0.6065405719194694 7.911116662132263 0.4296914488683815
-0.6358195274338709 7.7888279585160305 0.42439666182392544
-0.6640461758621385 7.686132510339701 0.419843098333702
-0.6845006571535754 7.599550727956572 0.4161154454658255
-0.6989617217250799 7.52550755618217 0.4130303090497527
-0.7187008779222452 7.4587861992917786 0.41003933683712657
-2.773024818240168 2.2123034828446273 0.41366408003084904
-0.7350599683783465 7.399317177423333 0.40741314585702554
-0.7474027483063597 7.334040181919909 0.40472142541208517
-0.7738082315556691 7.230649608192393 0.4002396196371926
-0.8024007288832951 7.12599503806086 0.39565103163692456
-0.8233853047597777 7.024312699054052 0.3914338737798577
-0.854146832142848 6.9103311084117784 0.38647452010122674
-0.8691133593575109 6.837509905726012 0.3834769030741989
-0.8941544538792874 6.739743627839866 0.3792928768737609
-0.9089876991239003 6.6703049388017845 0.3764347256058947
-2.6725566338105122 2.1858740865970763 0.41252084735051475
-0.923122578499908 6.615294860522228 0.3740903434691337
-0.9456637029706847 6.527439439128811 0.370359571678012
-0.9614042501042601 6.451573457392994 0.3672832717477247
-1.0215416754577265 6.20298531294178 0.4638318354206797
-1.032972808534341 6.14240303782546 0.4595112007158191
-1.0595402285029087 6.038176064196584 0.45170849405279695
-1.0835774419330706 5.949711652823241 0.4450349046826901
-2.584145757274037 2.1403030346339094 0.3966571877340445
-1.0922127369979762 5.907722216442146 0.4420465590477973
-1.1088942280677059 5.840164924111535 0.43709889911261435
-1.133566055598847 5.744323890522715 0.43005602032551266
-1.1563667445640742 5.654889355278177 0.42355053798705683
-1.1822670878365988 5.552988276912059 0.4162139108559629
-1.2098222620330787 5.448280810966422 0.40869562847783664
-1.2309569569469752 5.356626418098395 0.4023923193862471
-1.2541701648946681 5.252062615319617 0.39537638802616426
-1.2739276311272416 5.1676444248398905 0.4339487023393566
-1.305299437664273 5.075115516916308 0.4538499827845848
-2.5091059196820575 2.090443589715468 0.4026915783799033
-2.4851098200152606 2.0344216020034906 0.4121336550597007
-1.2756156664499303 5.136927024153147 0.4154288108173843
-1.297304701354938 5.058970395748607 0.4129812073155709
-1.3241171130149334 4.967208366105975 0.4124528709885251
-1.349618900605303 4.874317507640254 0.4047576813707072
-1.3779031163708217 4.7818228635618105 0.40971536308296047
-1.402624124194717 4.67161197414588 0.41722125524591275
-1.4362896930400446 4.566786346032443 0.426352683051757
-1.4594578062197183 4.478288314995479 0.42668457089333256
-1.4818988680476726 4.379840215725852 0.4243289782121557
-1.502623623372042 4.286269619057651 0.4116391464890454
-1.5296103956852538 4.209297564181103 0.40800851792005177
-1.8568414183595188 3.385000586728119 0.3786074622169615
-2.41598931027866 2.079656634778989 0.41129038531019546
-1.4718626347612327 4.344505706132036 0.4056164743786693
-1.4940622306061504 4.276253271707343 0.41369337368103976
-1.5317334533929354 4.176626965524887 0.39876502199679104
-1.5558559086971768 4.081588740124077 0.4098810717713551
-1.5812217422733459 3.989140023567982 0.4145974640456625
-1.6118916187692032 3.8983111789024747 0.4212362354966643
-1.6350238474928946 3.799191783481883 0.42373080804189295
-1.6576373241056475 3.7009604968846475 0.4189333362376278
-1.6746969682993416 3.6005812502395314 0.41801925100351156
-1.6968949661698478 3.5056538248872826 0.4179615625505104
-1.7259430857464793 3.4197385662055657 0.40620776334539876
-1.7970919095290883 3.370108429745525 0.42202538825543623
-1.8527013242730979 3.176627999862282 0.41570398324142543
-1.6966854387918489 3.4757147484305464 0.42173215445961054
-1.721780226354696 3.3992333494779574 0.4216529919516205
-1.8072616251671447 3.101655988987091 0.41311380552885296
-1.8170589655443283 3.011138214630498 0.4165420173456582
-1.853416075959992 2.9214180909843415 0.40521451370529177
-1.8795205235881456 2.825535655042351 0.40527696282657183
-1.8923624834347397 2.72086028278936 0.4185583123077893
-1.9257846999923312 2.6304692399282423 0.42789574066920527
-1.9510690716931713 2.55587712885277 0.45233652694643645
-1.891692053718271 2.686768445633909 0.43000409291726976
-1.917491833327523 2.61570477449241 0.41517158966626344
-1.9468739353458635 2.5231309763327916 0.4214760964911607
-1.9765365542895308 2.4249807237898184 0.4039241816614794
-1.996934446870312 2.3335023823579717 0.4023856925652591
-2.0192257540533167 2.2330127834404454 0.41043420489652127
-2.046838766462366 2.1373018858695962 0.41486426843691865
-2.071322130251608 2.0382366565780172 0.43073604170712515
-2.092497033920619 1.9443315605897253 0.4022476392384511
-2.118699742532887 1.8443505015984756 0.4105338774090871
-2.135545304912659 1.780150897897403 0.4159247566180509
-2.1212439927532856 1.8038624500956297 0.41421292854492675
-2.143548705077583 1.7348580473178528 0.4199034878621451
-2.1652442261953704 1.6543437412314432 0.4267768715634525
-2.1915301564189744 1.5505279461244252 0.43580315606401815
-2.2111777991055193 1.4854908273401568 0.44141647359462505
-3.745542213162751 -2.833643369110539 0.3889176988445934
-3.7328447208722406 -2.8542739525111056 0.3895495086243788
-3.3418765701887527 -2.0993598275757215 0.37035633167584214
-3.314916416845573 -2.1440515209477535 0.37175847301505544
-3.622763558515115 -2.8756382358258294 0.39066437765604994
-3.6684386593742495 -2.8686687768439194 0.39025093263057453
-2.1275931998934166 0.7631718739930133 0.4058944990310636
-2.1608658766053863 0.6052846072354101 0.415076942250054
-3.2979639150884013 -2.193702914024917 0.37324073109609374
-3.4363500518978314 -2.742950882892491 0.3878922812287589
-3.5187808286607902 -2.8836347849146104 0.3914063150168063
-3.579837437381836 -2.903100299427434 0.39164377493912134
-2.1686951954187204 0.5579818420458236 0.41787981858186335
-2.1700757828799326 0.4429345875615507 0.4250061357786218
-2.1822831233567763 0.4122668366022988 0.42671178265809656
-3.473870878542627 -2.8898543572766577 0.39181617339687497
-4.337963964832196 -5.5535420271730676 0.4622700829328923
-4.232969663792549 -5.5164961648672115 0.4616790127912835
5.497748409185341 36.83822880727458 0.5129593381178537
5.613184790128448 36.80088037700032 0.5141120834901085
5.73485741955213 36.819269423165565 0.5156384654648438
3.9139188909815466 32.191088053287785 0.4657072177582904
5.855275577006324 36.83350334441872 0.5171821949541039
6.514296897183108 37.8912905399562 0.5315225565340532
5.001413832084419 31.95221942157454 0.4771052515825775
5.095330274735963 31.917796001976505 0.47801652813475953
4.805671810688398 30.53253226200077 0.46611465051867107
-1.731781362920308 11.961630363515352 0.5656395790697231
-1.7889764999814517 11.733249055162059 0.5554252832186712
-1.8433505854701084 11.518477628227377 0.545805819548562
-1.898104810005934 11.289602064873488 0.5356153463738795
-1.9488250980523751 11.080242876657799 0.5262798328796153
-2.051670460682133 10.495596172664742 0.5007626103323057
-2.1449197030795153 10.148769228131968 0.48520961038664895
-2.6321329902350343 8.300673157352593 0.5636030834236847
-2.650749444887216 8.221470277620309 0.5573388905655218
-2.6680469964590303 8.18011185544664 0.553996507219465
-2.690194194411701 7.9073907113493105 0.5328804446644199
-2.7128676077428224 7.846059975495148 0.5279671184576522
-2.7429604065402424 7.740838885446228 0.5196339358258566
-2.7646655991318547 7.655318387174451 0.5128964445232044
-2.7853869311117574 7.566662564792649 0.5059358127144118
-2.8109394407198325 7.474901406657105 0.4987122151261539
-2.8355196023365887 7.375983630763219 0.4909626705255927
-2.8648410667730997 7.27312602458411 0.4828995957763665
-2.9108433961351547 7.172799971133326 0.4749745644230331
-2.931997755834369 7.098191592519758 0.46917000923888624
-2.982533613068307 6.87061311870829 0.5627238258312303
-3.0050087440590882 6.797786636226244 0.5546035097459092
-3.0485340200678595 6.681461292002381 0.5417136160613574
-3.0990165523798754 6.578745808923956 0.5304938895090598
-3.1230177465576987 6.53002790124221 0.5252317672307247
-3.0279695788804 6.683821309496576 0.5419267664619436
-3.0715677204758634 6.55257170354375 0.5274509588753669
-3.14959009897357 6.395000502912237 0.5104586471011823
-3.1688649526164943 6.302848850658504 0.5004388649589846
-3.1883338288049607 6.222150370560392 0.4917363400967639
-3.213638514872366 6.116637218406227 0.5047785687288354
-3.2367439105101705 6.022750171773882 0.5157782313124757
-3.2596626107707327 5.926431918880224 0.5403022219849077
-3.308249214812959 5.570388616273407 0.5087301101132902
-3.3207370010311714 5.513708713392112 0.5139133423950182
-3.3456660589016916 5.423196015516671 0.5131027161446193
-3.378918491765015 5.316906274325027 0.5137414386776527
-3.3928273156573674 5.246808813507912 0.5321339882679177
-3.4207449085592714 5.164439003438948 0.4907855435985877
-3.3891799433950496 5.190051188693858 0.521478835099675
-3.3997827127644853 5.109101108626961 0.5048500909258987
-3.4236635555316766 5.009458930663633 0.5100705162586665
-3.4330453182630682 4.9095712964009754 0.5255603204456611
-3.4624374686911135 4.814028908193862 0.5032906128909835
-3.4974095370503875 4.721465149149605 0.4935679025355764
-3.52493066123088 4.648971935089407 0.48080010204116125
-3.5540904649564067 4.530831167014876 0.48869653821736775
-3.5821669918230357 4.456422642277399 0.48108166887524545
-3.439365604906523 4.8051020182486965 0.4793836674570424
-3.484715001821362 4.6881907528374285 0.5071618134059346
-3.504328569374101 4.615448214580671 0.49587460453742077
-3.5314657549737145 4.540954792401398 0.48650379809305044
-3.5767621407229746 4.424096772661453 0.4747564175470867
-3.604533783088468 4.346121754556879 0.46834821763150075
-3.8401007876276756 3.5622746516170722 0.49021503790146204
-3.8725194386039483 3.471169898558357 0.5011656049678923
-3.896301975920632 3.3776270562800246 0.4958018995155943
-3.916046042220815 3.2976950832990273 0.5077225874275749
-4.017252663200805 3.082034171003801 0.4790394047037986
-3.907662840895928 3.2441034066423526 0.5193764816975404
-3.916583372220228 3.173788670397579 0.520930247382818
-3.947840255000607 3.076585574764024 0.5076830123582896
-3.975666877160349 2.9785226770499618 0.5085391540904467
-3.999890800178518 2.883090369311635 0.5269989716141061
-4.031728368832896 2.7856924782646253 0.5114118796931584
-4.066064247781173 2.69597269229749 0.4960753567113259
-4.082554792483265 2.5914728548905046 0.5163831468928167
-4.101267210624741 2.5209955873989895 0.534048768343243
-4.16282598127081 2.406133766658912 0.5175442454686137
-4.184794920288904 2.3180764632922237 0.5215253604514661
-4.20391506652511 2.25075164360324 0.5043961674022814
-4.34064992589183 1.8864058508156754 0.5152036844537344
-4.099046774623909 2.5075766321389343 0.49849818013797936
-4.191410343961675 2.275238637328428 0.5366570602170648
-4.21465758951648 2.1997629127083154 0.5076963591874627
-4.231825750939556 2.119925871083957 0.518098093739289
-4.243169421676492 2.04573840023652 0.491528727604609
-4.329372647956098 1.913202676340846 0.5115902272603956
-4.3498763060382375 1.8357898381469802 0.521202299877771
-4.370236132737934 1.7484985416069043 0.5319120746449282
-4.394651452799144 1.6513182130326625 0.5440401832879821
-4.4189054508207954 1.549911667102235 0.5566918738272411
-4.440922879367068 1.4648942264786409 0.4927031874624919
-4.467312469182615 1.3628613521046176 0.47754356543934917
-4.495404543465913 1.251311547688862 0.4879643708176799
-4.501528037550839 1.1964206342080628 0.4927847294967737
-4.478623309896596 1.1624470670108802 0.4946989921801179
-4.507723988309113 1.0266735343862838 0.5073237298662643
-4.530978119310584 0.9354195732421933 0.515986657010039
-4.558328501648939 0.8360848351869015 0.525520566087827
-4.582984615895851 0.7384821241153898 0.5348272293111891
-4.605975007068701 0.6513698246917303 0.5431868908983752
-4.624389706546084 0.5825018146085297 0.5498182550172954
-4.616720025107616 0.5451225284723429 0.5527756181734196
-4.617794561612877 0.464847902918859 0.5598063465755063
-4.811632020616722 -0.2201866795765115 0.47048449621771515
-4.842698878472463 -0.351081891586408 0.4785318345076035
-4.874090522474067 -0.46820740559635077 0.4857919147200748
-4.895559933564957 -0.5489426257741101 0.4908132627140602
-4.916423226191204 -0.6298603629527646 0.49581504633599427
-4.939033310705902 -0.7342828885029773 0.5022316077372385
-3.3411064415639933 2.5836799336124585 0.5621766768270451
-3.391803380861166 2.5310060651364203 0.54680940805569
-3.409987790881882 2.461735846193819 0.5394398883941096
-3.2880354841168806 2.514807050046733 0.5002558053905228
-3.3683394819866894 2.4473490136142124 0.5263597563735007
-3.1987335044248275 2.494312778404287 0.4992818651317273
0.1440937410584162 10.93940536048015 0.5635195691933546
0.0841409699087401 10.722137049242662 0.5536788710472662
-3.0537653267863822 2.5840775534189726 0.5384042054063494
-3.0537643928045797 2.5455458156056596 0.5421499822103353
-3.1067220061460814 2.4683789811977057 0.5007366832776372
0.04531077251912086 10.497044990737821 0.5441280424443984
0.06290190182262556 10.474440888643372 0.5437642354176899
-3.0075080260778173 2.488206947339962 0.5384130118921115
-3.0337910182748278 2.394879175918515 0.5163573798655798
-3.0277993746056775 2.3373903376418914 0.49975367789886543
0.177095276055653 10.446893710138808 0.5459338729532929
0.12023966048083956 10.44668085361128 0.5443197280039127
-0.34481987329722674 8.993446918300027 0.4769975273598179
-2.953436427768161 2.344673825837879 0.5481345249351408
0.24972863673634027 10.423067404784057 0.5471337889540455
-0.3947624536008134 8.840361140782132 0.46989359279827775
-0.3949638877452699 8.77308463062576 0.46741642420888957
-2.851286172946065 2.192637618204887 0.47109576255150304
-2.899367082992838 2.139206318250464 0.5251266658016824
-2.9634766366387217 2.0750736061084813 0.5433756935414424
-3.000707162381235 2.0173832859281884 0.5642470934686186
-2.722995557858198 2.240154350568782 0.5181052341122906
-2.7721038007318293 2.2052639789613524 0.49557398112503803
-2.8356874149559133 2.150309385839112 0.5356645198886278
-0.7043980741425302 7.485518855188562 0.562316114683793
-0.7241579690899784 7.405229557747495 0.5560542450110767
-0.752854564041674 7.296637690318706 0.5475019389521198
-0.7705659244470064 7.209091228054119 0.5408965759537364
-0.7990098539026389 7.105649692233026 0.5327264524734883
-0.8156622897524277 7.0251259748262935 0.5266639583049537
-0.8415231071215958 6.919637049353302 0.5185338629983811
-0.8682896545795207 6.816739415087148 0.5105439943058134
-0.8832371912365198 6.746123871637959 0.5052591846462616
-2.6594106113231253 2.2209649146122845 0.5132584163780456
-2.6784612443310283 2.205206594949791 0.47426673247735135
-0.9039483988841881 6.678989813856828 0.4998966834985846
-0.9120276322108001 6.633252237535412 0.49657574774746926
-0.9385347221333211 6.5390912556532035 0.4892205482501094
-0.9560045798885968 6.450149980961893 0.4827174498985346
-0.9892469888014164 6.332481170730629 0.4735867256865931
-1.0043250303889422 6.254296208967354 0.4679443080485825
-1.043055733734517 6.120389048885892 0.5622657941260152
-1.0624276743298053 6.035076674886131 0.5531992218916871
-1.0826709313359486 5.951578831348678 0.5442690194417144
-1.1033680866364168 5.893977262986352 0.5375794538555203
-2.600684484999765 2.194500008771426 0.5115117649452534
-2.570806218888167 2.1569628482612586 0.5024361360502683
-1.1068981964059332 5.850627475179207 0.5335647498202125
-1.1319074876105322 5.754110776961285 0.5232540787304216
-1.1598696181759327 5.651306040365159 0.5122448760449106
-1.1813457008981398 5.560757898836185 0.5029074395769157
-1.2107655409845481 5.459819979180839 0.4921182990479334
-1.2351722340532005 5.355156477101129 0.5124003317145192
-1.2602412574152833 5.257964235076995 0.5158819583913139
-1.2764942802304373 5.175785512191266 0.5160745967667186
-1.3063361516930407 5.084232416145017 0.5261117912971471
-2.4935304293793594 2.0717323443910693 0.5332259829906104
-1.3053440837188985 5.057130405944252 0.523639633897557
-1.329082960011456 4.960872079009132 0.5116407215874881
-1.3580761248213624 4.859661168764705 0.5260304879054863
-1.3835332988016715 4.774874447695699 0.5181910427373236
-1.409685997392499 4.674355729999466 0.5065345187122299
-1.4305495526067855 4.586199093387389 0.5075787914919685
-1.4656725917305773 4.471616059454014 0.5248922743809168
-1.4812419787808784 4.386889997682887 0.5254592372382896
-1.507556630197259 4.290087453845158 0.523629602838204
-1.5381035716225218 4.193899660532187 0.5087015194014695
-1.572424196386922 4.098870189487886 0.5280281857621603
-1.5934614622120016 4.040361358739943 0.5176441032840375
-1.854979711391923 3.3842778954411545 0.48877497643841733
-2.4209029338169685 2.068674379740968 0.5197317209422314
-1.4752365348393812 4.341987904676405 0.49640651407954023
-1.4976846209894537 4.274769323271409 0.4876543874440586
-1.5345522901594355 4.177837418853487 0.4943289117698884
-1.561943579792938 4.093898939476344 0.5122665986083448
-1.597427763381684 3.9938463324892832 0.523758353839276
-1.6147842401951154 3.8967283863758237 0.5142983824156679
-1.6366381562750452 3.79835832894828 0.5067851104698906
-1.6658194958665393 3.703384689284793 0.5007197409788654
-1.6937718631973215 3.607811418309034 0.495692448773365
-1.7205131926602728 3.510420420997593 0.4936968905527889
-1.744429716710024 3.412327097614026 0.49439377441852256
-1.8002201345475253 3.3726373385638038 0.4941122209691805
-1.8287970762454702 3.1623286701891824 0.48178169121207476
-1.7400588108932107 3.3621732633829193 0.5208956869857049
-1.812891128131352 3.1070992415198 0.5132634184247995
-1.8302839085823033 3.0179162061301863 0.5225913172902446
-1.8606689859560746 2.919670000530267 0.514336303060573
-1.8828324106702294 2.8298781095642824 0.5106741925941634
-1.8999588725790177 2.7239632658751223 0.5139565049588652
-1.9296466945737025 2.6311019461622642 0.5312029814066523
-1.9539745994027682 2.550510240797485 0.5426447146322231
-1.8810156076028082 2.712194022033831 0.493762215635018
-1.9223889007508825 2.602882847284959 0.5060038241907621
-1.952249301040597 2.5152237949709217 0.5088228761169385
-1.9786090724311378 2.4358770237851592 0.49720569017175364
-2.0018684883375872 2.3344502740045145 0.5167901269823076
-2.027267032875783 2.2334519972641624 0.5276803677066869
-2.053605401572496 2.133800321314678 0.5118937064594926
-2.076917375882942 2.0425766896359887 0.5244652853213208
-2.0978019606638876 1.9409744691515132 0.502698395751404
-2.1198140600299653 1.8493160346015947 0.5217339674574626
-2.1427802343027196 1.7628233865967102 0.5275179960889624
-2.1264016631226514 1.7942145174012754 0.48753233563869913
-2.141429687133978 1.7447550674369388 0.49314686917892314
-2.1700123398980065 1.6543137247669804 0.5034823310051224
-2.1920494560342885 1.5488356221505506 0.5161855053875064
-2.2184409176093762 1.4937950114063234 0.5222978395245281
-2.163116625407081 0.5512228245275437 0.5324752092017275
-2.1724800613910977 0.47853334506423906 0.5392789668742035
8.656632671420253 46.340679038273606 0.6088907321303063
-1.4672861004473445 12.903572971780912 0.6082688456403047
-1.5219046720237606 12.854836808719588 0.6054543142085533
-1.5859402756573278 12.615538911342806 0.5946642044471062
-1.3743229766204221 12.869444349176733 0.6082890853971044
-1.4232530714695237 12.86680371616198 0.6074222445565036
-1.6713512720513846 12.203634781979469 0.5764778638656645
-1.3296762238823001 12.85635589251568 0.6084560187384309
-1.3061933819245242 12.695599932321555 0.6022454367562549
-1.14050692608028 12.817920657251403 0.609977361438516
-1.1881444806637969 12.729026732229672 0.6055437243318362
-1.2468514663855137 12.665286540410905 0.6019707840611375
-1.0974478797998335 12.791673410891043 0.609637349336678
-2.350609979557953 9.505580994220232 0.6593235695205961
-2.3912143874447516 9.489930723695334 0.6575611737486398
-2.4442134159766167 9.287610544468048 0.6413840430701432
-2.469694697142553 9.179269799247944 0.632765651778546
-2.495331067110885 9.054933810946869 0.6229325780957704
-2.5535244051065913 8.612697341867083 0.5883804711037843
-2.573595226600337 8.551745684769184 0.5834773790590675
-2.594423898328541 8.468842903177915 0.5768949324928363
-2.614149696130189 8.37182886772392 0.5692450318158799
-2.7358001750015495 7.74741559414313 0.6620334736087505
-2.75763632314366 7.658213419088478 0.6518584865421688
-2.7853060918358206 7.550054617434648 0.6395298697958971
-2.8107304631771806 7.443692851006368 0.6274420486785501
-2.835072641672893 7.346105019358042 0.6163651131135341
-2.8589669106069753 7.291087080398499 0.6100735033623232
-2.9107445751030867 7.174738497272605 0.5968374687688642
-2.9361703655299527 7.0650455493442035 0.5845021629738767
-2.959900283661406 6.9670933727399635 0.5735158237930056
-3.0050222792069428 6.798457312111323 0.664168260601042
-3.112136779618785 6.563345493670704 0.6303760228580639
-3.131031410775096 6.517652280249632 0.6238939111950421
-3.1451107378920033 6.434803199164462 0.6119558308281623
-3.012159421971143 6.75033110203997 0.6571213523639816
-3.028985582791906 6.699455038914079 0.6497213064382634
-3.0679792026913413 6.568106191810807 0.6306912216565239
-3.0953741064852864 6.546263425616321 0.6277138480589723
-3.153830419351913 6.391731390807541 0.6057821732570288
-3.1689335385705126 6.305279801786934 0.5933968369660096
-3.1934815823652283 6.199330930274037 0.5783800222317188
-3.2125363065710544 6.1207772694779 0.6327964701613022
-3.239272803515875 6.006472613129372 0.6348490230203436
-3.2615697143080435 5.936509721558928 0.6229922125425125
-3.302031950539298 5.5590333469644975 0.6198672434271275
-3.3172416831465923 5.509022706284456 0.6102294559251216
-3.3459770746523763 5.413874765477281 0.6224772146171218
-3.3716743918341714 5.315346340397231 0.6044089043248007
-3.395036852114179 5.244271264881638 0.6203424510130784
-3.3784023715522284 5.098149394166191 0.5842265533324758
-3.4005456791695354 5.030814537182128 0.5709359132927749
-3.951874300057648 3.060980369773202 0.5701071893193179
-3.974038620495688 2.9768887807858904 0.5877461147467973
-3.9950031941987607 2.884091468539047 0.607183690920218
-4.0252124330571855 2.783524382920376 0.6053313707066554
-4.047403157565737 2.6872999079292033 0.6203720294823085
-4.073611977188639 2.6000031015443934 0.6097509766824034
-4.108400988855902 2.5065119651348606 0.6309897707828667
-4.157709054328619 2.409329852581552 0.6203710951169692
-4.189587872448219 2.3144506040873365 0.6037425779519316
-4.2055623510935245 2.2574393102499806 0.614361768439895
-4.082979371908239 2.555030700936271 0.6187238578863377
-4.091462500206816 2.5268571708862924 0.6248225691854397
-4.210289122457226 2.204951270970154 0.6229722524564081
-4.234336546952738 2.112624204876526 0.6402356298771299
-4.246103404087323 2.0517452906555813 0.6029212074771113
-4.325345548715891 1.9074602406431886 0.597250216364746
-4.3531658754716265 1.8279400179254153 0.6104261788324714
-4.3741192660337385 1.7320477374185161 0.6252415061742855
-4.400003812144255 1.6324883745833803 0.6411011171107408
-4.419859257274275 1.5518150056249596 0.6539337470336906
-4.446301491489638 1.448242576482612 0.5945808698834014
-4.470674870310214 1.3442601478684177 0.5827422049290463
-4.495444251880377 1.2456919852703074 0.595314247975339
-4.503347154512765 1.197474261012169 0.6012194298975175
-4.459444178666844 1.1849299378772855 0.5999815156130004
-4.476814704264313 1.1712417335130865 0.6025895896393392
-4.496240936232365 1.0489004989286554 0.617690095759649
-4.529313243229886 0.9314527156172567 0.6331004933259978
-4.552624568577281 0.8390324265948816 0.6451072675307017
-4.577107176122886 0.7529957445636395 0.6564648056655911
-4.595860082067981 0.6856328601883708 0.665350881805759
-4.6473649047353645 0.3427317907667753 0.5715172387324643
-4.668261051133241 0.24755655351199213 0.5805900133422295
-4.69780319172993 0.1346250074343338 0.591534605890361
0.10764812928188672 12.496670119543278 0.6225653449472492
-4.722420400549785 0.04068182880997373 0.6006462655747105
-4.742694799520231 -0.04641771970952702 0.6090304730254137
-4.759560881199592 -0.12844832146858076 0.61686326176369
-4.775675385999676 -0.19394750874478728 0.623195143172937
-4.871730229174048 -0.41983425878114033 0.6463842660491725
-4.888716982972859 -0.5092373893496669 0.654892942577765
0.18687995132410506 12.485881747391339 0.6240433111401105
0.2792285171813309 12.458161762947881 0.6252211102677558
-3.47870468316198 2.481450498472441 0.6035628261891597
0.3766853570622559 12.444539300917327 0.6271236937194857
-3.4013445419478705 2.5450995147870783 0.5786192065646589
-3.453610522260727 2.497050148368672 0.5966873165443167
0.4636696378938989 12.404591829921943 0.627799365007915
-3.3006905114908043 2.5137485673412163 0.5759982655730014
0.44729426845442655 12.18151737497583 0.6188279200535436
0.38227271391070383 11.926063392091775 0.607369561285634
0.3328518883294427 11.715915012552342 0.5980540140193833
0.279934547597561 11.50054688887347 0.5884536525167501
-3.1994696089508614 2.496422884129847 0.571715550093209
0.2327578843828233 11.304330685120467 0.5797382290457214
0.191286681250177 11.127200905136977 0.5719064478444535
-3.100557818184806 2.490320544704572 0.5665056338220922
-3.1315903550753847 2.469682417112057 0.5740058079434287
-2.9796579517167343 2.4548775003668175 0.57067270953596
-2.9652927109240945 2.4266981587212353 0.5780167289099338
-2.9390520111638554 2.3701706021681646 0.5930275607779119
-2.9437230866024313 2.2278511591833206 0.5760566849176558
-0.39947169037086283 8.74277794256247 0.6611277210298228
-0.41611038789585564 8.664563729994326 0.6550423105035319
-0.43284845120407756 8.586281731105018 0.6489571391336946
-0.4536819196665838 8.501098240442857 0.642217516368446
-0.4776599476672425 8.410675621524657 0.634989188776935
-0.4997202370352012 8.325952512987627 0.628235955175255
-2.860804409341074 2.199034068776446 0.596426470425127
-2.891982459541245 2.123265412321742 0.6106538578173444
-2.9175723790695596 2.0888729193695434 0.6092285859106243
-0.5181072893876992 8.250427032291201 0.6222835868335634
-0.5342568032809734 8.180449415436247 0.616810722530829
-0.5504936969025418 8.11040327687789 0.6113385211124651
-0.5747194504772519 8.008541057895673 0.6033574826613253
-0.6094411484691777 7.889542267692222 0.5937396421891843
-0.6247280538253799 7.810820620154041 0.5877562948986863
-0.6437500921022026 7.7249378693204775 0.5811244312024055
-0.67154010964112 7.62440303662717 0.5731033168669757
-0.6944486676457844 7.534707252639336 0.5660476024561345
-2.7203561766750393 2.2422665803891935 0.5935148816992166
-2.7786874052111004 2.211716554090885 0.6078686607135186
-2.839209409495358 2.1527639466691575 0.6524035825146732
-0.8188845237673139 7.020737254411807 0.6617373902478709
-0.8469703126362313 6.911589828129241 0.6494511828685177
-0.873842153012002 6.8087693569771215 0.6378776333073988
-0.8929131970285134 6.7316387634448205 0.6292969666873107
-2.6643238076295197 2.229066412123842 0.6044387316640922
-2.6262732219339116 2.1970666555691896 0.643529641895072
-0.9012776704124525 6.683992863300645 0.6242587035677041
-0.9173750682021935 6.625873185316076 0.6176905007945943
-0.938800977784606 6.539442038521463 0.6081346403317167
-0.9631521069979578 6.440305957162504 0.5972303474214984
-0.9862749063444605 6.347127849713463 0.5870019839118119
-1.0104617438870145 6.246528516638519 0.5760728566634779
-1.0287713612054656 6.175448395854107 0.5682856473789049
-1.0578617904453664 6.058350811609428 0.6590630057695508
-1.0888063081671508 5.944590408113314 0.6427266034484498
-1.1086802350649128 5.871465306803095 0.6322824339966633
-2.603005750598049 2.194034427828566 0.6121489427970674
-2.5666418001206375 2.1586686823679724 0.6267590332253434
-1.1161998932872226 5.832067699945343 0.6270124458198958
-1.1393816501270133 5.7456041111032885 0.614807285490848
-1.163131314977317 5.6481084988783365 0.6013991227920128
-1.1925074616402829 5.548697327961789 0.5872828217732726
-1.2137604056297706 5.452421279126261 0.60810821866018
-1.2327106853598628 5.366213044468885 0.6344475239369207
-1.259360605231776 5.2640222296565184 0.6278037540429666
-1.2811106947592903 5.171108257676286 0.6129778907381376
-1.3017598969814805 5.083968227107988 0.5992435830807761
-1.3294122182064134 5.009328390737059 0.6571752188168816
-2.4762624736574548 2.0565519535633943 0.6044730586009992
-2.4887999709991346 2.0255488346249297 0.6232618847587146
-1.279738940662952 5.128203128738051 0.6079050659696783
-1.3040166747080693 5.058832786145071 0.6079265363294102
-1.3350251562516005 4.967373684101633 0.6131150205927332
-1.3610878320296127 4.8784001176827605 0.6090096888386589
-1.3887284677707152 4.7734312537813315 0.6143097101762423
-1.4187735856587207 4.6722136383500406 0.6199295250490275
-1.4403440184171228 4.579096436844921 0.611429614151719
-1.4644664141982757 4.486091508304266 0.6043333385993059
-1.4877358010507298 4.38407652175429 0.6049320196150181
-1.5057716319237437 4.293015686447486 0.5909489783571358
-1.534912316507811 4.205755679684308 0.5755245066051529
-2.426893409907631 2.0603323035746888 0.6157169291874647
-1.5074448985838578 4.256131241726525 0.5869917633580874
-1.537300442642334 4.172267599622984 0.5721706915746803
-1.8870181879959407 2.8050052365480758 0.5745169567665389
-1.8985036539519267 2.72005173774187 0.5900852376334003
-1.9317501808621544 2.629928451018623 0.6038322354000558
-1.9606879345147017 2.5344372632466876 0.60863227082261
-1.9795278184885858 2.462861185478188 0.6346382488668414
-1.960581495948418 2.4986375619427488 0.587442369151894
-1.9772687662799409 2.4307762209535113 0.614072072563659
-2.0042450813141475 2.3386971368760436 0.6251353872853567
-2.031012152947826 2.235857019244417 0.6203088261899803
-2.051498993210952 2.139031197155954 0.6086444652504859
-2.0754977830364636 2.043145579116402 0.6245329058667306
-2.0995991123363567 1.9472907872694547 0.607306935725896
-2.119608364777298 1.8455056421442468 0.6254970689018495
-2.148193577775667 1.752158239945822 0.6417472164062665
-2.144920453371764 1.739170540063352 0.5792607932675227
-2.171939518732416 1.6540569404087622 0.6136553330175951
-2.1953733620331146 1.5424362354837373 0.5980665549061575
-2.21934973893398 1.4933822998445518 0.6049818592290495
-3.7410074291900326 -2.8566135046410928 0.6226790015634891
-3.3179765112857584 -2.1404990647008653 0.5781223839516192
-3.637926471409645 -2.871697288915743 0.6236183980455055
-3.639655954285719 -2.8881697858675492 0.6246428822976706
-3.534695455480978 -2.886772533284703 0.6246373741015934
-2.16635541336485 0.5600368350659011 0.6460914277789584
-2.171966915536531 0.4675092961436791 0.6580814924254732
-3.4491531244650093 -2.8337381121469365 0.6214285188944291
-3.4787821861563506 -2.900948324100848 0.6256044195255603
-0.4228675235422288 15.81586018622992 0.7444329998750756
-0.35844835169464195 15.817286622769847 0.7456296255053858
-0.27510807460636455 15.79917715660464 0.746397567234979
-0.1719161164572256 15.78846078914747 0.7478678718366205
-2.0515018284418973 10.497279291984293 0.7396663426632866
-2.149153511179871 10.10756632771026 0.7083443465073265
-2.2600081603965325 9.691440564495121 0.6748599039772165
-2.5531141873980467 8.620384409958557 0.7617534940942419
-2.574219573375645 8.535815124579077 0.7520195361268549
-2.5943854201013945 8.467092957320707 0.7440794947835108
-2.614038271666581 8.374378712503221 0.7334688934711775
-2.631162906975939 8.327299715530595 0.7279998360767108
-2.6499505812606277 8.242405430980138 0.7182871213643975
-2.6682266633191256 8.169401646091863 0.7099198536474924
-2.689323411192896 7.939310098965106 0.6839591433029717
-2.7125394813194847 7.857330563413365 0.6745521332445428
-2.8106671009180615 7.440745159085443 0.7591566437971691
-2.828920698490752 7.373342908361888 0.7491046725294959
-2.8668461739313638 7.262703765182899 0.7326139791763802
-2.9160505956201845 7.156682960727654 0.7168320969159074
-2.9361267613012947 7.066796782773383 0.7035683846425138
-2.959655149738263 6.9650071407306005 0.6885823310886281
-2.9827732415170276 6.877196609421636 0.6756898624444436
-2.996072425872439 6.826799838462863 0.6683089064178025
-3.1026609410361297 6.569687904614522 0.7339629532224874
-3.1256230078184077 6.514106304710291 0.724178453427013
-3.140558346706128 6.439435555649229 0.71084372349391
-3.032178508298719 6.6765795419884775 0.7527136225628495
-3.0680031303516873 6.570226110242174 0.7336480011149606
-3.151839839946663 6.379090220660009 0.700087966012269
-3.1695548874670623 6.310391979604974 0.6879722231899819
-3.1913538255804164 6.208191583398987 0.7089189703980707
-3.2162526879452007 6.107529229989303 0.7404074258318625
-3.238570459603836 6.025239618163345 0.7234210363528077
-3.257178627900517 5.936108014319608 0.704961469826973
-3.3043973830952016 5.568392047064591 0.691593599519776
-3.318632560781981 5.504008666132366 0.6767489340118076
-3.3391469210001588 5.4642781667055615 0.6685384957812379
-4.077246233773197 2.5868951625885757 0.6768517346067169
-4.10763434403875 2.49631809557292 0.700030759067783
-4.154663817559797 2.4059791943845568 0.7265510388524747
-4.177609518569146 2.33107445277639 0.6965505562054328
-4.340967003817684 1.8914917315054878 0.6879541488091303
-4.345843876251522 1.8725170635753776 0.6915676211045294
-4.078182197997113 2.5654776400261623 0.6811079687844357
-4.085187539562503 2.5302687001359603 0.689211091106454
-4.183169027245922 2.285530858056453 0.7277374303229494
-4.199821770550735 2.2224784164873608 0.7074799261985172
-4.229090923004515 2.112230990330958 0.7192244187682904
-4.317170969873015 1.9329955419592613 0.6785273100741129
-4.347518848901828 1.8376502935095886 0.6973716803001289
-4.368517653440985 1.7493533165405273 0.7141134811870429
-4.398081298255735 1.638050612380495 0.7357187332240758
-4.419884687181776 1.5390161203432058 0.7545740356429578
-4.444570653730151 1.445042388748477 0.6708710177309127
-4.4712212154141415 1.3470654852520205 0.6868388430979522
-4.496342742891561 1.2481254531668782 0.702881776387843
-4.508550424241658 1.1935434854627287 0.7116195804387275
-4.481823043410322 1.1752312203827011 0.7120897619887614
-4.503572155910263 1.0415601775169745 0.7330355735360823
-4.526890952961919 0.9396620530430733 0.749613062635412
-4.551973736655344 0.8553855104009247 0.7638046369014899
-4.593203773294827 0.6656577211798202 0.6675286007864831
-4.620452616142085 0.5942366142091013 0.6773748567442961
-4.621240759891171 0.5294456701526227 0.6850178056959908
-4.617878510504208 0.442913256318767 0.6950444976935044
-4.646304613702009 0.3219447125086736 0.7108571566229072
-4.659854924215757 0.25483009401124557 0.7195360834784972
-4.691888180074134 0.1516392044513193 0.7334544933965841
-4.71276682516841 0.0494267218568365 0.7467195903253494
-4.736101419726205 -0.043482604686457815 0.7590060383621315
-4.918901104710212 -0.6275265507574863 0.6664051953953982
-4.944761983714111 -0.7190473440839158 0.675413610652573
-4.961418830007538 -0.7927832503485535 0.6825268485655458
-0.34153415047832647 9.001955425876506 0.6814464827807696
-0.38050751974323394 8.84960839970977 0.6692782588084656
-2.878080611132641 2.0958671502212107 0.6684722474170184
-2.9131566406552114 2.0476478053219322 0.6822979290494438
-0.6055042332630705 7.898312805490502 0.7607053546455473
-0.6345786682428147 7.793470558461301 0.7485710787319821
-0.6544464531069911 7.7061097986969855 0.7387541539031668
-0.6721952233048336 7.62424851180147 0.7296249183222983
-0.7061497996155608 7.498999923252864 0.7152341849168515
-0.7259185839349462 7.403124988381231 0.7046551122695579
-0.7505058576097459 7.301759898782928 0.6932465043215832
-0.7760066926810716 7.200686374351413 0.6818276971837192
-0.7952362739486245 7.112975898789174 0.6721402640954965
-0.897516936529847 6.725229392407016 0.7545968863101091
-0.9052633278820681 6.678609504295076 0.7481531061920903
-0.9094441925612542 6.638994986794112 0.7429110494454532
-0.9468402228436887 6.528047707122559 0.7258807835138481
-0.9659192709525952 6.43701355109517 0.7130469524070946
-0.9968992095887417 6.322919496465373 0.6963557310765107
-1.0223911445553362 6.221323788627409 0.6817616882194886
-1.0383279259012503 6.145173473572145 0.6711904386465879
-1.0669096999238725 6.030494956774309 0.7584792816073471
-1.0875902038891672 5.938859219915078 0.7426993358690992
-2.538870414456071 2.1247853919623076 0.6671995868880503
-1.1097912398079732 5.848342546504142 0.7269915590794553
-1.127428576386457 5.767982311501559 0.7134028998994422
-1.1611217202182271 5.6578310017916955 0.6936854846014924
-1.1906117393461262 5.548839687735802 0.7139291239551602
-1.212006869271523 5.466132438253684 0.7248475205661671
-1.2433821933517766 5.356929788841031 0.7240986278409982
-1.2574997657620404 5.266550014620821 0.7077392917802832
-1.2901805793433485 5.154044068737662 0.7169503803319413
-1.3109000028882467 5.079077739204832 0.7260455192276303
-2.4745476988049466 2.055979343113245 0.6895243932403579
-2.5035908006986505 2.0332468138665787 0.6942283734493899
-1.3065102287031847 5.058220630205545 0.6957728202052214
-1.3384993033061094 4.967123450119487 0.720493029766021
-1.3655059851357518 4.873728960170441 0.6997656312706977
-1.3865449149973743 4.779179860411631 0.6806222678151468
-1.4072741554401595 4.715882446279961 0.6666242640048283
-2.4346420652040375 2.0543964253798963 0.6923315135912049
-2.0200157574192605 2.3012434020691437 0.6681268175658104
-2.0296184675338154 2.2446874465733195 0.6809701616412713
-2.049798009009055 2.1440983810337277 0.7038657607996406
-2.0782266525819084 2.0453138744975954 0.7189397306404275
-2.0987279434233743 1.9430631264137632 0.7188651094882152
-2.1218633727588054 1.8612039663407032 0.7099637714054545
-2.144260787552934 1.7729549000212157 0.7137141239315947
-2.151569837808375 1.7118489211990502 0.7272643606683444
-2.171749324157057 1.643090985596276 0.732687706879898
-2.194442104377819 1.5543992776893631 0.7079334152635515
-2.227983024913207 1.4912913465369106 0.6885881358723225
-1.7308502915757853 11.970061650745228 0.8574076558890273
-1.7907300241950062 11.720415568527866 0.8373361989749324
-1.8439664729486718 11.51401739485489 0.8206714412335854
-1.8972285868753307 11.297515407093739 0.8032563698279298
-1.9485958506862062 11.082662647875818 0.7860001154384366
-2.3703766494637057 9.505129402267585 0.8632942542754893
-2.3720583110930447 9.483314771807358 0.8608395276895064
-2.4447004295559323 9.279144459133038 0.8368946688431091
-2.4707548565828947 9.16125571755306 0.823337223497991
-2.4946217229209426 9.06709609974924 0.812474625687934
-2.6887027859671053 7.961778817485713 0.837068487624296
-2.7126897957938327 7.8465474453341075 0.8198255546642399
-2.742806618498026 7.7342553546883 0.8029724987932236
-2.764456799460014 7.6543567945395115 0.7909988321667476
-2.785164587515864 7.5584931474203 0.7766982597719783
-2.8583352324507185 7.266368259896213 0.8603557645076991
-2.910260233747526 7.16893534743817 0.8423749828087368
-2.9359112950510116 7.0652856518425775 0.8233887517325054
-2.954736517502347 6.981716173530149 0.8081175753256373
-2.977983519684777 6.8934605004672544 0.7920369634574256
-3.004463160220894 6.792593165775623 0.7737147024919131
-3.0955304953998297 6.551320874164383 0.8339032433482909
-3.121490863970651 6.521671290195786 0.8279077084729292
-3.143978254954742 6.429585903926577 0.8083028091091797
-3.0037475214334273 6.78472158270651 0.7722760696088438
-3.035817656273632 6.659606974909719 0.8567363783898321
-3.0700253426319053 6.568115312247551 0.8371793669411265
-3.156281228500288 6.378686384975912 0.7975098534884026
-3.173014145402483 6.304783260501409 0.781869562346575
-3.1907990715256447 6.228839988383619 0.8358749939795482
-3.2122450571393193 6.1100707502645895 0.8302661752166483
-3.2396300235604087 6.010789955608116 0.8063673163055438
-3.2591348274304126 5.927279755612611 0.7862834352117041
-4.3271254707227875 1.923948895033856 0.7682454452787142
1.2610709195164813 16.500929292659205 0.8063808292445587
-4.209140755682133 2.2000054011835237 0.7782034696907278
-4.2311296154135905 2.1209422930517006 0.798576093209407
-4.241398708262251 2.0458097950467167 0.8163034897898525
-4.324837668433156 1.9041102443477893 0.8071239065496909
-4.345895592728029 1.8221849960395455 0.7900926815600307
-4.372063296799022 1.7263186261997934 0.8120238374253705
-4.388856326074476 1.645725896661217 0.8298766542329281
-4.414026779471142 1.5501403411070762 0.8518793417617652
-4.447182491755321 1.4362723602459644 0.7747649834111785
-4.466558120594325 1.348548246422388 0.7916691268053802
-4.489786191280343 1.2522909806378624 0.8105166107226358
-4.498477606704023 1.1935703664481663 0.8214974393667158
-4.4751638980980575 1.1597590109455513 0.8250279506240459
-4.492562108334595 1.0527148744255888 0.8454024717285171
-4.5172692782486354 0.9813526923142533 0.8603017091273633
-4.55979117926567 0.8208784342291802 0.7694318109924181
-4.57663997686611 0.7465377677045963 0.7815952340576036
-4.601133597784925 0.6570431259123968 0.7965641164594188
-4.607300507558129 0.6217468600544747 0.8022320302722001
-4.6182342026928875 0.539779769984964 0.8151628867609784
-4.614971262075023 0.4535221966049212 0.8277819378074236
-4.646685964071432 0.3267979443611311 0.8489505984079642
-4.661960349524718 0.2565028780574181 0.8605587322936745
-4.760755429427197 -0.14117607064657856 0.7719561876657488
-4.864876251107178 -0.4174358859807423 0.8102545506584831
-4.894499321130018 -0.5322968121369698 0.8255474762529313
-4.920499496717603 -0.6233641651090638 0.8377857144558054
-4.93510859792827 -0.7308887109741935 0.851535056576942
-4.955945368569692 -0.7737056060350866 0.8576808263939144
0.19823832953976428 11.146412626504182 0.8533669471570045
0.1505758189797679 10.957097696296877 0.8381325063730007
0.10073728366540546 10.76422039865895 0.822571128433381
0.06209726557591155 10.506554641285 0.802944997441629
0.1533511890418251 10.459221363931528 0.803459075897726
0.2540831159785273 10.434483554433774 0.8060666621749843
-0.40054552326959936 8.74193806053597 0.8570408002306691
-0.41789692002437473 8.66215047680996 0.8480151876707949
-0.44060000422666334 8.571596887409317 0.8376034630261031
-0.46310220491600607 8.483126444080652 0.8274136847550206
-0.4781992362550245 8.410824573675656 0.8193000772355932
-0.4992722381492838 8.328153587180585 0.8097902851603289
-0.5157488425960173 8.256398658988685 0.8016606955016725
-0.5380259791359432 8.174199443818889 0.7921373106065543
-0.5632188916247154 8.08668662927169 0.7819186488146854
-0.5792043135605272 8.001073725194988 0.7724768279817993
-0.7097897214823967 7.4778792415464705 0.865596423319845
-0.7287565603583404 7.413770250667669 0.855815542294692
-0.7525352610398164 7.313635989907337 0.8410653357282463
-0.7681562055441689 7.229170619101612 0.8290216169678104
-0.8009630512017067 7.11781112678607 0.8121349017543706
-0.8189442201419366 7.021597167161174 0.7984782751221071
-0.8482596530562339 6.922660883846408 0.783517757532171
-0.863613208841123 6.837730078160752 0.7715848946766517
-0.9246193026806713 6.594895661145744 0.8592330520914939
-0.9389163326171523 6.530221689464399 0.8477946809985506
-0.9648586704973159 6.42932869819467 0.8295962193207662
-0.9890149140075333 6.3351650010661515 0.8126751797162979
-1.01323958172477 6.244171148462634 0.7962917517432158
-1.0412807719641253 6.133091654221751 0.7765633157037626
