ply
format ascii 1.0
element vertex 839
property float x
property float y
property float z
end_header
15.093543123554158 62.15123697453493 -0.2662553461443804
14.994191080257535 62.11705590024345 -0.27192422298933283
15.005590556335527 62.36108497093049 -0.20427474244157676
14.872355570573225 62.30640719788337 -0.22374863383870117
14.92989008696887 62.336704903457424 -0.22294540106017277
14.804263755980628 62.325997965202816 -0.2506769173939377
14.801741943062709 62.3633233305784 -0.25631416682170893
14.704454063418076 62.32498901990444 -0.2622283919488604
14.743580680895622 62.40844463365671 -0.270384891107963
13.852505102459066 62.66187223610815 -0.2036235737890162
13.890669189992435 62.683452923570435 -0.21595083611799049
13.688280041943788 62.680407526995666 -0.1967723047535591
12.06535647612162 58.60189316013904 -0.1427440158682087
13.078199020263197 62.95915855418799 -0.1694866987375391
12.995881073224975 62.921069518945075 -0.2136223355779511
13.027950490037288 62.96846480060191 -0.19088662761337394
12.938967589530249 62.91756072480049 -0.1879743383033282
11.618852338015403 59.582467247925 -0.15409339961996882
12.034124917986514 60.77390083826683 -0.15682817613087946
11.613173775664956 59.58850893344984 -0.14843852565713
11.33076245627456 59.63653668107913 -0.1603331389524741
9.972199603619757 57.20520139833225 -0.07834335369998063
10.993849301070084 59.996219533113916 -0.14374314144350353
10.953535838665957 60.09291743185844 -0.11935123544489784
9.910729984431459 57.07259945066621 -0.12174722291390536
9.95609116526619 57.166647289606836 -0.048719296348293833
9.970131686224567 57.23658082770594 -0.06235021270036985
9.710381089087548 57.39302506941721 -0.056654116005735174
10.101827005308273 58.83022845576449 -0.12117976486223445
10.638964608570022 60.80322080689871 -0.1429606763343952
11.187055297778041 63.01476158848351 -0.22667358032018897
11.322074958469411 63.19809328401363 -0.17345461255794425
11.312133338922639 63.23731922914995 -0.18970489814730473
10.842029784836203 62.0922046106879 -0.17644231731453244
10.861919374026385 62.13209180240617 -0.16545951103954368
10.86645547120032 62.20108415867968 -0.17210729884514225
11.074040768325922 62.89164679052815 -0.1866964021326092
11.179731962992681 63.02521166689805 -0.1384093420762539
11.178623684937815 63.04371146039702 -0.18485601114886024
15.542564437652494 62.09738755346965 -0.18007460381847093
15.385117061561042 62.2194801658467 -0.11640601308441784
15.319683916915848 62.218139992484836 -0.1333242811907811
15.25296840960463 62.430366350165954 -0.14916175963343292
15.146061565385102 62.41512045082979 -0.15030696271563607
15.205412275473357 62.428808497942526 -0.15105355583750782
15.050860661382485 62.37729737436649 -0.17603857720265417
13.975667085449768 62.728948324204396 -0.13642111054952863
13.866833766323458 62.66141693702817 -0.07233451410661598
13.901847057750235 62.69740847482256 -0.11733125378841228
13.764155971654779 62.73811421043719 -0.11896116896491707
13.818086523257682 62.79501140329513 -0.06967254391052144
13.684336878351985 62.68333316467633 -0.1182781393120915
13.71684830975116 62.713065770962274 -0.08719605842133812
13.173547881213285 62.87988232662795 -0.08280477721304927
13.173644377902406 62.90998791794082 -0.10379255644587182
13.112477819283496 62.95331589049104 -0.1391070963950954
13.016857474488274 63.005617937574115 -0.10527700509482718
13.041754374874731 63.05450898060171 -0.11898738811210738
11.62427153827913 59.602698674481694 -0.06262673865137061
11.630831263911775 59.61808410099554 -0.0019981752197686673
12.034551394078639 60.77444305222681 -0.10435982221645335
11.618309385049415 59.611853048081365 -0.0597125017213824
11.3447530808436 59.6827331745878 -0.03161183605383175
11.032668903834551 60.020427602382185 -0.009585424705209478
11.031933657554521 60.03371322932417 -0.01334994982448779
10.991680030170453 59.99085153373538 -0.07620776696971404
11.01429466870312 60.05649391943528 -0.04430125263068725
9.844831938321452 56.910620365833836 0.045319932966588275
9.89339247057341 57.02087319845802 0.020366496860885073
9.924945185918425 57.093915693954344 -0.01098111261189556
9.955030924593707 57.16287634968322 -0.03348061245422457
9.715483850455104 57.35523756003244 -0.008631850488372703
9.74998133531182 57.451831151687664 0.030647973536844272
9.69856026447734 57.35143040347563 -0.013260715748726018
10.1096032987788 58.82761370959069 -0.02528165438449332
10.084732502893656 58.800580346111275 0.009819965118404796
10.63347472233954 60.804052615701224 -0.058187330511131105
11.194593519378845 63.0021237234028 -0.06668955767281982
11.30237709741015 63.29512515031161 -0.09638698260343426
11.304084194778115 63.32950100502018 -0.04089775466893297
10.851060637535301 62.08431554512774 -0.07321733188406473
10.865098955728358 62.158630895940725 -0.0683003343169941
10.870153081110097 62.19774348563246 -0.07318978098802953
11.068942818606013 62.92183157243847 -0.06999069688399638
11.185148539779387 63.028422489357155 -0.06281581440055675
11.18231557975336 63.051681354983984 -0.05372477922158043
15.36808642249574 62.21015898504838 -0.041085807832196244
15.331526197572828 62.21422098262746 -0.04767865271659715
15.330669985327518 62.47342381455888 -0.025699391206899274
15.373719312962987 62.49763613584237 -0.0037132232502339003
15.209046615005054 62.411224130896954 0.010800262078554269
15.271382998715913 62.448393407655885 0.007364636844816162
13.93996547577194 62.72265267956543 0.005672184364979472
13.827628481225894 62.64192870736256 -0.04101257161510335
13.897592823227788 62.696757038363984 0.0024621719996164425
13.756350635318128 62.734103105459155 -0.03541146314723241
13.827466601650112 62.801879820036845 -0.02320064142438622
13.661606780569242 62.66391733434745 0.019322810096741853
13.254428715218152 62.847377078535686 0.02564529318247783
13.196443971443296 62.83761659449486 -0.0015130273974862055
13.23336297847812 62.90502298161916 -0.009608797726925288
12.176613333295132 60.12475271884506 0.08320332545708961
12.966360867646689 62.94692638639754 0.024549088576553385
13.002366315307171 62.993314810207416 -0.02056584870726281
12.94658610075808 62.92035898978628 0.04178734006758916
11.631263029422204 59.61764623703385 0.0030895597976639336
11.340991093451319 59.68106511532112 0.05007836907136623
11.027982933193956 60.01354634856455 0.08174603134339883
9.770328631285814 56.735353262868365 0.14947279806231922
9.846936816462046 56.91129291780105 0.08848297596223703
9.888427100453598 57.003213339261535 0.09172936426435951
9.91683357596549 57.065065996877884 0.10559876865351236
9.71681602750986 57.38794425047934 0.07465093801029896
9.74700497375536 57.441245356337774 0.07342473749105335
10.06094107376385 58.754794902794266 0.11750251234611772
10.63997215162867 60.804787506505825 0.06038976719491986
10.887758583664551 62.107275578059905 0.03932840983211296
11.189062051564521 63.006998105074814 0.036627908134892244
11.30377340025593 63.34149522958074 0.009217849652154782
10.855184374460013 62.08148776247107 0.005527877176693691
10.877589412271703 62.1468408070428 0.044190162806819214
10.868637077334231 62.20057131900923 0.02075547303721101
11.067062428387827 62.925862324856055 0.0192815392450315
11.18008061754855 63.02573044329633 0.001182555258381261
11.186309830686405 63.051509052320014 0.012439497649914345
11.292225633499338 63.37407673853941 0.03095176454604478
11.061938820133093 62.96333456505527 0.014145273351886378
15.645039009617808 62.25750465652777 0.0646357353518594
15.659321910797573 62.33179972947883 0.052787736355938635
15.539586118868774 62.25774726018567 0.056400211906979004
15.535646491294674 62.339800273648315 0.04935393141322586
15.42958925725492 62.34089406602199 0.06055602345450604
15.441084434919704 62.382283748472226 0.0522114983522022
15.332184555407862 62.35609705304015 0.03330928120915779
15.352496006997221 62.43673765657681 0.0898191129281348
15.42848971182697 62.480705342580116 0.07766099169145876
15.27500820284659 62.393506381026526 0.11283903830627307
15.26633257190935 62.449485758852965 0.0458168807421326
15.166109394212437 62.39981576003006 0.040376886823722084
13.949937387618629 62.72626703368801 0.08393695262348569
13.982403216420405 62.73782062159418 0.05546431367029194
13.903910949142974 62.70230832096843 0.07874182746991762
13.686274249487187 62.6880937649459 0.09268923626820658
13.373086224522089 62.8903376449946 0.10665867083780078
13.267874119028242 62.85577098321799 0.08096427419676361
13.311256822831561 62.882394403003055 0.09724495724312307
13.220586505165947 62.852985763088824 0.07329788436854459
13.244104438364863 62.897782734894804 0.04869188302404299
12.145072711488874 60.031394850754054 0.09323846840535707
12.164230751052733 60.125102258936046 0.12103123714644992
12.954450230450142 62.92455209192492 0.09414524180642339
12.992503978047296 62.98404222210962 0.09101521535695584
12.904286253330064 62.85675679317921 0.12387581358025981
12.94214437067101 62.919987644083385 0.10454967531464193
11.332015205086707 59.66538086351005 0.12454475282718036
9.6942795421481 56.541583258813915 0.17470622068272573
9.752270112186924 57.43293674315434 0.21407895640071342
10.10398420456142 58.82299524867239 0.18662573404666916
10.080255944862063 58.793809284527555 0.18042220798054384
10.639490994617256 60.80588939935315 0.1532047916657243
10.882707862631579 62.16160311778189 0.1272600635220452
11.06433883388723 62.929391979473024 0.11238238708481413
11.185907070787286 63.020992048247905 0.12062186643525027
11.17956806637459 63.0617297042012 0.1306124030988573
11.289065134957811 63.40190444479293 0.08799202793640637
11.282555485503893 63.457396020878925 0.12772160123395968
11.056872953882957 62.96419367553526 0.12911544679726414
11.047431857427302 62.99226868209456 0.16577365120841045
15.724636308267574 62.2999610523807 0.1828919532583532
15.728219615627467 62.3613999260803 0.18138994555942697
15.68482048093524 62.314947696753 0.1784477631277852
15.546648691279842 62.25147750758464 0.1540471060661289
15.582773038632679 62.371336463188506 0.1643648416650016
15.319077910486262 62.35494307148056 0.14063245583996672
15.239824613032132 62.37250227133636 0.12883733965780256
13.94825607082615 62.72924208779642 0.1384799572963209
13.926492374158958 62.72199394130208 0.18635794227416114
13.932897133687867 62.810480187593136 0.2312310699780327
13.732313991371733 62.7109261578564 0.21709320860374196
13.749435688878986 62.73630892337453 0.19821718649042241
13.7077842581714 62.70003624542482 0.16873772680647336
13.495677456995448 62.95851443090518 0.21707389199271623
13.418714258252345 62.8831623069414 0.20091850365113031
13.45772238719255 62.92829167565368 0.1826211292288381
13.334375804966346 62.83560579970813 0.1590274479947756
13.321889351295992 62.91668929243693 0.18200621185435434
13.34172674726243 62.95397648571937 0.23756895446457554
12.169246950913164 60.1365385081932 0.20067205744439856
12.964622221606296 62.9272298065501 0.20271807296811672
13.041756413055065 63.01469369626782 0.24217329984018857
12.934689063945312 62.90354877449704 0.17081539288223313
12.933326652074236 63.04359630224809 0.2118738268769557
12.967821706799285 63.07811156957944 0.1936135904115632
9.732576944879103 57.4166930500503 0.2990505153722307
9.718198419052623 57.39309226765232 0.28752114141932866
10.102522822290508 58.80776872235931 0.3150318247614616
11.193880416889446 63.00611462147372 0.22482875040050201
11.308158946266781 63.33895037133129 0.23568840412868758
10.883157145755504 62.181478363202174 0.2170065760292342
10.884954270275845 62.23746377066599 0.25858112962742347
10.910855305876959 62.32945141206964 0.2546856643698979
10.962066411726278 62.39711199976602 0.24191640418391444
10.975859727182183 62.54760138117925 0.2517427511078925
11.009562509798483 62.591569170015745 0.24557787412767437
11.041492248964255 62.823315985516906 0.25418917718254613
11.05343378712204 62.90081620496313 0.24358641100498893
11.184935718676645 63.022644059920445 0.22708833625297373
11.183121891901752 63.05274021278766 0.22612415739995817
11.290937371832362 63.388071460785056 0.2122637666142746
10.988936222979856 62.75056529354364 0.2658313699342355
10.99387771270686 62.811302401358816 0.27484432388865165
11.05103472449991 62.963360135389706 0.22022029066761803
11.049387299843023 62.990173953597385 0.22985087373938545
13.951861354470632 62.721592936436465 0.23529221738459516
13.904577933368166 62.705050283109635 0.2765203692427509
13.902410088657964 62.833867049261485 0.2794110677355194
13.95145081286949 62.8731023363156 0.3220817341510458
13.922557111394678 62.98348580465588 0.30977808620658404
13.80863949716147 62.7589118562161 0.24398566295329513
13.843459766269813 62.84524421369389 0.26958252402998206
13.866198483724666 62.92638463358486 0.28743799323294916
13.895852867808562 62.97761125760634 0.30475133809433275
13.756586353785394 62.8852264412807 0.27452408302830333
13.765696121574148 62.95139913921932 0.2885659089546583
13.62712401754227 62.934026457587244 0.280768498810915
13.680888524113072 62.9416872717347 0.28400635397167834
13.477185640543512 62.87526510546537 0.2658373631529488
13.550119736297436 62.91142882503222 0.27357808287302404
13.407838408935982 62.88494374439673 0.2568443572642544
13.390074121854333 62.95036914260345 0.2678671266487041
13.338063018153385 62.91550661463057 0.2549532549095305
13.381700768142824 62.97105403831507 0.2641029668238943
13.223765550937397 62.953909906916 0.2850287355093955
13.260882169802185 62.99145950231322 0.3106559473416941
13.108370474840415 62.918955885618416 0.30760081772396364
13.123607288155041 62.968415521948224 0.29540088771391104
13.14049939316421 63.04031286728849 0.2941588301478743
13.03845100730676 63.00115861460647 0.2842788279847269
13.092963644849123 63.05629136439772 0.33835748799762133
12.889095340964754 62.986550262932326 0.3241838778068749
12.916939788972103 63.02182321974994 0.27955086912573757
10.097286494865664 58.78888968558325 0.3785712498425423
10.98312729284289 62.358602654610316 0.3291199159528568
10.97877453985784 62.38059313087233 0.33862510373203397
11.306886993823117 63.307296561519195 0.32506491767874346
11.300994707481854 63.331229072761964 0.35776166709277485
10.894952161974839 62.265957819097856 0.3233872010338094
10.929396122733493 62.327994980951765 0.319422976130806
10.963927540989925 62.38253831245055 0.32431658576374395
11.183784102239072 63.03831132218784 0.3108763435557246
11.176820485090989 63.06809522620103 0.3197399311052335
11.290882804534915 63.363222774065015 0.31732740449136204
10.980310618430142 62.81693345887197 0.2786254983590145
13.84516354394603 62.67421451694145 0.42732770423413635
13.915153977879925 62.71697564890179 0.40001734048750254
13.897690621482289 62.837331068267794 0.3790424610059136
13.937669904026597 62.89191824243449 0.37644598057604606
13.93626577436028 62.96975811847924 0.4251345357138801
13.762680924952118 62.750034689804416 0.4014802880067164
13.854514960739097 62.83797676198472 0.3980336393345081
13.838347840499154 62.91521458194406 0.4061664757899818
13.621237652358936 62.63929885240948 0.422604728115314
13.679171655444883 62.680378890643084 0.423147424347166
13.722438035735387 62.72346145628129 0.4327378623869387
13.733880265902826 62.8937356083849 0.3981445630660369
13.623663087814599 62.89175619580257 0.3905162347995238
13.519038020366118 62.87142705926672 0.3850241180021787
13.52747992758522 62.89310260444676 0.3910025261464073
13.437279678294079 62.88331557965334 0.40006369798505065
13.461461971578931 62.92902082263598 0.4136821572256013
13.23320511656067 62.99234649142631 0.34494485588150703
13.133231075215862 62.989823143414 0.3462284814499884
13.109697500288984 63.05393815680167 0.3685465943268164
13.147710968956229 63.13222579230359 0.40667186408193967
13.037454200474661 63.03133507674665 0.4145453531015657
13.069626177411049 63.04511472776524 0.38522569875852564
12.877871023608884 62.96999783803436 0.3966791765616623
12.910599490643726 63.01067915080377 0.38130125000097564
12.852314849832707 62.93977490416076 0.3963425868888492
10.074413241318384 58.77383662228507 0.44768881218577966
11.306255171092836 63.32790854121888 0.37622934187608875
10.939951860344948 62.37385367289177 0.40301481680638784
10.953989673437514 62.42499930722091 0.40680854241205294
10.972503750051194 62.53792257821145 0.4114243289384422
10.995024792647834 62.6328311722173 0.411188766923075
11.014732746241922 62.728253210792296 0.41473089380208794
11.048018428838702 62.8250180496762 0.4176056940504486
11.060111278907415 62.92429973230728 0.4673085575839787
11.17527367177318 63.043097628562506 0.3750218014493763
11.16304003676576 63.12315757191304 0.41653958009537345
11.153488408911354 63.16379513051443 0.4522154104469653
11.285228329915265 63.37382973118924 0.4128747793570084
11.017985897400228 62.82144148864981 0.420767794868725
11.051990330473112 62.93603358846205 0.4515853611873288
14.526772245122533 62.43520883787241 0.49595518828917823
14.543759835341781 62.49671563371755 0.5047317807409876
14.474981856040724 62.54143824467609 0.5162136788615984
14.377653237979228 62.551130708535695 0.5132328451486259
14.375244108419732 62.61326613751581 0.52508017750342
14.29741222004848 62.614607149975555 0.5217768820342003
14.291176757860173 62.64936222818468 0.5247808240065652
14.174818872659209 62.66112663166681 0.5286573042281031
14.203242497169377 62.67582085005651 0.5290345758354532
13.839211677665926 62.669674826508576 0.4697959977144413
13.854285916241333 62.6821177771709 0.48214876395384926
13.61789498222043 62.6307325491616 0.4404658674640417
13.68588883701859 62.68999886358067 0.474798380164761
13.730299702524189 62.722734990802834 0.5296550883872094
13.485618011798197 62.879606464403054 0.5021876894350149
13.510849649713847 62.90876233929318 0.5061820244308763
13.443093812641937 62.87144420542264 0.47910780598778474
13.455467528561039 62.92055465530809 0.44918192529585343
13.011831346673382 63.004542482381865 0.476384728075811
12.862875480628052 62.94671099280852 0.4944049077269053
12.834607600599764 62.91100763824281 0.4889580970973829
12.84885219954609 62.93447520755993 0.5012345126123625
9.648140348507978 56.466466647674245 0.6028529938139631
11.067803360748965 62.90591751972929 0.5226366956117844
11.176692173788952 63.02561778211901 0.5560101453373203
11.158381046131312 63.140007781240755 0.5161801230534409
11.155014647276216 63.17441733871814 0.5099855036196086
11.260842947330058 63.320410586292 0.5337209213053945
11.264432028376673 63.399805753981326 0.5112295449345643
11.26727702861082 63.459384345447404 0.488316437875851
11.059820790996767 62.938355107870436 0.48289872593889277
11.147975104206953 63.19874538812751 0.5296121574308046
15.561537589543082 62.43502194103139 0.5537722812157585
15.523452078050127 62.42829462848769 0.5625641056824455
15.340029435532529 62.42345819774639 0.5437226798722636
15.297946543820029 62.420092557151584 0.5391210633672211
15.13989092274765 62.39253447054932 0.5550395311348506
15.036564176608817 62.35940297338364 0.5476381373924687
14.813356231274792 62.477299587503 0.5645468936789463
14.759768697733584 62.45658903059838 0.559270649548647
14.55685848853283 62.533556697046336 0.5273103442755643
14.59015880254595 62.53580842466907 0.5344106055602394
14.41919554477936 62.55886984011844 0.5287195182154111
14.369422284667987 62.60554072283384 0.5300372747471916
14.389786133603216 62.6451031382643 0.5455826728943369
14.323481790054885 62.68320320501713 0.5483342204498977
14.290754526464639 62.789249254617154 0.5979869294143664
14.185310223350513 62.66917445159779 0.5359718971092319
14.203975122241683 62.709606149249865 0.5593792225152573
14.233576303539 62.77411048040948 0.600783735629555
14.061088373239821 62.698998737053735 0.6117764340989801
14.142935560648443 62.72607931017002 0.5862470395539625
13.893307397270632 62.710600589150474 0.5883187623577013
13.759490069168766 62.745875781426996 0.5696244398702941
13.710088510856592 62.69949292908278 0.5981754836740961
13.729294731917946 62.72197926172467 0.5665495262639433
13.529466596844394 62.916590990689585 0.5476992232090996
13.057108870686463 63.066214518302175 0.6006530204589443
12.874541948290297 62.820969662356205 0.5935608388921464
12.881379771105344 62.973325263818026 0.5864547269437453
12.907664487840483 63.00742372813913 0.6053077339918282
11.064486867332992 62.88950837506723 0.5762574832686372
11.165255161777678 63.13181733398955 0.5754649802813497
11.26784955696651 63.24926966909201 0.6501877553524111
15.120298454953808 62.40611652262608 0.6377408184465202
15.040611405611196 62.37161375347639 0.6433214670318742
15.091315391797915 62.400749788138896 0.6450314218310166
14.920613381835409 62.35640056348083 0.7219900711490297
14.842663688773133 62.44787125390332 0.7079755030419806
14.14587619712097 62.75132080779554 0.671411426249069
14.174383124831602 62.783293669801004 0.7123910375811673
13.885095895776537 62.70638125698721 0.6733706655569961
13.780120428643084 62.76096592451579 0.6833750966523733
13.868529217368819 62.814634265511664 0.7277837354007756
12.87586898344141 62.966847222832584 0.6619014230202721
12.904600212294978 63.01145343510865 0.6934083413298718
11.265317434977073 63.281996220958845 0.7187346320688601
15.252222275867998 62.43068829408466 0.7831594788340327
15.179777713448145 62.41445604293528 0.7478251082327364
15.073055751848468 62.42612457598491 0.7659293956205182
14.939471713944243 62.40081318911483 0.7772556557821384
14.963426659566478 62.46607135481641 0.7504200931508574
14.815952160595035 62.355883868993466 0.8234812538235715
14.85320674576072 62.39269648957403 0.7701459556438474
14.872610337001822 62.447149189180145 0.7333651832575044
14.718659688564491 62.32792252946053 0.8205650330717741
14.7128644110963 62.46158436357221 0.8014318406995541
14.763150936569158 62.501698038752416 0.7798024929756168
14.575644023454554 62.25900658444101 0.8051422821817644
14.653207520186543 62.49063820899384 0.738610245945736
14.677784486227148 62.55078305037053 0.7588160584114725
14.482365192888395 62.23000128955045 0.7951540995397985
14.541757603625772 62.54724405793654 0.7504917531708443
14.572299148570313 62.571362703095566 0.7553784151852976
14.469233050559172 62.55194120362177 0.7448464638045923
14.475377561776028 62.62095996809669 0.765041752343291
14.480353771279443 62.69560632474464 0.7987489214707895
14.398111001755913 62.58915297636244 0.7519580828628671
14.416620319243227 62.67366191801785 0.7853948729570921
14.457517968057974 62.70564775377895 0.7973261919294106
14.303737667506587 62.693606402519755 0.7948173792826049
14.224932988609659 62.655287969193246 0.7670240256832699
14.126896870143169 62.75391779804293 0.7876296330400681
13.967280891806913 62.75905742784949 0.792655469813831
13.914208337714337 62.727781457206945 0.7771479965033931
13.783187705559348 62.78451518033867 0.7566780696005405
13.87092826791191 62.82135976442369 0.7426304226970504
15.017418253995924 62.418839164057914 0.8747084474982244
14.931792203980937 62.398077126640004 0.8485653431588923
14.791990748951964 62.3513301240644 0.8284732357578611
14.861850025221628 62.37164822700073 0.8462655028300656
14.704542139629046 62.467049928290976 0.8325476323366874
14.764179962190456 62.50760174247695 0.8418414333704479
14.59897927222464 62.42462863771512 0.8422974224735068
14.68309010446937 62.466639233187834 0.8486996659682443
14.57198416748821 62.64332043487566 0.8986843720279308
14.607475344611029 62.65900854711927 0.9036989839126701
14.489175765564493 62.63443098769837 0.8947378471683073
14.500449730230343 62.698209909584484 0.8819236009940793
14.434312922284013 62.62194163421493 0.8988592010361445
14.321597466593381 62.771428035706236 0.870612707399265
14.160103531858311 62.682200311723555 0.9184115985646533
14.218910562826412 62.72104888334816 0.8935551358575676
14.12397398883329 62.75346200100091 0.8488673082064304
14.14811802997725 62.794306264451215 0.9257287535550752
13.959278406877262 62.72783261928164 0.8867311421296112
13.915766145120724 62.707774634634674 0.8621180588932371
13.896089080528686 62.8678111551039 0.9046134668246651
13.862093111043798 62.83758419277996 0.8778854655557384
14.722782525345176 62.55766651997979 0.946417456366702
14.466753296449754 62.653428697393224 0.9297860770358609
14.425054293170044 62.63095577023434 0.9370631967339726
14.250363690759976 62.73493430997143 0.9376918115546143
14.11090980228087 62.780962201678335 0.941346772054296
14.149797713511738 62.799015141680485 0.9361238746621903
13.925775330771572 62.866669536669164 0.9608595992865354
13.943399377808689 62.882964175096355 0.9772308243090093
11.012580324527349 62.71662990511522 -0.30830294098967254
11.233332866713694 63.14045285541714 -0.3001385193286694
11.175833035469797 63.033380107586694 -0.2817538242434825
11.157149550223561 62.92667756402399 -0.2637365443873872
11.142408186609906 62.87440225690977 -0.2549322315954656
11.075486409348535 62.73500414132028 -0.3111212884677636
11.005317198950914 62.65435691188233 -0.2958634528415481
10.980666835266502 62.55886233814425 -0.27355510750898915
10.95901374675758 62.47636685897919 -0.2728522543351627
10.928237929596865 62.37332791762016 -0.2937899393554831
10.905103925716585 62.26711755225351 -0.2702086801423278
10.873285574714153 62.18545026121352 -0.28004106827905106
10.853127279712865 62.07899152117288 -0.2882526601267573
10.830737845046915 61.98007066935457 -0.2645252483410506
11.292095175419657 63.14396879984307 -0.3012145175991197
11.33811416288973 63.10684199102459 -0.29548792582234085
11.42218006115885 63.072637498224694 -0.2910318886227983
11.512510698651006 63.0366177806811 -0.28687007143137394
11.609628173419624 63.0073185504468 -0.2845957820630413
9.454166612467482 57.23633829913675 -0.2531637629617837
9.395318655803354 57.190222266588975 -0.25987287426113215
11.72313948919874 62.98400028848381 -0.2846005658946632
11.68254276467025 62.98985585911504 -0.2840679244362076
11.80907706167075 62.96219947748135 -0.2845097178709668
11.907552595350793 62.93714318947288 -0.2850084934175147
12.006634770014907 62.91567699438618 -0.28680831852347305
12.100177255463345 62.88965609416043 -0.28818089363550425
9.896089969310504 57.05888266394231 -0.2529067370297945
9.879517486349362 56.98581558013982 -0.2604235971831305
9.860808329719653 56.907289237226124 -0.2684904961755844
12.194797470096168 62.86571012389837 -0.29058892019530513
9.877417734175697 56.891646844724896 -0.2695159469486374
9.867497005723855 56.81171249201568 -0.27751418275842804
9.845911838635992 56.721660191555365 -0.2867970088153923
9.810629888703149 56.594201210655555 -0.3001336575899267
9.783729466810126 56.48494790494015 -0.3114327847032093
12.294333758602592 62.84161450097683 -0.29395776910510746
12.393436478719417 62.813098469729454 -0.2972694008054185
12.502370507317769 62.79201575599259 -0.30323296950665024
12.487990745087542 62.78715035280567 -0.30125410712125544
12.586205214210558 62.76465158513932 -0.3066929109813331
12.572413941640459 62.75874984569533 -0.3044913317445658
12.66504946694374 62.74209927258003 -0.31081944100547015
7.468539718713429 48.350290332267456 -0.2645913431692267
13.10408080954629 62.69417490157485 -0.25418931515958765
7.23377875082765 47.46619796291812 -0.29324475929456106
7.271565708673908 47.424811743272855 -0.29481401144149044
13.19532365249071 62.677758834653424 -0.26122576399250236
11.901194750156913 59.17286485973747 -0.2544797805190756
11.884732841368136 59.12043555072759 -0.2652443849985912
11.83856816405046 59.017515074484265 -0.28556598697792646
11.828580221272286 58.957667048800666 -0.2991789748807302
7.341923252937665 47.407057601491466 -0.2955557522627418
13.326991944934782 62.72506912872875 -0.27913315199163846
13.275584668684816 62.69643730851496 -0.27106076810398066
11.865214893809236 59.033766975120635 -0.2840818414686788
7.4381505997915225 47.30663622282658 -0.2992653018349057
11.945190338696884 58.33378028833629 -0.29089897404846704
11.913767383181002 58.22706653317129 -0.30739085079888884
11.889440227191738 58.19699329216152 -0.3111585954100652
11.854614028084754 57.94129017064981 -0.2575730671264825
11.826814714997887 57.85146334718803 -0.2688760077437007
13.972696161533152 63.24695336856145 -0.26643353452643026
13.942150577774033 63.15162121890981 -0.2569804811041741
13.720878744642214 62.563010854640204 -0.305041621062847
11.82549786257124 57.816581455829095 -0.27367227616132583
13.976900072565456 63.09694863584964 -0.25577407537619273
13.995410361982703 63.045772547168234 -0.2535837354780863
13.771788163777117 62.52950765459908 -0.3077169140212089
13.790121703032735 62.47598557584979 -0.30502803678101326
14.075006238779554 62.95730907175421 -0.2539053530722482
13.844480702389172 62.46371690744746 -0.3101845464479064
9.265042710756909 48.6991221736275 -0.2631348345695032
14.558970845131794 62.30072580058179 -0.2566598331267106
9.099002018244246 48.03456310056863 -0.28468100047173656
14.649750031779822 62.27831331756223 -0.2641077813599556
8.916406454172419 47.306076388774414 -0.30850853191713373
14.7354809758456 62.25637721601667 -0.2711709288080283
14.73993518775913 62.2490050435499 -0.2712345998998545
14.840098807488088 62.2352939005092 -0.28020247151557176
14.948379850966049 62.21229641700632 -0.289579000348752
15.058089914038238 62.194092238017866 -0.29941924416494053
15.055242674651428 62.08016294336445 -0.29389842616228745
15.125638858262574 62.16252812088989 -0.3045817195679289
15.061765944709132 62.06424028317694 -0.293844073696748
15.046257100141224 61.96649745563662 -0.28803929413520957
15.146053976539557 61.908144141625286 -0.29553708459078515
15.255775562132309 61.887498750807225 -0.3056651029900688
15.312599981943494 61.86848870723504 -0.3106022742119209
16.622604135215557 61.83049621134122 -0.25394138215006007
16.727235673464058 61.80715831518035 -0.26051435209076046
16.83933064591964 61.78378764526403 -0.26761302511075713
16.90707833301444 61.759045503828986 -0.2716611418926187
17.00316256307602 61.73880678350642 -0.2777727554290817
17.096295666657927 61.716698612679664 -0.2836512086952168
17.193857498065643 61.66342272996601 -0.2891434259427189
17.270977902002706 61.6149786650395 -0.2933772604635738
17.396285172702385 61.604979826925415 -0.3017881943936303
17.509502410004355 61.58162888672883 -0.30909118335808794
11.01771035675237 62.74131510227898 -0.1857631851998719
11.231719221013853 63.133208074792854 -0.20696693988973985
11.177476096966696 63.04061655093036 -0.19419055711393457
11.154537075760397 62.93309829176289 -0.1797664709198428
11.130609223113954 62.820967532166776 -0.19947797523141
11.069885359133574 62.73665390475341 -0.20462018371243038
11.009073033463588 62.645935865960695 -0.21752840476249227
10.984060460828667 62.556938100184716 -0.20154650236385027
10.956224059012543 62.46735655407032 -0.20341236584841885
10.930161024838355 62.36867396638297 -0.18935139207296792
10.902996606582962 62.28145201224863 -0.20997341454253599
10.87104005943064 62.1768277266283 -0.20950420696651328
10.852710024083766 62.077459672267864 -0.20268662854962724
10.832412139683676 61.98698229039708 -0.18893989720199406
10.805061209781714 61.89025315128643 -0.2157913060212323
10.781832951322782 61.82638562998253 -0.21354254071226358
11.326988725883826 63.11069585838365 -0.20504670723383722
10.805375750579069 61.86753028207167 -0.21242316816706094
10.777512347969765 61.78125851606102 -0.19328412707550294
10.758769410466313 61.70980071315448 -0.18488009916101256
10.800116132385623 61.595418680810496 -0.17295203293481598
11.42007999091675 63.078090088372 -0.20217781542906418
10.795473378542622 61.544772322436984 -0.16194447561332936
10.775732161814922 61.504869196241685 -0.15558800951642074
11.5150127078152 63.04483159339832 -0.19968969242221055
10.388853475131668 59.99386366176116 -0.1590706133260285
10.366293784913454 59.915700594543935 -0.1735364277453535
10.345258714510253 59.84276244378723 -0.18750918376911804
11.625501430432804 63.01928519377325 -0.19914561822350815
11.605582667373769 63.0100594985391 -0.19733840332506453
10.365944577705283 59.88734455449808 -0.17730749221798642
10.33876542744181 59.805582980806044 -0.19399203406586282
10.312361281148108 59.71469367671564 -0.18725528029871735
10.299096638781393 59.650817766629736 -0.20466770739000317
9.447340973553144 57.25195042477573 -0.2520691869325017
11.725612281815591 62.98480923603443 -0.19769102124044574
11.685511068408792 62.98603640661686 -0.19652444734645677
9.632168755459325 57.439198555395585 -0.227337309512433
9.574731604677751 57.364309833296225 -0.2364842372371157
9.488559887535803 57.254315233796014 -0.25004285172043667
11.80638139674644 62.95958685816032 -0.19729215093819444
9.692305820168643 57.46937112455123 -0.2220682512844832
9.682025445140393 57.402156264207775 -0.22858996365893447
11.905062700821524 62.93622515539037 -0.19823605573140646
9.686463486586554 57.255578669782224 -0.2417506750822995
9.705414912376266 57.160112176463855 -0.24984258673949553
11.998564045811957 62.9105244596731 -0.1991601620381252
9.800803122552884 57.14160200496212 -0.24817056284371272
12.096904152700038 62.88693204799021 -0.2010865889247823
9.87980262909126 57.12213102792204 -0.24740286382115853
12.196305641069133 62.8644516978427 -0.20373397984770453
9.783474820969806 56.484184382389046 -0.15591855440032495
9.7788557126679 56.4301445643504 -0.15949078635375227
9.669027007098695 56.10664596655724 -0.18184563081089214
12.295823874461972 62.840576218397146 -0.2067332973651813
9.654337986613989 55.996726411344774 -0.1891641417116367
9.651354877633224 55.91451463455143 -0.19454738461308974
12.401533398656735 62.827081520785924 -0.2119663369794233
12.391279081779365 62.817106316483304 -0.21001917549016602
12.500251095092034 62.79803811690596 -0.2152937103419002
12.453706212666905 62.7974771622437 -0.2118900411525379
12.591620780063344 62.773181786125114 -0.2190855159262763
12.687676705749313 62.747766134245175 -0.2236078389565564
11.480607394581394 59.44610688202213 -0.15676607862181488
11.453166851681036 59.42849186535823 -0.16034927523707104
12.776177078913175 62.71461076410337 -0.2270465544686276
11.50742065133579 59.437461753101935 -0.1599532534471021
11.528701726581204 59.39833825047754 -0.17068233096733096
7.82879684927963 49.85642863014101 -0.21548972438817018
7.705867990077879 49.35583765570905 -0.23184645191411007
12.911092601738904 62.73870890536048 -0.24141819175115684
12.880827840049834 62.732319635282224 -0.2380300245717773
11.564771927306728 59.3486561191313 -0.1846679633261098
13.00301570967283 62.72377562803712 -0.2162581169684375
13.090230025571818 62.716071810585525 -0.1674729079533234
13.224539423686357 62.7455782717978 -0.17092640463559716
13.175119914296872 62.73470408105522 -0.16641289540186546
12.042145016852437 59.69077283486375 -0.15803659867285974
12.01655601802895 59.601067199046746 -0.17251505324094898
11.989977768146511 59.503784216598426 -0.18958271669967497
11.96493967899536 59.405455118012725 -0.18489136433709077
11.938223462111655 59.30740409071569 -0.20065296994988727
11.913547479140945 59.21560809428601 -0.21605004989106663
11.883465820079548 59.11349985153646 -0.19344988023460877
11.83857694223629 59.021464303991685 -0.1971341558546446
11.828242187841335 58.96528654600353 -0.17457118223118234
11.87932748336989 59.07806147360806 -0.1875695305339588
11.868333901327942 59.035541615596976 -0.18750205410874368
11.831424523203102 58.93446907977297 -0.2213489147993337
11.94529088474902 58.440031466277574 -0.1931974071598089
11.944004245946934 58.34375639813622 -0.20633165069935255
11.918545075916773 58.24997274942101 -0.21787015590546613
11.889688450707059 58.17826904025311 -0.2262968337826165
11.881433525701764 58.03368519356422 -0.2151333620834347
11.862183628214552 57.95944412330361 -0.16067115805779555
11.838062671635056 57.870856807489986 -0.16897933625859748
13.72915915964224 62.56865919850332 -0.19814379196852344
14.00160967584237 63.00852442327567 -0.25143725011351825
13.774241894987512 62.53009563437348 -0.19937331180673087
13.790910776765415 62.47529288724017 -0.19716127671612696
14.031790270547694 62.96854094526013 -0.251100131822357
14.043465952279362 62.91709833402356 -0.2484863447605091
13.87353727258722 62.46461921692519 -0.20365508473402041
13.982623102615085 62.44743242433728 -0.21217615562792358
13.943355931068055 62.4427677206327 -0.20840009091142767
14.063705604185534 62.42660419422883 -0.21812112203124392
14.155954155354701 62.4000068111335 -0.2248464456594009
14.256529615500103 62.37552096385839 -0.23259503528953965
14.358135221087627 62.35457904561426 -0.2407847232339102
14.450686291706099 62.32522243048867 -0.24778635902439866
14.50223673763378 62.30455731989408 -0.2514963868172059
14.966343071407502 62.204983835253856 -0.1535085021785112
15.03827509358942 62.19216805768147 -0.15780027613316258
15.045596274053194 62.06821822898475 -0.15431984777924523
15.127419479375973 62.17023180626813 -0.1629608527748676
15.065796362053177 62.08897589819453 -0.15630635008626165
15.093408605705694 61.91819501319716 -0.15294608132509505
15.159597334885648 61.90520197985466 -0.15698560562087194
15.24601344027975 61.88377718574852 -0.16213163768507885
15.326570138697083 61.865454840482705 -0.1670046727107508
15.501488774555863 61.88461377387951 -0.17931422480403858
15.492636235364571 61.826467537929965 -0.1770764300691609
15.512160437598649 61.86432546656643 -0.17945512820025464
15.510636080225268 61.795425105976 -0.1774414486077151
15.6316026152108 61.75710662284089 -0.18458852433752856
15.726519128441879 61.74325570829122 -0.19066509769523896
15.817321255858644 61.74362547515651 -0.1968494409924531
16.209275868051307 61.82981816760395 -0.22574481961603085
16.5281307023869 61.86537474832963 -0.24837765305354093
19.471964804144356 61.09566052027492 -0.15346586039832014
19.58148035819081 61.07406923436854 -0.15692912984665722
19.67500940198543 61.05007286337073 -0.15984617708447657
19.841050369333594 61.01552848877221 -0.16509568083155052
20.004987236055122 60.97906020892877 -0.17024791079777224
11.019956095949045 62.73257479199773 -0.07525331281081524
11.233556392879407 63.139701332458486 -0.11654001018720325
11.176086199912625 63.033786601436134 -0.10553580556158082
11.14964344805038 62.92245869710981 -0.09441071747330967
11.128415443475108 62.82605683052479 -0.0848332070480311
11.082661203962635 62.73372225735858 -0.09376222598552159
11.007758141299345 62.64957289012842 -0.10469204641240101
10.98292033284709 62.5573850950685 -0.09353239425882073
10.960814665305234 62.475308494437016 -0.10803491783492344
10.93345365258625 62.369416407709664 -0.0960138569512132
10.903301401678899 62.277275892640716 -0.11393268490504083
10.876076843475863 62.18102752766425 -0.10076911705681171
10.85846687081543 62.073307757519906 -0.08893330546613556
10.830484551413873 61.975609049255695 -0.10882386076530537
10.80522980902191 61.89192506373367 -0.12624510634040734
10.77726303518757 61.819814214848755 -0.12886699585255604
11.329214282904994 63.11129574384719 -0.11502581793125216
10.80736934958036 61.86467660502038 -0.1017557035022294
10.780009954348793 61.78274237728697 -0.0954523972862742
10.759678144419711 61.70468230876823 -0.09113654139668559
10.796087893749796 61.60464519889402 -0.13229260165610698
11.422337962881214 63.078871141256464 -0.11338692870525682
10.79833792895587 61.548062800936876 -0.10034331966333884
10.76905970956551 61.462973045845544 -0.10353646039270506
10.741050154186915 61.37206029500584 -0.09772453000454848
10.723469719678473 61.30149824972887 -0.10784707099765745
11.530686891231314 63.0560842459233 -0.1133280403936677
11.514502786340312 63.048844680778934 -0.11226874516174115
10.478175288484424 60.35926312838739 -0.1060823156886348
10.465416125762088 60.295812995963146 -0.09630930188724632
10.44086203607718 60.19913698109185 -0.10138642705812367
10.416403570096115 60.1038028568683 -0.10050141745531133
10.3939864430778 60.01106785303102 -0.10031282971373853
10.364043921586381 59.911207145366056 -0.10382569535896405
10.339871050504772 59.82960891384718 -0.11586225501957592
11.625247222164143 63.023508302494264 -0.11238986646324262
11.585229857903025 63.02615339387305 -0.11164814132435125
10.339461341899744 59.80757760436717 -0.12000001381873454
10.31553080487508 59.72400387194089 -0.0886443976859475
10.29724647986684 59.66296973890008 -0.11616958659114102
9.442118667193554 57.21668887397552 -0.11775440816038718
9.373432171352217 57.12747413921485 -0.12476343387107672
11.71555297302412 63.00044317613665 -0.1126206552201966
9.614747903256529 57.42233173366774 -0.10119336213765434
9.535945290545556 57.32371781156098 -0.10902899593457321
9.498289858242988 57.285607531508184 -0.1122264370825779
11.811346072901374 62.976906457306534 -0.11328631744618001
10.684249011170929 59.95385354668954 -0.09662998435490266
10.681671298112573 59.939097266260205 -0.09905589484616983
9.687717994419366 57.461790248413756 -0.09702891297342436
9.684084928304074 57.40998076449088 -0.10020202498582695
9.691081375712717 57.279296536482185 -0.1078886463352057
11.905957849965777 62.95194340417132 -0.11412483718095678
10.73383556476086 59.90657134174968 -0.10451400627255278
9.700972075537477 57.166679816734664 -0.1145147675724533
12.0053213781995 62.92971665046115 -0.11575347216411194
9.795930249265673 57.13148751482584 -0.1147477008466071
12.103437212522177 62.90256252269482 -0.11723381297528165
9.879899333744756 57.105866291344476 -0.1148127917223303
9.882932852225267 56.99376939130655 -0.12185639556488403
9.861003983892678 56.90768416578445 -0.1276573585169122
12.203224583185401 62.87927450896184 -0.11952596955812628
9.880058756053577 56.879459613208816 -0.12917203780577005
9.834686086673244 56.69380908674775 -0.14171619610187275
9.803784919518662 56.57707944383994 -0.14968319799838473
12.342342731518663 62.848568446856945 -0.12349302316630217
12.299079766311465 62.85395340689595 -0.12180430050891983
12.414696887619543 62.82719816244588 -0.1253519676935831
12.372453642572935 62.831788728078934 -0.12351948587889716
8.876959422692494 53.606031432078105 -0.09400560925886578
12.492541343121635 62.80427286973609 -0.1275790357013207
11.294379344750935 59.53807319096869 -0.1080294972254178
11.275717442328885 59.50334092297356 -0.1407803435189457
8.975204517289953 53.57201603350793 -0.09518291890108613
12.590966024735422 62.77779958972015 -0.1309362155233426
11.381005823740868 59.59458059415361 -0.0978773951561914
11.333741730333221 59.57700788692485 -0.10647214549903694
8.953998207213187 53.30809336645548 -0.10383299470741728
12.689185040677378 62.74718207913781 -0.13426119541554618
11.45420165206291 59.482790113948994 -0.09395207517565404
11.447637668166768 59.43261959802123 -0.09552278028023944
12.781031746307065 62.71941393223867 -0.13775593929096927
11.522833065438803 59.44758969491495 -0.09207787110801233
11.555342980979598 59.396271189090456 -0.12801136056302706
12.90523353809213 62.75105516680526 -0.11777217159638972
12.888269360658018 62.734721719896505 -0.10427672475193658
11.56978037916394 59.37798683572712 -0.10578193348090201
12.99590010453784 62.74391299957946 -0.0853789541637501
13.097876073979139 62.72757891534266 -0.06400091342988087
13.19936982989916 62.715801400905654 -0.06859190026279018
12.102314172940195 59.86790590569561 -0.09624804333707893
12.067548349010792 59.77155107169455 -0.11086858455861193
12.045066009490634 59.70134681894403 -0.10117758451907616
12.015509027064256 59.60271034683567 -0.10663450874455035
11.992274292865908 59.502387652176054 -0.10211719404199446
11.966039595756751 59.40819789308962 -0.0888487280411839
11.939377839559494 59.311327288611636 -0.09844126273828951
11.913404624594895 59.21301926037792 -0.11287059669160293
11.885803262412006 59.126064559259014 -0.11448970048659987
11.8424265840511 59.02689709473172 -0.10689177572923853
11.827223712330618 58.95134211298423 -0.056302217070999014
13.365855503217906 62.75702672935343 -0.07940704463282197
11.870246386672441 59.05270583734834 -0.10510864813425352
11.827093255783206 58.94894608157081 -0.11660328075899334
13.887035965430771 63.22676276027858 -0.13059288354437776
13.862566953880318 63.17318834994747 -0.12663298967684228
11.95252280093482 58.3174742900837 -0.1275312127615139
11.923128582977087 58.24642677489035 -0.13348142357279544
11.892931575377872 58.16667512726239 -0.14038888928426768
11.893032846508445 58.06880567387769 -0.09016172750510756
13.894258528856422 63.13565510942366 -0.12652832070668088
13.925386645185643 63.08757392964502 -0.12591201101252222
13.730943204313128 62.57559092964341 -0.09104378203751132
11.885789096607706 57.939376974841274 -0.06889979682695445
11.86016867081211 57.861335911776955 -0.0734545533121172
10.15972753849576 53.2696166283829 -0.11195233686223638
10.07080333823595 52.99603382124025 -0.12062243875744505
13.983059947014503 63.04021179462233 -0.12687236290354403
13.788290858828628 62.654438753162616 -0.09791690940090797
13.769533924246307 62.54573584048704 -0.09194238422608289
13.79702047324087 62.48550279725175 -0.0908897661561281
10.25110651320016 53.2655072593967 -0.11306431759969962
10.23302154925683 53.25974889510489 -0.11303976204864205
14.058633047861333 62.974287279124844 -0.12805372668113904
14.048489174570024 62.899213533051785 -0.12403137236681339
13.895816209534894 62.473759566566876 -0.09624464751169826
13.87734587324858 62.467537283968035 -0.09487278660032519
10.338633665314019 53.23191995392638 -0.11517981138845063
10.337436904504811 53.221905526819285 -0.11551334595137192
13.96941985709404 62.44691210423655 -0.09951789843749273
14.06589491301486 62.42001638578914 -0.104255750813039
14.16609621762755 62.398775987707474 -0.1095402992577667
14.260429084719272 62.376965507736074 -0.11452134071310546
14.353445287795061 62.35074263773871 -0.11932213809984879
14.447230477163716 62.329326471761014 -0.12442334296022967
14.544666661975752 62.3061363198634 -0.12975819984087153
14.68551792051711 62.274708081943345 -0.1376572395990264
14.640567915760396 62.276881087112066 -0.13484009178352732
14.757380161518881 62.256948307725715 -0.14166959153557226
14.73392469309421 62.25474967511011 -0.1400666991151058
14.848982705040548 62.231407650165444 -0.14673360507828667
14.929663109288459 62.21055346165518 -0.15128906702311304
15.043118670966374 61.97206477281793 -0.15120323745825878
16.563694093434194 61.84529363408859 -0.06469234558500994
16.620922574267713 61.82998426371633 -0.06639918792037508
16.75425479706046 61.81349551997444 -0.07068809889588393
16.687645577180973 61.81737408363743 -0.06847796088043454
16.839610863171476 61.80342560974633 -0.0734513721025346
16.926042589115923 61.78322981382104 -0.07608303622618506
17.028230813442025 61.76456315490452 -0.07928452547597362
17.094913523708 61.726845976206256 -0.08096323010615486
17.192308718722344 61.673572251276134 -0.08345088817293886
17.266384190127404 61.62504554047575 -0.08522424623671329
17.40853088744597 61.60733463470674 -0.08983693366956988
17.485724800794735 61.58862078409626 -0.09219441922385849
17.580641765360134 61.571828877830875 -0.09520683450712744
17.675378248907652 61.54229298356011 -0.09801135496216384
17.826052748166255 61.50814564349055 -0.10267219772566635
17.7614341318396 61.52152943801348 -0.1006625693869024
17.88270546231783 61.49331687882473 -0.10441098735697132
17.96658969618291 61.47067196834801 -0.1069515782767737
18.089686573167864 61.43976430254319 -0.1107290835491766
18.18547222774595 61.415471139874256 -0.11366115111835068
18.27908952571487 61.39063009118076 -0.11652694326606783
18.37853142064874 61.36621181567932 -0.1196025445989013
18.45277990856462 61.34985298354987 -0.12190829388302624
18.565075562689096 61.32433955338334 -0.12541662105927098
18.64939535353359 61.29565760001641 -0.12791429235554364
18.74140491332853 61.27907835491564 -0.1308344456206089
18.869380702860735 61.252182397898345 -0.1348723025570924
18.97924494829995 61.22388661492644 -0.13826619305440033
19.059206756824032 61.20344455302791 -0.14071689687962644
19.137180633734967 61.18132363911554 -0.14311228738485693
19.223035160554204 61.15987147574807 -0.14575539909497698
19.32671048234526 61.139817307272146 -0.1490722785154274
