ply
format ascii 1.0
element vertex 844
property float x
property float y
property float z
end_header
2.567229476229649 30.45140004167339 0.008092486276145491
4.085218979104434 34.254854770589205 -0.005967052015063038
4.06262463613734 34.159969914153265 -0.002498776273376229
2.698966223387381 30.45128505920599 0.01542075861887333
2.6237024691058073 30.33538247336028 0.020252072598509765
2.748489883734706 30.42615441365494 0.02009495433103644
2.7626208393561473 30.278487535382705 -0.020383990223390398
3.684817604370677 32.5278751676665 0.05709751653890807
3.6160361286950296 32.416878823297154 0.06133588788012363
3.5943978274669615 32.32331140475968 0.06471594771249942
3.5691531784164976 32.220647462886056 0.06842645430887793
3.5431578709940537 32.10386275176103 0.07262739388177772
3.518758607280586 32.0089238538745 0.05143245502320761
3.499977784634299 31.922854687859388 -0.01755300586355291
3.476929759456318 31.83999414981182 -0.011788758767466528
2.865410845629631 30.303028464754295 0.0026307941590272763
2.8346917078177025 30.27330080932542 -0.014091885561183248
2.765000572307414 30.201250743302147 -0.012352621509516212
2.421045398814841 29.135711765724032 0.01756270882538645
3.8058643678632236 32.50561236372103 0.05721696488115409
3.778139553298617 32.5051604759305 0.05739387448822311
3.4615353224321836 31.778611338031766 -0.007527507281580002
3.4461636827347304 31.725569201226662 -0.003865394510361577
3.421088114301802 31.627767004231504 0.00287255049830255
3.39443518837974 31.52851683810201 0.009671773004741771
3.37652121933027 31.42490488096688 0.016767108852957763
3.3569621025733842 31.32721019144205 0.023411357959569445
3.336879663732099 31.226657158946047 0.030210817718203546
3.313703955493922 31.134646234764688 0.03639277294248753
3.2868351333768313 31.052012949869493 0.041889750919142904
2.9501297071330876 30.22207988008074 0.0235412952647675
2.7719328578904143 29.82055117550063 -0.020700373332910502
2.502322924539064 29.166118875648298 0.04403241719604909
2.4654890757848538 29.1145163994864 0.049462876346416204
3.9600429613920327 32.607322109984764 0.052699172662365
3.89011740723839 32.48213696362468 0.057536449692692476
3.8513186849639123 32.47888045444894 0.05789550422872622
3.3104933876037235 31.109158141254316 0.03812846202856868
3.2828178465554076 31.021843212609284 0.015279614839660392
3.2633593171471187 30.933131733817866 0.02360638384677955
3.2411903289931474 30.842720965991937 0.027571524397141136
3.219307862083352 30.743357057417853 0.037044131670389675
3.1898500665527685 30.643401331781813 0.04379566970252982
3.1616213229078762 30.550432219891263 0.02353342715272188
3.153227553265445 30.446602343620093 0.008957946291044624
3.1252672267826984 30.36048829816805 0.01764949516349247
3.0570461678271443 30.25593550481982 0.02876838401110428
3.024968340916033 30.202811904551215 0.02425059033936317
2.9690198761293107 29.96456326484451 0.02374085081500529
2.9375003307859444 29.896715424508805 0.030169092654197274
2.9016012467830077 29.81102607731064 0.03249581935204486
2.880087527598837 29.71235028064379 0.016325318065521927
2.835237237657205 29.58632301571001 0.04531677844657818
2.6276954844816576 29.158849768074386 0.03044732621594974
2.5757592216615786 29.10102299570137 0.05227550072657006
3.1560086570591093 30.421589850190152 0.03915818844727211
3.122284142120962 30.32939105811793 0.025122010175279708
3.1077965889467603 30.267688419481583 0.0261467332685638
2.9775813180855133 29.949593866930925 0.04368742695321941
2.9572447847888745 29.881038656066217 0.058392844804043886
2.927576605655095 29.776679992598595 0.04536922993434514
2.8968008444188253 29.6859812701087 0.027169548267752162
2.868377150119617 29.590800005861723 0.028734527641980548
2.842278334808692 29.498704301565436 0.02315553229372754
2.8239878616413967 29.42743285386221 0.0241638047144355
2.797005878465483 29.259639585060434 0.015508971690708634
2.783465432125407 29.219815894093568 0.019602857992527457
2.739119673995833 29.08809214581752 0.028421722189613082
2.7249150374392723 29.027526873521605 0.01846059383314741
2.8098916113204706 29.221828862140928 0.020768723926059177
2.752870548217142 29.07072580866925 0.03777559839060632
2.7657140667479405 28.99101457180576 0.026074968606264685
2.74474518567538 28.88873787242065 0.02887805439920647
2.724416436293689 28.794525823039876 0.023095212484948113
2.699181130108061 28.701279874545026 0.010719617771722853
2.6729144400880305 28.612424836552563 0.00805767680850376
2.708015430139146 28.679461201311238 0.03902991730368663
2.6741467252273865 28.581952340173583 0.022466740709275734
2.655216104808561 28.505462025624755 0.03737362369925
2.627422742904476 28.402506998400465 0.04393919395296554
2.6010946232051557 28.301369039044708 0.039515815044383715
2.5829200258266765 28.23905652970273 0.02899368790668749
2.909899344877441 28.480968911752715 0.04954250870544638
2.8444808736911633 28.42195465061924 -0.004225888851477313
3.0211718775815513 28.52639940212335 0.036036334297537664
3.029684548136707 28.505556795435613 0.014625868149656385
2.5599718684968695 27.228181990128576 0.010060628094596666
3.0989687975779407 28.492512026338932 0.040137610551632036
3.0734865769801436 28.462651721251948 0.026600441909226294
2.577787366828699 27.210628172519645 0.009804329841931886
2.581564791577987 27.15287735306265 0.0066378908238172996
2.562132503132183 27.052958016935438 5.3004158553523334e-05
2.5284773257985327 26.941779217175803 -0.007779756023485459
2.499349706431038 26.834482683150938 -0.015237730698802309
2.435898479653374 26.62745821191654 0.07236393245757203
2.4616876619198074 26.610887407485322 0.07239087234569659
2.4424415921164524 26.54089920175681 0.0699499449655975
2.4229556950137914 26.46773626246963 0.0674136475171016
2.3906869641016293 26.34219494570235 0.0630684695956849
2.373087891318218 26.255723923494376 0.06014784057264548
2.3059398569100655 26.06386614536813 0.05315549922435857
2.2798632183984466 25.936757804116233 0.04884060036826812
2.2537655460218735 25.836405684816835 0.04532511877972233
3.265290795688471 28.374190190186965 0.016647418566202814
3.2227270673424284 28.288733273188573 -0.017922559520833065
2.258669716308936 25.816474726935983 0.04481204176314345
5.042916982420575 32.38046169131479 0.050535525229643795
5.015887981534549 32.26234833447388 0.0548871392020639
5.006222954382404 32.20607125977725 0.056912268128872096
5.063256612759096 32.19515188657811 0.056591836260829385
5.157434428678504 32.17034694481976 0.05625184905200846
5.238065352469606 32.14240896121981 0.056148373101475496
5.231155236391766 32.00161858488828 0.06096276543455219
5.205696091838757 31.89280773154799 0.06494220491555612
3.7266885931781455 28.075458083725415 0.037361225613042046
3.6776236532435616 28.0143919283505 0.025788865074512824
5.187501449734814 31.8122331809312 0.0678785698258111
5.165916547404761 31.718206691094096 0.0713063094331316
5.1377127082951795 31.610420736113362 0.042990292140757176
5.116218815471047 31.531001359578077 0.007991634300806887
5.089095939302277 31.42282726927067 -0.00810137784787968
5.064937344881894 31.319542757193943 -0.0007871753125354708
5.038841019332943 31.210388944853797 0.006940450690990203
5.017512712656416 31.121378617718687 0.013227069356410081
5.003934408470304 31.07032862514391 0.01686724506396014
3.90136137373889 28.186650664294742 0.04943807992496388
3.883631140984656 28.15158627344449 0.035396656232869014
3.7925641078687833 28.05767532799083 0.034806332754741064
3.8235558167769192 27.982658468230323 0.0034874295924660174
4.996870485989034 31.031501841795006 0.01952561177425838
4.974290964253449 30.942358493349396 0.025822007386822374
4.9488359139387565 30.834136067158365 0.0333710534758819
4.925959802576814 30.731280559437828 0.04046257753189153
4.901678862842371 30.632297185052018 0.020640456484148806
4.877189833266868 30.537208662363565 0.01926144403742451
4.852768834256519 30.43687415691626 0.03555472972778182
4.828168280059215 30.34145061256552 0.03678735351828091
4.804115595544635 30.26250538057964 0.030037485747462518
3.958610134350592 28.195980770464327 0.030927976484882876
3.9056302853118607 28.163279162750527 0.014767490074478973
3.833759385406842 27.995358083046312 0.047944387082306306
3.8362340957951044 27.971254525279008 0.023273309476706326
4.801036212829105 30.238120595227052 0.05755075082742027
4.7807152935056205 30.149866878002303 0.014798008799194478
4.7601243720296935 30.04609850824888 0.018855892734984565
4.732992045462969 29.94848087565075 0.026560389131025937
4.705991390434568 29.84864075514348 0.027845227698939393
4.681023673003786 29.76572490072784 0.025249564064145066
4.022120344622585 28.16030637246401 0.03447206989208573
4.039740247138037 28.125817277167858 -0.02004042978753406
4.795496924252934 29.453266907313722 0.024260602876994178
4.783445459392331 29.44849964634424 0.05944546450297916
4.259565650184166 28.08648268046205 0.02725585435484188
4.2261707541798605 28.002765150371488 0.012501083519161326
4.210746232738502 27.90186756507306 0.026067338923546124
4.192688293655267 27.829568385557096 0.04509933814350835
4.849067499562781 29.435198869051796 0.028648219869965144
4.862603437913114 29.369252742014282 0.03601940756387156
4.845095714560965 29.284829130471163 0.038786730842615365
4.826338450230525 29.207284604082474 0.04502161620640416
4.347165216318828 28.07791745937329 0.017293534149634325
4.183932278545838 27.781953414102258 0.04112919299195465
4.164470603789961 27.70558009384764 0.03949817080469042
4.1512153150925615 27.6473310013513 0.06149180877602865
4.872699897968915 29.31472888935561 -0.0019778393285803594
4.857086211643255 29.23984724375586 0.0323708875069019
4.834763067028888 29.161646553846563 0.026436649017444334
4.810526167651057 29.06287493308641 0.01847585254853396
4.78712682865943 28.967870806233883 0.011615119258125754
4.7628095988617165 28.874494964548045 0.014403901504795544
4.716565553418952 28.775114832179835 0.007104716503023904
4.693156725854193 28.67839536283587 0.017471394827277206
4.677998445377193 28.588134628167108 0.023519358527873648
4.6574494633642285 28.507435775986036 0.032870612381736136
4.540480047041351 28.176418109125205 0.035944065881751516
4.517431727669692 28.10842825257925 0.008498511539617306
4.444127179171085 28.049826784030465 0.020155510008462954
3.897263589553538 26.67801959460516 -0.0026332499228132224
4.68925057138089 28.54742361470536 0.025605521406313236
4.675154181804816 28.486788512056666 0.0070474957019294945
4.622573406514106 28.33891100015015 0.041837534559670334
4.600736136579752 28.288955159512156 0.04002054707687136
4.570435455112646 28.189786580374044 0.01424630659476902
4.531267765767696 28.100881795218044 0.028204760756360744
4.505009962175402 28.039171666250542 0.024429402067016305
11.16106445686559 62.788236250509975 0.13703974982490294
11.275888051085275 62.76496633349519 0.13691841292789333
11.384725050816606 62.71603737866432 0.13659036500193986
11.497972154561118 62.68615441824551 0.13649095896258853
11.612063119813564 62.65982005470096 0.13615431808043285
11.73231536786717 62.63362448672629 0.1360586798394625
11.854257053372177 62.616905472309 0.13571894319681088
11.96229890254192 62.578378987589666 0.13566100405731207
9.713864479814983 56.65149295724183 0.14414844408131677
12.073846218721746 62.55307167860279 0.1353553594739342
12.195180417952201 62.518670598029054 0.13529742447995785
12.319665886453398 62.4995547566969 0.13498913010658914
8.696223032507453 52.94451676489433 0.14867385909265715
8.817601486760541 52.903993546632975 0.14836272172352308
11.783964318159832 59.975446083517326 0.1378883096634138
7.181731822138092 46.957658164035294 0.155794719810616
7.273921294264992 46.93584911074832 0.155592293169101
6.816381502771353 45.658520912712305 0.15746483074466613
10.944792617741543 56.362339717540415 0.14189444725135272
7.36368129187178 46.91815928443906 0.15539845706325697
6.607619461151034 44.83038743908214 0.15852079141480538
6.398813641333414 43.967571155010454 0.1594868595793559
10.045156778582784 52.601370078164365 0.14631541978107876
4.945483710481128 38.217032418302914 0.1666811473178102
5.112707102925748 38.49684475130781 0.16598948046098946
4.993965702567111 38.21989928608315 0.16651471686585245
2.20231125778135 30.77832666347303 0.119654261119419
2.196528281958485 30.746215599220942 0.12050517405085671
5.21042795444991 38.493552568065354 0.1656628638012038
5.209341867821159 38.48660874413537 0.16563807527055305
2.2612350116375812 30.79738443144277 0.11954077255551553
2.2116730457067204 30.74768325366816 0.12057670493528835
5.305613022763566 38.46461425449051 0.16535411603393438
4.787879075381696 37.182509647123325 0.16766174528764
4.746951151494295 37.07060120954618 0.1678305516511243
4.690849809693693 36.82540426052589 0.16815672534825152
4.6379614933736795 36.593890142578864 0.16841540573356326
2.3880468823059817 30.805024456921583 0.12019022709522492
2.3702283404543074 30.773280570067808 0.1209793896017396
8.558424818849902 46.64826214865616 0.15323126372817472
5.373625717629057 38.4737972986874 0.1651163911309008
4.589957074210532 36.391874440622 0.16869672904399344
4.543962607800163 36.19563912248414 0.16892083743493083
4.501963366042901 36.01895558039526 0.1691719004539757
4.464672136866903 35.87795365534921 0.1693480829802285
2.4616648137693184 30.723371927762358 0.12301596426544073
8.651639690632699 46.630007195037365 0.15309365889032966
4.423715084112902 35.69899398246217 0.1695958131262777
4.3857763903321665 35.53980837368531 0.16978249102542334
4.350219109510057 35.38228358032403 0.1700035102892214
4.317262204938882 35.24258200251791 0.17016776181307572
4.286068674024352 35.1186596651909 0.1703608921978057
8.738001973877147 46.58710907653958 0.153058608573834
4.254785080771555 34.9826899194759 0.17051943277486586
4.225060909316361 34.85449732897563 0.17070825809756637
4.196357515977379 34.72822002175498 0.17085560729607235
4.1696109369326715 34.61772613193885 0.1710275081680493
4.144371392099449 34.519141042974056 0.17115482244318336
4.120012633412509 34.40836697449457 0.17131718981823962
4.096409823677714 34.2975410061594 0.1714428375309209
4.07262032704267 34.18461041128367 0.17160353261940037
4.051327562953585 34.10759030006473 0.17171201482860352
3.679814733809062 32.51491589041798 0.17416866863788846
3.6164131664756156 32.412870317086565 0.17461331728892107
3.5953530808025884 32.31257996186723 0.17478379501675081
3.5697719313246203 32.21436235112115 0.1749850124875308
3.5471777735657057 32.11804437231926 0.17517622784760842
3.5257274138414374 32.021524596959644 0.1753579106274458
3.498849124705136 31.926637615644204 0.12736925543544397
3.4734196056837345 31.830507614710907 0.1136890282211947
2.415132876463482 29.12822194504208 0.12493237153750575
3.7887392118449053 32.49441909775322 0.17348798926201986
3.47298157048535 31.810690384168808 0.17582519876183564
3.446153014447275 31.720994176145453 0.13115390147608338
3.4210217148989064 31.624244112184787 0.1330107116108881
3.397403103899814 31.53246367053496 0.1348064703774978
3.3741084893945943 31.435155337940863 0.1366470774343277
3.3552153889087637 31.333321541730747 0.1385520397732017
3.335282241771058 31.232068425888738 0.14052685215636165
3.3214387637293346 31.153020171766254 0.12429031318398037
3.286585257321535 31.056579202200993 0.10986360031731486
2.9568289233848515 30.20056152469602 0.14127048432061473
2.534748028162025 29.158280605049562 0.14259274939717317
2.4652535912557108 29.109020658055005 0.1430719682175743
3.960246247428979 32.61315066140189 0.17251237841288455
3.8860874185030094 32.48793568819265 0.17293271177687475
3.9022649673376755 32.45526273752415 0.17285260581476536
3.3138516360042964 31.111859569843524 0.1255348571691621
3.2905053518071723 31.043452587672043 0.11029967234445423
3.264149829034351 30.934250939731637 0.1151257365033388
3.2401521188019995 30.843456141246822 0.11993345124415747
3.2193828376896447 30.746035575945264 0.12342103750963988
3.185529364543649 30.646769207307564 0.12871082692222727
3.1659873189347287 30.54609160505379 0.10435088864654066
3.150535496862924 30.446106779761845 0.11111244235648053
3.1217127953821024 30.357337100036858 0.11497434471057236
3.0563555012178343 30.256864607826703 0.11902173580592644
3.0163670881470392 30.207556176510725 0.1354602195275349
2.9495453437976993 30.055465279480575 0.1453369471658893
2.9685689076014947 29.963873838943023 0.12893231729032928
2.9347167282619675 29.896761068655394 0.1338706864497225
2.9019686747622835 29.805794277175 0.13428314760387935
2.875469292233472 29.699221866342914 0.13368543628377774
2.845355310592651 29.6214588489926 0.14810641729221008
2.6293925367104207 29.159145303269216 0.13396962639004317
3.1198095407834883 30.323206425975947 0.11103734053142496
3.1070588084649122 30.273886357586964 0.11211856857712872
2.9741491838419023 29.942280281303926 0.12264402978048307
2.9519692964368724 29.87736835104458 0.12632163497519017
2.925500410080547 29.773903755432002 0.11710413398435061
2.891629025196632 29.68994346384494 0.11473616245916801
2.8633661087346787 29.59316152603812 0.11751230503642492
2.8409084520331325 29.496997747892223 0.12253650379242899
2.816673673567613 29.41738298581482 0.13564094362315435
2.7806244979006167 29.343122220119703 0.16037161838938438
2.7579540706176955 29.206772586722433 0.12913903031193233
2.7293869215314848 29.09858029814398 0.12629183341039138
2.7244019159194677 29.030119481116774 0.15157994196362415
2.753974723454192 29.06594779374873 0.1211665472421606
2.7607211823005353 28.992417832883056 0.1250201117784036
2.747195585173712 28.888835732977913 0.12583120811042864
2.724900587270391 28.79024169002712 0.12774832840239922
2.6985217074210652 28.6925978240654 0.1266225162262352
2.675660979501517 28.618305622250894 0.1207836483785559
2.697617362788022 28.658473787538124 0.12478097244883293
2.673498822038396 28.58948784578245 0.13606866103256315
2.648090559623016 28.495981269131992 0.14676459936084252
2.6227303349453646 28.39914495650565 0.14237555124450998
2.599712632499484 28.30620003834491 0.14350994795272187
2.5788110822824715 28.247451453865253 0.1427703703026285
6.490953704058028 38.17325693282356 0.16313513867745078
6.58860325921496 38.155109781193566 0.16307672125161887
2.9690634982905304 28.540381679536242 0.17179925822358735
2.9601837551647443 28.528369230399836 0.1589022526864323
6.680989375841114 38.12402663363759 0.163051203771582
3.0294522712152077 28.52907400600284 0.13771994804349863
3.020228473986674 28.51277913445187 0.11060579540732592
2.5865590095354345 27.26455369132495 0.09364493657146937
6.664885808177472 37.919057823652935 0.16329703166667925
6.574730861221592 37.5466489979854 0.16372068776071186
6.503033277689669 37.23748642137631 0.16412458465444452
3.076828196795164 28.50330119047333 0.15253838260960487
3.0860811709539524 28.471302973372605 0.13469442081891428
2.5973378145009605 27.228518771903683 0.09290297856395494
2.5850536354438765 27.13626698007121 0.09006365099515687
2.552366862964549 27.02193393998072 0.13024957958971067
2.5299904314843022 26.938853970248744 0.12889870112319574
2.5088933046639967 26.864636059040585 0.12743075379231789
2.48589939287457 26.78286942876869 0.07789143013993692
2.429473688431438 26.63971349986654 0.17438610372312502
1.3842664297528993 23.8211137171022 0.17499502404277312
6.395985772599994 36.830432110667445 0.16460069091206359
2.4584584235753275 26.60715471349694 0.17453749842744315
2.4360778475097575 26.51958085528439 0.17459376819832786
2.4159266968143056 26.444503730623687 0.17463310074962551
2.392049610765617 26.360187596585515 0.17468007487939377
2.3725834829680705 26.27043982426553 0.17474206500344336
2.317462768102445 26.118121469330138 0.17478331091067156
2.3106210916515404 26.076999050634306 0.17480786758072522
2.2816363028618545 25.973318502928382 0.17485936219836193
2.259464429074229 25.86655234866559 0.17492707580356048
1.409263444103559 23.825223497333972 0.17503722537805483
1.4205153607935972 23.75091757767541 0.17515285255537758
6.460295354751631 36.71306968287743 0.16474802677410222
3.270311586539546 28.364589754984895 0.10449536769673824
3.230122219417508 28.254659351378564 0.1745875621240869
1.4100901572346474 23.56716149348332 0.17531760045434136
1.3807188862100062 23.44273956730295 0.17535622711365784
1.340010604956396 23.28840789718157 0.1754296620300794
1.3030037444636382 23.13916402649254 0.1754713809655593
1.268590137941053 22.995377662943067 0.17554624447203104
6.008167723965668 35.23091696978168 0.1666167644076735
5.967123708778905 35.02237185628767 0.16687712725896403
1.2319570928227943 22.846150363853372 0.175586534015463
1.1870076422253288 22.672274558850773 0.1756661722117502
1.150600064923474 22.51450128509638 0.1757095612109401
1.1020056936140592 22.322879662370312 0.17579443474658318
1.0562118088757355 22.13459491653296 0.17584140315638785
5.923668349274827 34.842236653079425 0.16712960333492893
5.886639628491972 34.68315653155869 0.16732033925076145
5.032312356606573 32.38688922848532 0.17022570523736144
5.017875735802151 32.28534910772593 0.1703666066271996
5.0052237708368565 32.2055072772877 0.17047533262991355
1.009759006326219 21.940175593204884 0.17593009499890688
0.9586415922270919 21.728419182595037 0.17598088459089972
0.8907104082467119 21.469620752168886 0.1760800611730192
5.057423349342274 32.183044459410254 0.17055901647550684
0.8223853388805504 21.206848044847916 0.17613657392921278
0.8160748097129291 21.057689520913126 0.17623742157261843
5.152743198702932 32.16188456207191 0.17071779777238408
0.8997940518562055 21.023603793812413 0.17637022328648136
5.2364596141289965 32.12811254527023 0.1709316570123762
5.2318514767661375 32.01626018519487 0.1711583904617971
5.205683895402711 31.91820703886073 0.17132481520984408
5.1906713411424565 31.842054751159207 0.1714607167767417
3.7582719751834097 28.13253901393525 0.1562910890292983
3.7240984625584246 28.102982375390788 0.13695653652104653
3.668027753691327 28.036076592992096 0.13420089097236457
0.9987674535165394 20.987645622926824 0.17651040421760303
5.176542048463537 31.793038204578984 0.17154868391070452
5.156960440548961 31.713740128500994 0.17168459583659165
5.137314947550447 31.624848938812598 0.17185385839265543
5.113145691709032 31.52307710311421 0.1347196972248729
5.08820423845731 31.425968578136224 0.12719926433720266
5.0639460787268735 31.330800355058283 0.12903889716501737
5.039007168643148 31.230863310230383 0.13095220031586166
5.015443131612037 31.12974656931054 0.13284739417098068
4.992814361185335 31.04196109177833 0.1471954209411019
3.8642981780941437 28.121780022278756 0.1370468948036841
3.8138221487238697 28.0927612913893 0.13518460815967143
4.986852091597665 31.001623800139935 0.09752496536626466
4.96861176463093 30.934902073082 0.1407636032668981
4.947872518752738 30.838619423461385 0.13533958918312944
4.923461943962197 30.73438570080624 0.14307078084999356
4.899653728871449 30.633474172848192 0.14241441637234223
4.876268366135214 30.537105085666145 0.14005169029724698
4.847538015765973 30.437022768195845 0.15199979594052315
4.827031378249309 30.350240372924443 0.14785608021051772
4.805125961880278 30.27303783891399 0.16783507381807153
4.781144293144741 30.20008803910334 0.17547353761745912
3.963765786661537 28.17400205869241 0.12935741960448105
3.915587684405245 28.14949606435863 0.15203889205280338
3.841597236358818 28.01171237559333 0.09145434856045018
3.8487637229994065 27.97993862435784 0.0891748285061329
0.06865382808141662 18.02187359221147 0.17706449235732505
4.824719443383623 30.309079460172953 0.12230833524885966
4.798578231966475 30.232182822112215 0.13881333834641812
4.777052711493242 30.14438880291934 0.13086947170706423
4.761048803130945 30.053131927733258 0.13001211833717394
4.733364993075232 29.951972465800182 0.13478073005168606
4.706722716115868 29.85409837668508 0.1381693726528988
4.686597088777269 29.77710872161437 0.1215318085570889
4.0318168962715495 28.1448875105258 0.14372762005081685
4.047182342617407 28.113520812116796 0.1627159886136124
-0.06194058744149844 17.49405082155407 0.17722995132787991
-0.09858068903470985 17.23659669616054 0.17728192488507324
4.1008747615118635 28.095451123171507 0.17291625971249264
-0.010806436567045719 17.21942747744446 0.177379913655973
4.795179698612952 29.450766634488385 0.12946375425369624
4.2562005378783265 28.087721981439856 0.1303423258493137
4.225631010899434 28.0043145429049 0.12779053428930373
4.21014430176553 27.910390036294768 0.13856371209324309
4.191135334010141 27.829168796866604 0.13897284144224764
4.856065560421238 29.436407053379344 0.1313532245891893
4.861211217667436 29.369702386076884 0.12807782421110603
4.841819020205755 29.282833604454858 0.127777660562428
4.828413458671314 29.204932979731808 0.15189607905660646
4.3442987556166734 28.080142464304192 0.1279331067816092
4.182783110095587 27.778888675670213 0.12104304762272333
4.165334989340018 27.707042633288882 0.11890348279840358
4.148105932917436 27.648705504686504 0.11718829615231473
4.850822937906662 29.23516159193834 0.11946495256547228
4.834444962837864 29.16200068565517 0.11720760784840684
4.812471853487427 29.0697064555196 0.11616524362668468
4.792846597602306 28.97545461477603 0.11601122562496226
4.765152686644885 28.872257434304032 0.12072451993578098
4.720173581960211 28.761652027430287 0.13930829805127562
4.696915380788652 28.66788429550158 0.12816508594876155
4.6750455962886805 28.583553432604372 0.1254423451970634
4.657955530521941 28.50870847061105 0.12519201075744193
4.605922461469344 28.339263480076237 0.0844317283244117
4.543051199107877 28.180855071442064 0.1363788460969443
4.533439709776832 28.146383394481585 0.12338908503056872
4.437165035070224 28.049964460526922 0.13096769453083157
4.693000515045802 28.564011069511675 0.16320594798445962
4.666488477449742 28.48650663022855 0.1383758417901991
4.631956033867942 28.358799676957187 0.10841544710630688
4.602640881000695 28.285815189787634 0.12606199641225588
4.571881845749687 28.19513864909088 0.12086852311719141
4.531309944304809 28.100767741306655 0.1411772579719574
4.505972217876253 28.038183769267093 0.14155229327279514
2.8693748245087605 22.409067296721048 0.17566473947132186
2.204435064584035 20.699095101230256 0.1764899012271089
2.8123974771300437 22.176788769544828 0.17571051419477274
2.7493986105102257 21.913090186661176 0.17580183180939116
2.679509951864822 21.61818944796729 0.17585547082243652
2.3064811343070275 20.66916581297287 0.17633803447129115
2.245526211861737 20.672078458833518 0.17642243320004558
2.608759220153301 21.33357936222943 0.17595680504869696
2.5263300433462943 20.990209066568273 0.17602117324737854
2.3789675804252086 20.64411992714143 0.1762209680354107
2.4401437546952027 20.64141241322909 0.17613776533026398
1.387984034942097 16.862368080476593 0.17719442777664254
1.2976372609819191 16.849917390062284 0.1772883553129049
1.4310910522037559 16.853964754517676 0.17710787818277074
2.2179800999065162 30.77522950498024 0.19792206930402698
2.2597998717750665 30.766427237209204 0.1972151651962028
2.3687350818614554 30.71755333286957 0.1954778120218893
2.4503339609629076 30.672840310342266 0.19421395033267924
2.5300045238777056 30.64582013300101 0.21525391422221954
2.541300252586628 30.60161782150928 0.24782594688474696
2.580507072474986 30.570412758366835 0.2564528763632909
3.5412656905294946 32.08820568318692 0.27727970257665613
3.522952353850903 32.014060385432 0.2749191144506629
3.495554355965533 31.907455264804703 0.27156432124092583
3.479299439704016 31.84609653629968 0.26964721073723863
2.3841950338274795 29.106437567741814 0.2445820153260846
3.470872576525355 31.80165490587932 0.268230756745547
3.4528708908285766 31.732584485816087 0.2660959671701887
3.427104782860879 31.637123915743253 0.2631824982798087
3.40075320754153 31.534212663023933 0.26005444048814425
3.3763242100161253 31.441849195745398 0.2572971241187156
3.3565000674532626 31.343577893718976 0.25429996819846334
3.336724241141146 31.240457997511687 0.25117786522226876
3.3163151639986963 31.13767970117625 0.21306141116061936
2.9514549471374356 30.205384816549785 0.233075707892142
2.9004708564878863 30.097136455051096 0.2774549300545924
2.5218190464808616 29.14455930623039 0.22850402052212837
2.476890061322055 29.118221248716438 0.20730074973266638
3.308833927740664 31.098989765015737 0.24703796399011152
3.2928825391592 31.032584759988026 0.20929893965860016
3.2661047787989372 30.93152053487453 0.21268161049766035
3.2427811380923077 30.84101561171546 0.21195395641710207
3.2206450589340894 30.74111561857658 0.21008379946355374
3.1914049061509724 30.645817203130143 0.2072830959764224
3.1697529332918273 30.551015854111284 0.20945008309808513
3.1521489186241047 30.448226687341666 0.20827825826754987
3.120514252974524 30.350922738157614 0.2259310069808963
3.060272337787154 30.25536981867997 0.235927901414162
3.0201678915595904 30.198535679020907 0.22795899334869887
2.969441478261013 29.96935919082124 0.22924574110914692
2.9346252411612066 29.892145384772157 0.22953519185756752
2.9042295315154725 29.807160793763632 0.23316296879036374
2.6391094647149127 29.159699697230185 0.2237597350373939
2.5608712950145005 29.10064553465362 0.20569189756847897
3.123980593473392 30.334970296070804 0.19943316530870722
3.1055773987541677 30.26704099219243 0.2183352287006854
2.9842066918737817 29.954586407185218 0.20192297496224765
2.9541962720842543 29.875126136610852 0.2147677836574114
2.9227337734727614 29.778487339726357 0.2236407700933985
2.899430647633275 29.687051838576522 0.22720606923737457
2.8673421253118625 29.59195036460456 0.22768409801795472
2.840523608406847 29.49616059999534 0.22940381362160858
2.8155047048965605 29.401823550642796 0.22893699861219058
2.7999280101560498 29.31363336165429 0.23570498195125048
2.7668525948427973 29.20240073588588 0.2512350930412042
2.7389514559585493 29.10296147788283 0.23406180061897297
2.7302410968964788 29.039054117247684 0.2414632674356669
2.7996231992583707 29.20764338142707 0.23406537172961028
2.754250583288381 29.071624164054406 0.22530063424654934
2.7674816978667334 28.994169920419942 0.22568472932978006
2.751552588714328 28.88763839489826 0.22459157850702935
2.726397852380974 28.79173628108274 0.22860415448689786
2.705414645540044 28.70591971123361 0.23359283364046818
2.6821776754905553 28.631583280667897 0.2424627139663909
2.7029755794997357 28.66762465783471 0.2281971815142184
2.6792096376249184 28.591003485194076 0.23654182810040816
2.6537572692443607 28.498440559499873 0.2405718228302348
2.6300519253014274 28.40063383370879 0.24576696419558267
2.605358279324856 28.305629715184025 0.24674733513212915
2.591901861783035 28.24804118189385 0.22458131802647338
2.956364143727209 28.528299855772996 0.2100120446930192
3.033719836477559 28.5362443540596 0.22598489166968178
2.970689022159111 28.535739530763117 0.2473183494354125
3.0795370325167513 28.51368368775639 0.23019035958532214
2.4430295585908883 26.643041183726684 0.2758894781949113
2.463693128526078 26.616944674464104 0.27646787513525645
3.2709161834707037 28.345140057200037 0.2340403350771669
3.270832862827614 28.284473198707996 0.2320743373273883
3.2860583125131595 28.24068209118811 0.25170906496138995
3.566287677717338 28.156891896989013 0.2505081490868629
3.6386082078048005 28.180497485105807 0.211490706915611
3.6163985293964083 28.140842394037705 0.24345287205754648
5.194528010816971 31.871814117703842 0.27701457793912476
5.18750140984511 31.83500034610662 0.2758203316705253
3.751222818771096 28.15468092300861 0.22952945576446537
3.6868349214236984 28.11844876028155 0.23371656258834086
3.6365042624221027 28.004851265918525 0.25988562528744835
5.179834235667761 31.798422949259724 0.2746384885000422
5.157150639878753 31.713275561085062 0.2717793853079646
5.133014906114797 31.606017520390786 0.2682844098456137
5.104464711677469 31.505433595577323 0.26490125237147266
5.087508796917853 31.429420911885224 0.2624460238416534
5.060401070417937 31.320740949886698 0.2588988137636315
5.03767366639773 31.224919001314348 0.2558132209922332
5.018159808698488 31.138213124444768 0.25306064711680276
4.997321549396556 31.06059709521207 0.25053771508736916
3.8380792698664825 28.141087175877185 0.23048742260678395
4.9918919815565435 31.017504540524534 0.24928244872658412
4.969478361065545 30.929245057979497 0.24647769240200462
4.943178809911988 30.826534451380482 0.24323543296013012
4.922817703743185 30.738892190119298 0.24055084014407424
4.8985706316152395 30.640489912622225 0.23754199516214597
4.875285057584469 30.539856652027357 0.23455390358617595
4.848717888489186 30.44233981344899 0.23160418918909473
4.826606589488509 30.34839976065677 0.2289214931295084
4.800976824753299 30.257586737777476 0.2262652687628159
3.97350377993101 28.16487570784213 0.221025063566656
3.9262732535681995 28.146083653027546 0.23316891673162388
4.796010715073247 30.21675696330048 0.26097663073960664
4.777263105006755 30.14856712191385 0.24727138613258112
4.758342597539646 30.051657726326585 0.24355419319796356
4.7324461847071 29.94836658634838 0.23873480465773136
4.706996319438788 29.851156246448156 0.2357800855544422
4.683953205643186 29.77706021620115 0.21313914178693952
4.055065002496651 28.14044532390524 0.23072679914752495
4.051472966241795 28.112128247035066 0.2368570137409299
4.119802341384503 28.13318216352295 0.23557360611993763
4.157942700528124 28.045474516644493 0.2565539632479003
4.795839208040217 29.450237296285287 0.23023924191559134
4.7889634450903955 29.446246781695226 0.18281205668172423
4.258357917367051 28.089181106507283 0.23242695536824962
4.225889113708919 28.008703261614958 0.2405107826869893
4.20990253200996 27.921963897363426 0.23837741409766894
4.167050824991351 27.760357588023396 0.22413667733618173
4.854469771424493 29.437093627412395 0.22806413903896355
4.8583347065139595 29.371580048572625 0.2207105906906749
4.842910404270239 29.28463418832441 0.21627362307197112
4.8286644570135735 29.200476493155115 0.18745024968727564
4.34721605678349 28.084598377605047 0.23634013006094282
4.174086615583728 27.764136002490297 0.22400458881715257
4.855108277414446 29.240549011290753 0.2338112245512886
4.83173388859298 29.164525648198467 0.22564205171418603
4.812494803470073 29.07120025973862 0.2404700068387596
4.7922238524158765 28.975855597771222 0.2501755620625378
4.764988268406707 28.872703984208673 0.2534921920861734
4.716075924485837 28.76360373628424 0.26590665188357865
4.689291698002576 28.67227997982435 0.23328311790937858
4.673709170143824 28.584769811601838 0.23622019989402754
4.659119763526218 28.519900864863622 0.20882995602930737
4.620665974733282 28.378142161145398 0.20573195359453958
4.542127881992842 28.18108906513279 0.23313816701897602
4.446418502977881 28.056440621434085 0.23621924075130457
4.695473155944504 28.561866996753885 0.27713330372071965
4.626504960301086 28.363346132613458 0.22661908353028276
4.602340577393403 28.289767841131702 0.22834572114435248
4.569884749732534 28.199138695552005 0.23272618085513772
4.529066660064016 28.102656907986287 0.23787530183524425
4.507142033662112 28.043196341767924 0.24167164820306086
-0.6742137017633962 13.466383199516105 0.178354811606149
-0.5771787643522184 13.483665383481872 0.17834358622199495
-0.4380540634525212 13.469175843588589 0.1783853095416938
-0.5044988095277003 13.435492718205158 0.17834215448940188
-0.3846266744941764 13.448614161972507 0.17834312161352892
-0.34289526063427767 13.38373241868024 0.1783974721174681
-3.626361195076536 4.430187783500873 0.18005446568404693
-3.5305892059952133 4.443336413935317 0.18002205673098295
-3.4069075954788723 4.389258136805736 0.18012029666368667
0.16038275928091528 13.1325416317766 0.17821389340193897
0.23808791608026114 13.096573181696893 0.1781411897567853
0.32353481522310057 13.091108503824472 0.1781008861381042
0.40867644616935017 13.073845342598883 0.17805224810267145
-2.1218924151965886 3.739159968530494 0.1801264914961
-3.7176255205972963 -2.591611987393481 0.1813307622810626
-6.159440301729241 -9.286137263384425 0.18290380162057035
-6.026150911407653 -9.324610276168599 0.18299893822813704
-5.887148575926181 -9.341287927477218 0.18285590466067558
-5.720911998587514 -9.829724452189701 0.18286160685870034
-5.590351476060199 -9.88611580572919 0.1829269122490773
4.2590948629773795 35.00699264024726 0.3745892997707447
4.229543070428286 34.882878730880456 0.37037882593467153
4.201540382435903 34.76865492273091 0.366471378947689
4.173561084097532 34.64228479653592 0.36218580620906954
4.1477064530188 34.535797123703816 0.3585484978256208
4.110968145357752 34.36374079056306 0.35270508806146794
4.077268486687518 34.231432909322145 0.34823448777371246
4.055200002995744 34.14249433832419 0.34520826958331724
3.6811047687278853 32.522126336842035 0.2910059482304927
3.6178593807068546 32.415964451728684 0.2878550071287499
3.595880516119265 32.328031012935476 0.28501638724261
3.5711024289607822 32.217249593649505 0.28142126408296064
3.551432997066212 32.14435469868492 0.2791062230258375
3.519172939255702 32.01573333237883 0.3748756463345688
3.4954440490163607 31.921406396091573 0.36871203513784734
3.4731961357082795 31.831548270599296 0.3628669495856921
2.3644294165100352 29.11418497545889 0.31202658949707773
2.3428209522191596 29.09464633027324 0.31446012492907527
3.790004889894608 32.510895162548415 0.28983649116747245
3.78105205060062 32.50040298466383 0.28952679804762954
3.4611110691817446 31.78229282570173 0.35968265077203887
3.44610387766003 31.726257660605725 0.3560884948954565
3.419771357489527 31.63690914427996 0.3504455831048804
3.3950647460320247 31.526218663395966 0.34336502493685034
3.3726994503953103 31.426167345927936 0.3370221379447556
3.3532971415341946 31.328016900580952 0.3308046669341178
3.3312405546429065 31.23677727154817 0.325181580936044
3.3134052035075165 31.142326201967265 0.31933196326248603
3.287689157355462 31.063109353368223 0.3148306244964833
2.5388208220500097 29.1504220791488 0.2950835923155691
2.4497919941130304 29.136679883693468 0.3036256761322543
3.9615399638364313 32.60905151045813 0.292388773980613
3.898862163769642 32.482786630058754 0.2882700895280052
3.841931178311393 32.47903947806808 0.28841956124609713
3.3061172646184076 31.086789306254857 0.3158531929739653
3.285597646487182 31.027768418569625 0.3220926152086936
3.2611433969876886 30.93085592852888 0.34112010177976687
3.239591289826249 30.84099164011525 0.3332615746071758
3.2160797844239277 30.750893334793954 0.3269501588420424
3.1876121010878222 30.649134733326136 0.31826552794814195
3.164944856961851 30.55095624028535 0.3149822449017705
3.1474366385975268 30.441977368231804 0.313809465639393
3.1228235699172475 30.359563094077533 0.33146628566168046
3.052588892816512 30.255693040891234 0.33789141013876933
3.0205732199819915 30.178521045943185 0.33930430227674024
2.9980891044840807 30.079121332142403 0.33384902696332985
2.972574281051508 29.982339964960445 0.3300274338719213
2.943926576957077 29.890102330544902 0.3296080568472548
2.909980038595403 29.792806880105214 0.3286829824193655
2.664804598741121 29.164237317096582 0.28311714450869135
2.548017118264047 29.101659946152818 0.2952919949955783
3.1525937093013354 30.416931823838347 0.3282166253600273
3.1178335292532724 30.315610666448404 0.3369038791047516
3.1065871132385796 30.272853671569873 0.34123620503978763
2.9762593523335523 29.94883672098707 0.30519611747318054
2.949380375478399 29.87017802322171 0.3185604586492129
2.92299384505047 29.781993423366064 0.3288467874742215
2.8968758206340164 29.688039107567977 0.33703980465617733
2.872035789207933 29.591902571907756 0.3369358418023965
2.8448481980266775 29.494546922600076 0.33686931523364877
2.818732834159756 29.399979122299 0.33563837135354674
2.797488925951062 29.284859985692677 0.32453926061684424
2.772260063942491 29.19974094120304 0.325922093595202
2.7439677332206616 29.109429621010545 0.3262263064368373
2.7302393429270224 29.038054395967816 0.2995863918922432
2.7580085531653573 29.082541188877258 0.3253696638574538
2.760205058631043 28.993729472753376 0.3227334706794843
2.7465018511526607 28.891468611298745 0.32232172577660384
2.726438641366564 28.794154204482094 0.33056505953028575
2.6988889997585037 28.69364583980202 0.3203480954268117
2.6721277919071107 28.612974139828456 0.3217733783369642
2.7292320138890407 28.743336144797237 0.37629756861703323
2.667374259172386 28.57338605397244 0.3365421961555152
2.6489343055803896 28.50327410297062 0.33656176978064034
2.620913954132131 28.405897430916234 0.3453904134074191
2.5952944557240905 28.306702029579093 0.3251961153375908
2.58199528941433 28.24435804168553 0.3111425212539398
2.957413471070118 28.51646684594663 0.30730614361503766
2.830770327390548 28.425892767088282 0.3034122770217529
3.0367682840355013 28.533758019465527 0.31717045839157376
2.981492144180435 28.52628008805807 0.30707842986853906
3.101803910572931 28.508350228378834 0.3182812487132339
1.5997894807722375 24.600276855995475 0.35304649240661384
1.518579613026008 24.36654461025085 0.3617006097556093
3.161173562032328 28.464383228087854 0.34796842641688425
3.1767571533479293 28.450759866136945 0.3481174432007064
2.4684067236360674 26.639256398416 0.37709339621403154
2.4449216632210393 26.524951514232313 0.27969368773053616
2.4145791579761124 26.417028660405272 0.2835891976409507
2.3928728776708263 26.32394653873022 0.2868951184442723
2.395682406295315 26.291369529079383 0.28791936610726293
3.266270759972932 28.352567949262436 0.32688195737233405
3.271203212053922 28.28266189944601 0.32270319886344734
3.3162070740427874 28.259746135693703 0.3399032095915728
5.9126379347558515 34.808551211860454 0.376920060592648
5.885240081983844 34.675840994800346 0.37240108645856784
5.035822668468386 32.3781345556899 0.2897671214656327
5.015713805437465 32.27772628792563 0.286383229572498
4.998738183724084 32.202860213051 0.2838245214653413
5.053952699630443 32.18775174244829 0.28413566272815627
3.5513084143754825 28.147170452461253 0.33502038124133365
5.154637039102898 32.16458963094533 0.28494653926564173
3.603956977598705 28.127253583534255 0.33064277097067485
3.6154675703437427 28.070679220661784 0.336898164617139
5.233690456639182 32.13414441507245 0.28533776048157244
5.231219130744831 32.01450692066528 0.28179893234179176
5.20306499187681 31.91236104414576 0.27832969297850685
4.799632239303709 30.84704770522227 0.3763306856851517
4.801274722285898 30.824090714390145 0.3744188280618464
3.7575974047408613 28.15308924628947 0.32616552809037014
3.695615613105294 28.12578301480784 0.3241253683274253
5.173577146495455 31.76422468324993 0.3757127164373095
5.1660521765020455 31.718540758139216 0.3727386741063035
5.141476477525828 31.620753674393264 0.3660815644613135
5.116401392713813 31.516918584792464 0.35906801477872213
5.087361500291614 31.410386814292213 0.35178048820740887
5.06813019677678 31.324752806980015 0.34609706464512335
5.042116632738802 31.223840059566953 0.3393038095535975
5.0261212299298865 31.14289784056404 0.3340743475868453
4.848108892481527 30.793057490040333 0.3745411359443936
3.840722263351503 28.15666802696241 0.3209489091651345
5.019884011610339 31.10296336972877 0.33156878816513563
4.997106084300977 31.025250664919664 0.32629212054835693
4.97392965718441 30.92906520387461 0.31999762406456866
4.950412275935175 30.830798861710285 0.3136292307175324
4.926713361166996 30.72729576287666 0.34046038950872387
4.903351962032633 30.63320412063024 0.3356862917359645
4.880134129906001 30.538279727573425 0.3193205198512156
4.854784561801791 30.43908545557012 0.32326850057004114
4.8301363018100965 30.345901321436877 0.31183180308968433
4.789132297278595 30.22662538773408 0.3762148314070135
3.938631442624472 28.12830968251373 0.32313999231393165
4.825632362946213 30.30536258733557 0.29411325248125614
4.805596852087889 30.244015383725426 0.32096560999789875
4.777082590192632 30.145312408824815 0.3431530818944116
4.7593899121687775 30.049865679897955 0.3373902537380808
4.732312618387982 29.949813985223003 0.32364496270895293
4.705537160534914 29.85060657698518 0.33036765627544334
4.682865603043813 29.76599374514437 0.3325863561592208
4.668471277391905 29.700041871076113 0.3544913091548628
4.088483608148198 28.12262867783588 0.3046263015134026
4.030767204897838 28.100497054225 0.332621901127402
4.113185617677469 28.114528476471676 0.32721694567001675
4.106162623903332 28.081714702995015 0.3521903323925998
4.794456176030893 29.454423531110503 0.3335860730254632
4.26017398051034 28.085519640491103 0.3179462705804906
4.22767906895149 28.006011261080754 0.32800347591781026
4.215750571090032 27.9175802651181 0.33673221768423583
4.137997319325094 27.748678335523927 0.3288229173775817
4.855739077065408 29.436931800697405 0.3360081613260043
4.864232560237554 29.36731626885781 0.33438356387047097
4.844387299372763 29.287851465123268 0.331393088330339
4.826063893111696 29.20113006843663 0.32108434205370917
4.345256565369771 28.07947466911558 0.3224142385056435
4.854683527214978 29.239906749935397 0.3377829564136031
4.832650726139506 29.162338367342326 0.33123168619440285
4.808698431640859 29.066602082385177 0.3327215519104916
4.784365359875848 28.966262529365952 0.3365920257986343
4.759965343727315 28.878928547774702 0.3410550086102599
4.710745947346648 28.771174438563843 0.34922178546058347
4.690240151012553 28.67629504337942 0.3333216439756521
4.676117399930218 28.582670723273935 0.33069023525034147
4.662013283667403 28.512953749932105 0.31837568146756084
4.6183075730842305 28.379205516448256 0.3265744132160435
4.443250016457656 28.04916527067469 0.33146841442130254
4.680322371157844 28.528361946190135 0.2784956380539708
4.668912451468063 28.47465940077605 0.29235323408857494
4.626660664158694 28.353397587134523 0.3380363784980472
4.604423943463018 28.293472280154713 0.3256674635253259
4.573378389514217 28.188050951222866 0.3220816446326013
4.534463878798576 28.099221108740686 0.3304477410352984
4.509796643362668 28.03523806862791 0.32912118027002735
4.791818988008928 37.18938839282551 0.44942696240625457
4.7529777698707 37.09542254020986 0.44616159928271165
4.695405922592405 36.83847686257663 0.4373534767478136
4.6439690268871745 36.62102614156808 0.42985378558667503
4.596680227226212 36.42710168606551 0.4232195355057262
4.550930426733068 36.234984353041554 0.41660079974771336
4.508697270431764 36.05843689486769 0.4105709417565225
4.467336264574738 35.87775549049758 0.40435394294194715
4.428122550128689 35.71681234217494 0.39886532293482013
4.390618984607338 35.563709783908976 0.3936041364596166
4.355886167505323 35.41825258290902 0.3886526516277759
4.322268221772711 35.27267816337429 0.3836561278918335
4.289860185970629 35.134896169541285 0.37897238786066517
3.6412311893801608 32.54622415187832 0.4102054483046105
3.6874191323291226 32.548193802099114 0.4098912126185
3.686698597044507 32.52764707505974 0.40847024632631646
3.6139024256202754 32.416733616737716 0.40148670629262356
3.592724035986048 32.317331535584756 0.3948186357921401
3.5709647832225886 32.238960725251935 0.38964136107957215
3.545153098364292 32.11821692875365 0.3816064116678026
3.516739410048287 32.004349663558465 0.47407993409900717
3.4972765318514014 31.918087552215866 0.465473507818067
3.4768552718011194 31.851471454170518 0.45896420899765444
3.8032747639638154 32.51322727024025 0.4065514396816016
3.768721788980402 32.50922025001113 0.40650685967178674
3.4662372865609288 31.788888457137833 0.4526918656947528
3.447927612961747 31.72353648727456 0.4463294510551937
3.4225012185944244 31.628762997137187 0.4371365060300732
3.4001540544079942 31.52895163479525 0.4274166517185238
3.378269191313304 31.44556554673213 0.4194525242346996
3.3571149395893882 31.334736197892138 0.40873010728165093
3.333483639411262 31.22792251586561 0.43245371221590095
3.3155778769686863 31.150961562739262 0.4273210372807857
3.2950717362537016 31.079447571960674 0.3850532424323703
2.946944768462231 30.21859170021779 0.47032841048197305
2.8207009461772836 29.91909871638829 0.40668877482027005
3.9641432426605805 32.633665059347614 0.41426882388421216
3.8948426376295635 32.4925071224935 0.4046514836524846
