ply
format ascii 1.0
element vertex 850
property float x
property float y
property float z
end_header
35.58263045026069 55.44943134376809 -0.6983591520930296
36.32023349797044 53.43694390072266 -0.7079185614572386
36.36528374057704 53.38579675892551 -0.7032937186153002
36.37694733987605 53.30662185808043 -0.6627963240332921
34.97237338027352 57.25667307095291 -0.6681483894024539
35.67308259729219 55.42766463623703 -0.6959601727501927
35.72109320315207 55.41303582983679 -0.6982163380153305
35.938122181770176 54.89187394028634 -0.6353423877962184
35.94753302301624 54.825810652725025 -0.6380863899676348
35.80089953157061 55.393654495964164 -0.7004990635845109
35.868373227064424 55.37161831137052 -0.6949336627090158
35.975113124492154 55.037791651309334 -0.6300137448892048
35.95421294233556 54.9477226839541 -0.6332948291731368
36.00077560024163 54.79527340024474 -0.6415523161303772
36.060019804475175 54.781151416764914 -0.6387284223706342
35.248826471125845 57.28751930875356 -0.6788793260075179
35.25751817307492 57.259760225232036 -0.6712937368214335
36.024987652216964 55.2404745869289 -0.6343591084724671
36.00748378680651 55.16721757914128 -0.6333774171177494
35.99106183540383 55.099911953563414 -0.630552032602613
36.14164909162123 54.76047539039672 -0.6376290898917654
36.202836440316425 54.74270890251822 -0.6395521361177179
36.329827258497104 54.40256460636806 -0.6448780418308959
35.37531738250639 57.0348691378681 -0.6142035975672832
35.38025209222906 56.9950246973384 -0.5992441109562338
35.852932900282795 55.89890363293752 -0.6985033177896508
36.03102011569432 55.270381721572 -0.6360268008687819
36.23007577219994 54.73755188238065 -0.6383631649640759
35.49986661900262 57.1339498255666 -0.663931291712775
35.964275960869756 55.98771005251618 -0.6738159445673736
35.954978568986924 55.883784793020745 -0.6230194202935064
37.9864881346535 50.35017762444102 -0.7179090185767012
35.55398179091248 57.113778252189725 -0.6570549143524128
35.58357599227754 57.07684047550509 -0.6485533504244576
35.976008815388454 55.97822560641222 -0.6678736470734472
36.05009366853136 55.951987126034034 -0.6687505674420297
36.75610385185894 54.13684396637218 -0.7178385969735276
36.74572761366972 54.09842342685283 -0.7221224556807818
38.152233003292864 50.312843663065564 -0.7195863031889773
35.83511701716788 56.835942811276816 -0.5897553361873805
35.8986286270409 56.730970997283976 -0.6549420358745877
36.09197596017124 55.95762177066343 -0.6844997896243603
36.80918049992979 54.18534758211099 -0.7182785947312833
38.286149619888384 50.382305232510745 -0.7233148054890625
38.27971561964615 50.2879791719729 -0.7301299779131311
35.87761955571706 56.90882237260718 -0.6221136776340392
35.87950832918901 56.85372372616801 -0.6167636057653186
35.91523072483392 56.72176688567688 -0.631473289772931
36.889548641617104 54.21998400304091 -0.7157555167630147
38.39192838761337 50.25808196203361 -0.7201612505753638
37.005659319916056 54.23469626665137 -0.7162737802778988
37.04511344210738 54.197882155453286 -0.7173939166024769
38.451996780373356 50.384520515257535 -0.7055677356736909
38.46702593453003 50.28888249453523 -0.7157389624387364
36.06843396888995 56.9492147714614 -0.6793528441857016
36.18497062772801 56.68926130439091 -0.6504455687211131
36.231231441240894 56.60445789622259 -0.6475631189936447
36.258351729527 56.57854296807889 -0.6403968543969809
37.045504448393324 54.27866529723234 -0.7173138200760839
37.131524243017026 54.18704439541089 -0.7151392737816104
37.15113102233414 54.096691053287486 -0.7172372927141442
37.18207423874475 54.01968268336337 -0.7182469590924094
37.22820234244122 53.89907551786211 -0.7180132560476113
37.24018284847242 53.858845547141996 -0.7195624949627499
36.34125483051672 56.57101737224038 -0.6344138017886879
36.361236155692055 56.52344464164761 -0.614887381363214
37.15680591100208 54.49506061146096 -0.7099655743646759
37.1964405879523 54.14736542976497 -0.7167291220910433
36.40816928018388 56.77069260469154 -0.6627506488994578
36.39738271461577 56.69973153236588 -0.6493941517855123
36.38154719311945 56.626400658460504 -0.6492430921642496
37.190184223624755 54.50679888706449 -0.7108575233804658
37.241201380967375 54.482183441941935 -0.710368425074337
36.427411501822064 56.8054689007441 -0.6528211605760064
37.32481550323745 54.46186243452862 -0.710342913680189
37.38116689223239 54.3942086524617 -0.710142261450133
37.381012676347375 54.34061931311427 -0.7072138660381476
36.560854676856266 56.928332802589146 -0.5944865084250187
36.539789128315924 56.8697638692284 -0.5984255395413635
37.624494844136805 54.12139186662922 -0.7079949993114393
37.635026558942045 54.0834870069169 -0.7107046876183039
37.66542214960405 54.26685321487043 -0.7098374111772755
37.65105074299847 54.16523347751605 -0.6862697770557531
37.653310904357326 54.12534551104144 -0.6705371894283554
37.71036498070062 53.98142381687506 -0.7030192824015025
37.82395566405321 53.88395019837728 -0.7068787076254788
37.830789330043636 53.867618008740294 -0.709651003479815
37.84916775924748 53.85104890844757 -0.7104539055099673
37.94613097595492 53.739617773355846 -0.70393853097752
37.98406595826553 53.65633950774609 -0.6996579367947751
38.037186852155926 53.57393994270208 -0.7087071739520179
38.03648184101628 53.643104343048506 -0.6622939124166309
38.04932453438276 53.592130552833176 -0.6874829706809368
37.41672967454217 56.085400319622316 -0.6586942778397296
37.43770897095438 56.12399640486085 -0.6631000461661093
37.47287560201041 56.02494754610723 -0.6509729981005005
37.76754300008827 55.46559221181377 -0.6826697427174897
38.17332244011369 54.30419572719532 -0.6341920583800394
37.57845718546879 56.03819880052206 -0.6629695104730611
37.603513592782626 55.95510480533766 -0.640178673401701
37.597913813177875 55.923052942804965 -0.6627135725123612
37.77854105908085 55.4606218656386 -0.6859269121063961
37.81053140036388 55.450058115083664 -0.6595265644012712
38.22832957533364 54.459667046802124 -0.643731752497165
38.20761630489387 54.39326791174227 -0.6423193861590151
38.208014700132686 54.33167905068801 -0.6467626782254634
37.59464516467082 56.40357176480602 -0.6277184890223756
37.764413261074594 56.0394361655397 -0.668788245468856
37.93832198193674 55.443764218760776 -0.6559435152351272
38.291619298380226 54.6122983963029 -0.6519671489710509
38.26593022409333 54.5198443776571 -0.6490621642204693
37.61802613201742 56.45028882006888 -0.6411037814562138
37.99735259419001 55.43801277504222 -0.6614476935037655
38.05554725495053 55.42179854297504 -0.6702159963635477
38.33739027486927 54.7502630276495 -0.6560672120048782
38.32207415505791 54.65472457802199 -0.6596803945489399
38.13215520777248 55.4068975257882 -0.6590786247809399
38.20329267739624 55.394012426139426 -0.6651638615545529
38.34502543434952 55.057835893571394 -0.6201487167533206
38.3628627434219 54.95471577366306 -0.6409987334724054
38.36006205487599 54.876561152535196 -0.6481285101973268
38.353391669258144 54.7932765290729 -0.6569218748739389
38.29512580356037 55.37117305108632 -0.6797581206936721
38.394778694760205 55.09449997561417 -0.6405697425389539
38.39234408358969 55.000623110140154 -0.6459339270626784
38.34949859888454 55.35944664405074 -0.6800735127952741
38.38912082467317 55.326990796346195 -0.6338813996311538
38.453190678907504 55.23042066057119 -0.6500850103218887
38.45335029771503 55.15468540496238 -0.6568917095263431
35.689053210096404 50.855351202796776 -0.6650478400705291
36.583898081669005 50.6848805317154 -0.6289811179609368
36.6769400112681 50.841279816708365 -0.6752601374637419
36.09321048482185 52.7969107318891 -0.5838502032350757
36.08714093625691 52.741431357059824 -0.5696978562090267
36.062624161408635 52.6438919212737 -0.5641492114997961
36.72776557888434 50.94503773885869 -0.6676490701425565
35.93080850688367 53.43262307390004 -0.5961893739482307
36.132552693048545 52.963085227480434 -0.5627639398408507
36.124795175269895 52.84260137358873 -0.5685786863045781
36.104043829621844 52.791609683925024 -0.5770864387724398
35.977701983212874 53.62983262450354 -0.6334171499377569
36.18133216716258 53.07272963009158 -0.5717988532703159
36.15446348503733 52.97592072800415 -0.5645984643599457
36.23692844128728 53.097601919168156 -0.5908416868503149
36.250609930207474 53.06313448307186 -0.6205876573262337
34.898088430736024 57.1185935911208 -0.5916141284913602
36.33933822541144 53.24659800607494 -0.6208694716804464
36.29711584806215 53.169743885878866 -0.6121204069833059
34.93000032545342 57.28999035260627 -0.5555860420587656
34.95581457380585 57.22715833142379 -0.5713133914577305
34.95310194740085 57.06540206042374 -0.5858667877987214
36.36148109141324 53.28610382753268 -0.6279388092062375
37.522543610883375 50.41462757722104 -0.6169780061935577
35.01029290911018 57.235950785358156 -0.5248385790205677
35.055336279112154 57.19644614110289 -0.51793101484509
35.968452654255216 55.027562750580394 -0.6069206322835824
35.350378813928145 56.98365933088535 -0.5826561066039138
36.33502933769712 54.414461693264236 -0.5965213223435688
36.25074649681152 54.72972959312412 -0.5607345960172364
36.32584127104552 54.52960806268485 -0.5515690061412657
36.340142959889675 54.42472006850246 -0.5259715906312609
35.93400911435596 55.86573610620496 -0.5592220144059461
36.36771907071905 54.71279843247557 -0.5206872377366815
35.995640713012406 55.951206638394446 -0.5289207973760276
35.85830343610294 56.802040896543254 -0.5717807945867895
35.88115474034727 56.765639438480015 -0.559738315847667
35.865508917803126 56.8441728443566 -0.5842225559464209
36.22205310620228 56.60311162810295 -0.5134285150791489
36.36031366263951 56.57582169019584 -0.5304216887322152
36.438843268088135 56.795412131496825 -0.5230171965258038
36.441445954468634 56.76423268100449 -0.5510569012379696
36.55532976726236 56.92094489241969 -0.5250824065672379
36.5493288513097 56.878324321165 -0.5309027672940951
36.63010268230684 56.893445204879825 -0.5510379069499223
37.67751400743368 54.14418408853799 -0.566788167114438
37.68345661276843 54.13720090033686 -0.5569410152768639
36.71077298211582 56.88222271441286 -0.5637716361245056
36.76171191066024 56.86774127300192 -0.5631457987241166
37.96927078232013 53.73645089664283 -0.6092377963198304
36.84571434568021 56.85032058978354 -0.5631229840221987
36.914786616675 56.801088224573505 -0.5527561037634098
37.01457967466781 56.78776848053772 -0.5552681579533515
37.05178215960234 56.76993545884487 -0.5509066987278505
37.10424736564573 56.766536193060844 -0.5533227532104267
37.420200783715195 56.098114823847745 -0.5443822135272939
38.088050346220164 54.29455183925646 -0.5317212239818834
38.09608109968731 54.29188003168032 -0.5650149221483496
37.42473191502363 56.10668910434117 -0.544036804555236
38.10857823070708 54.29272391826012 -0.5534599345204091
37.621453491566754 55.980567481742526 -0.5330890646987191
37.78033636123322 55.45613169897611 -0.5879732218631606
37.59472294036404 56.41074399291785 -0.5373265706248208
37.63400056744231 56.48891531126568 -0.5066481546303728
37.6217660973756 56.46105443612262 -0.5251789913535124
38.425638925644954 55.3108846153799 -0.5369619848815061
36.05700493052189 52.604246464085875 -0.4657967330693222
36.010976065799355 52.51125633627225 -0.45931748329526684
36.07654640819483 52.66113658980135 -0.5034139877964487
36.15283022936389 52.843110198595724 -0.5413200593150727
36.126417488899065 52.779698620951365 -0.5434943377999976
36.188084368761764 52.93070223272504 -0.5448658711035907
37.20135217926298 50.555331102647145 -0.5027996852148703
37.21027334014919 50.45800697219158 -0.5490436563845378
35.13467244994801 57.16111588911467 -0.4797768105557687
35.19594718764912 57.102636340538325 -0.46559858703294754
35.22943241017947 57.04693043980943 -0.46836633618162293
35.25376937393505 57.23224540222439 -0.4151676587382223
35.252850016542304 57.113681409313 -0.4279858839419015
35.285969523399224 57.02068009615391 -0.4500553648113677
36.337826591663095 54.41812223868476 -0.479584164274843
35.308638072848424 57.26268116242331 -0.4254512201499527
36.24848372314197 54.72921662363622 -0.474254466333381
36.326634689577645 54.51715267043437 -0.47747576090578453
36.3397414750259 54.4807383740121 -0.4654645925062758
35.936279421492955 55.83975017765247 -0.47642532354620604
36.36841411938416 54.712829389711956 -0.4746747695642782
36.368012924450476 54.70844905519453 -0.4589560134230639
36.175590680767584 55.710105781729645 -0.44402215722542804
36.17705287886717 55.71093082205873 -0.4416463825650316
36.232877934153294 56.58877838032066 -0.46813524483885954
36.238788810063255 56.57080188249595 -0.4285204220210359
36.361503391046476 56.57165754008533 -0.43537572437102007
36.43996238121766 56.80572286960261 -0.4350870692039804
36.55417289332458 56.85645864656578 -0.4321673873771759
36.528586853584606 56.79675819554348 -0.44320283862760285
36.59321747416575 56.88172021060851 -0.41769934118797103
37.66622191601117 54.15077050433203 -0.45915636884695005
38.084706565185115 54.29460201018991 -0.44869610284260325
38.09820575506829 54.29074470823679 -0.47663412934496524
38.09969777701595 54.29328669825229 -0.43411559993461174
38.112215198835884 54.28829482271414 -0.46297609532640865
37.62505706443244 55.99802101571352 -0.4570286851173123
37.57655890094036 56.38442920270356 -0.4160378628691268
37.66951820082044 56.06166836065841 -0.4161567440302272
37.62173658241271 56.46897965399133 -0.4244406289114409
37.61097442568914 56.45363336286465 -0.3962463394855108
38.356013328006334 55.302826635193945 -0.3945061757872219
38.38878291598824 55.30872857550824 -0.43291004859479576
35.98974658092348 52.473572161621064 -0.44228307629841074
36.00792982271969 52.525127108175894 -0.44969066596647234
37.187082576525825 50.592962232858525 -0.419538032553537
34.812608064344005 57.0832999894641 -0.33595206175360737
34.961701952438176 56.997548395339614 -0.31077314087646724
35.23492070305951 57.3243032036858 -0.2931717428360112
35.32024954148859 57.030869021710366 -0.3383022217460688
36.33891869836432 54.41822946171079 -0.40508675914795234
35.25352486545581 57.316095883011336 -0.2916804195732151
36.25855145677788 54.731037044811586 -0.36920667575783483
36.32465334879762 54.53026671165163 -0.36277554346411384
36.34182668648494 54.46809720105786 -0.37240872302905886
35.962147419231655 55.83637320817236 -0.3825026802328657
36.36180659136907 54.71078458680302 -0.3669311737746852
35.91262020759131 57.1859761316431 -0.3108192266371248
36.242227388743615 56.55881266465034 -0.3779435767501478
36.36324586433826 56.57434462782913 -0.33531371784873654
36.436948768936446 56.818450609362046 -0.3438136342080187
36.53216613594626 56.85749698702079 -0.32947177004193673
36.58873674029552 56.90131089508296 -0.312700184371254
37.6822972326885 54.148382433729225 -0.3657242832921808
37.98020317354949 53.74507274097453 -0.3956848480767612
37.99264492410746 53.740051595380926 -0.39103536245369935
38.02932568894902 53.70888272202627 -0.38396886595014706
38.0809133248712 54.294676330559675 -0.34099963951879064
38.0939559501387 54.290170721459475 -0.394242320831334
38.09797124514631 54.29505791377748 -0.32343917309255066
38.11273530509357 54.287989640530675 -0.3559611615970434
37.5815670269164 56.39214380410505 -0.3413523806501987
37.6987641035429 56.109359429579875 -0.32836715405473826
37.62919149046875 56.496210905373765 -0.30168730847196296
38.39518415402865 55.3065539135327 -0.33987253709533083
37.18928940561821 50.59786461896895 -0.3462571449749817
37.20757239851028 50.51588978131659 -0.3351275367827458
34.82084691918624 57.18723884635127 -0.241905555500447
34.880499178485934 57.11755804468178 -0.24614988598618992
34.96395096986235 57.011169476518994 -0.23739559496688006
35.23211726626721 57.32425080228368 -0.21545095886467813
35.301705588803564 57.16367987636534 -0.2534961773247559
35.27490621540525 57.34559001260643 -0.21411816936989553
35.30663189788392 57.22425664208267 -0.2374219626702342
35.34878606799326 57.16516782425199 -0.22036803361738733
35.366548432062565 57.07559556697073 -0.23760185133727424
35.4260726590723 57.00708260107211 -0.2354738144725967
36.26142686161984 54.73084458884107 -0.27346975592600037
36.3249108062179 54.52492544113175 -0.27007276827549487
36.34495664870375 54.48244458600475 -0.29112078062482827
35.3477628433542 57.343768075613966 -0.20872102308850432
35.40656455429383 57.30495193208402 -0.20278394458795732
35.47240632119993 57.23639285037827 -0.20020843601345498
35.95643946179479 55.838678528992226 -0.2891261340639721
35.996762962515234 55.823118255740475 -0.2831927020383552
36.36028685841198 54.70922820177903 -0.26697279698263426
36.35964963954142 54.70482570523817 -0.31440645364097136
35.49166494796006 57.233002406641866 -0.19014231871348755
35.88259476839544 57.21045542140876 -0.26235226333377293
35.909096359639136 57.147686387300865 -0.21749409700054836
36.36132161324894 56.57406054934162 -0.23724045919685677
36.43725833180765 56.80024790103268 -0.2291793091298897
36.5436003338065 56.878745710772044 -0.2312175376569235
36.58923534017091 56.90325659450902 -0.22896754691899673
37.67428154611953 54.14837274523518 -0.26020972530138387
37.6699710494539 54.1282815562814 -0.21624745873133788
37.95376927357914 53.779444356279804 -0.22475689372534602
37.999791511377424 53.731695365366626 -0.3006673486889433
38.07605289254326 54.29658620336149 -0.23845552598839842
38.11209829248538 54.28516318405074 -0.28979164390837175
37.70017580399813 56.12898193152942 -0.2429108579588402
37.62794262692002 56.50797542215943 -0.26272558232437676
37.74070615868756 56.209121007144915 -0.20676128857847376
37.722292965579186 56.16107224516288 -0.21924304419087048
37.90393440349668 56.47902197669444 -0.18726291667126138
37.88426025219494 56.42937541548538 -0.2057032399274582
37.92003544250401 56.48523775702855 -0.1958979695988381
38.38807351549354 55.306417611247625 -0.23324401477023876
35.4214375829103 52.2281822829413 -0.234386342040313
35.47975390540386 52.29014098925271 -0.23432686062183383
35.52604909028923 52.33689546088203 -0.22306409719706755
35.75574601594965 52.50059004798936 -0.16915377672463006
35.88695429759679 52.77287299203226 -0.2153303205099063
35.833207604311866 52.67328770844574 -0.21271661868646757
35.90265333396463 52.82277854254508 -0.21873637318325376
35.88632749183889 53.07068503563406 -0.2115493439819603
35.9823405845855 53.00967124844675 -0.2084255182197488
34.91063570602716 57.032474917856405 -0.1478050323238225
34.949243852267095 57.013705235260524 -0.15119677546644122
36.26151675551643 54.72961455933766 -0.1689958812822438
36.32376229904617 54.52756905161596 -0.16704886591438067
36.36030211322025 54.7090175632108 -0.1702170269736859
35.48066591593924 57.30585372053414 -0.13127692553588213
35.516973937172715 57.249470161353536 -0.11635871673931478
35.894374870710806 57.161184510022956 -0.16157694952650598
36.227082382166415 56.59862819701685 -0.1545851389025506
36.359907499280816 56.57974402128116 -0.13764547870581595
36.43439875617072 56.808364160529486 -0.16774559372620423
36.53922281975133 56.872939072587165 -0.13002271693937484
36.590119492893336 56.90618814066527 -0.12654197770719935
37.687262826187045 54.14305621050873 -0.16389594796186013
37.67088966124965 54.12621634296379 -0.1276316075146796
37.967650169364255 53.76219998745836 -0.19730278953251934
37.981771746660606 53.750397173130025 -0.159756037229019
38.07972787901106 54.29539437614617 -0.167040415275399
38.097972938123824 54.293044099884064 -0.14979277555050952
38.115472458294924 54.28847403092355 -0.1483385605686439
37.89799040167688 56.47411455916697 -0.10909437299062277
38.34976868009828 55.30634280058619 -0.16000949417262103
37.915680874635456 56.498192477325745 -0.131973657094133
38.37961913073801 55.30675130578545 -0.13161519913421402
35.27595344232591 52.05743956858431 -0.10875480433519809
35.68384316177603 51.81293940090504 -0.08436716981325719
35.65326241864743 52.247053940755706 -0.07734112239131227
35.73336618221681 52.02459829554549 -0.08098191200574052
35.716195192874935 51.946478967224095 -0.08486815714508196
35.727990050556066 51.8927437060855 -0.1433396618517789
35.682456155693 52.34136034656543 -0.13362146285242835
35.67954872360988 52.306251705508735 -0.09293400817646827
35.71586853934102 52.415664026511905 -0.15215565188320873
34.9757863480629 56.967451374934186 -0.03713159834740355
36.25933119404303 54.72699989734802 -0.0738146147154361
36.32299860760379 54.5255060211672 -0.10325719671898437
36.36263251547734 54.70932668226784 -0.06659560266245784
35.57747870346702 57.17250463763361 -0.0804423527911381
35.84577244792046 56.83681261758447 -0.05799069621940814
36.14204094803382 55.90655321231471 -0.052310171205380215
36.15999444456649 55.89151794224762 -0.03584987062961459
35.882446396530746 56.810167053967085 -0.04419663464726827
36.35960992709886 56.571154150618675 -0.03948236306544889
36.55530972458792 56.9256662164015 -0.020450764995541715
36.532681347852744 56.87579453805876 -0.033214678607256465
36.585894380503035 56.927534360960344 0.003061292477690672
36.58906770478536 56.906694847143584 -0.024299666466878506
37.687316796349855 54.14209890896153 -0.06083948659987454
37.70557114675537 54.13747232901299 -0.06898812963753848
37.964135264661586 53.77191212018808 -0.09537996895064858
37.988413276894335 53.75053644804664 -0.05501647235213206
38.083255158459195 54.29185645837146 -0.07031382075462458
38.094970328943816 54.28926907933027 -0.07735980869284084
38.1180467279372 54.283491682664526 -0.053782690366615864
37.89809102656592 56.47802658740083 -0.03547853475342275
38.350052446427895 55.30472664153155 -0.014666910358499666
37.91022019748382 56.4931959589429 -0.013831322067683727
38.37162977828106 55.308133786342104 -0.032648259250959766
35.20737324904136 51.889753951591736 -0.07147960210417212
35.56932128022896 51.83898518012968 0.012055563968809538
35.54407876358245 52.05002551109802 -0.009757117382805283
35.64163382847583 51.930097301049514 -0.03369305169615652
35.65564971194856 52.007176406213425 -0.024237251365473875
37.271780530772325 50.402327419024985 -0.023115183451650964
37.27254083520613 50.33426174661604 -0.049061250692777204
34.961887725785274 56.97947573106677 0.03587501214250256
37.47449683272054 50.27822900107232 -0.025775385064422743
37.51575994168621 50.16992617854384 -0.025305395145845594
36.26206869900596 54.72766946017974 0.019066892161667223
36.364526199162974 54.70980607155217 0.009745331041909014
36.181532796796674 55.874937248552925 0.00012015930264898389
35.81585328033634 57.063529545237195 0.06649366046500714
35.862237135620504 57.04096928299613 0.06380932995853879
35.899595885289145 57.051745202340825 0.06192474550838696
36.236787756616465 56.577882078995735 0.06980273066481031
36.237342383606176 56.57637375420183 0.06958908428511763
36.359145391602965 56.57535849284824 0.06291381517668408
36.54036475274169 56.914978537392365 0.07962165991615165
36.5385001380093 56.89664829959213 0.07229239148487489
36.58422928624731 56.927240036505935 0.05720395417295772
36.5904038054078 56.90722151585681 0.06476046466920975
37.693555517419355 54.14257105503905 0.030314887926508702
37.67780810263055 54.121136937430144 0.050276258668123366
37.71847143341088 54.14769417709232 0.07181506988045887
38.0010615379472 53.74228472103618 0.015320544279072909
38.047675989315685 53.69229974433145 0.05494072631143802
38.087298894807354 54.28937544426238 0.04783167989503061
38.09475970744126 54.28886754221501 0.05580924318255458
38.1148964765053 54.2809626841398 0.03607104386338979
37.88855409154101 56.46804100284081 0.0841101301467838
37.9155539516954 56.49910014735989 0.06385676414446785
38.382811738961074 55.30694536404136 0.05828574104230412
35.52378941301131 51.729114744247454 0.04017736518786312
35.51265866037531 51.69719595411297 0.05376968577335338
35.53134066279968 51.98878098269438 0.06053444526154407
35.556857446575 51.79331248252458 0.07350351614453608
35.57759217836807 52.05838562662721 0.060857571879588554
35.58672271777874 52.256021437219026 0.12419869793783116
36.119581137957084 53.12174664965643 0.14430466436560718
36.118445637423925 53.08777001175842 0.1520045789055735
36.39420896363003 53.39025802597622 0.15194409264695163
35.07097061504583 57.11807298367264 0.1763839241459383
35.15794734584795 57.065534803830026 0.18487344177562737
35.18710611155099 57.031940429196744 0.1694437765157154
35.35955743880481 56.973693020844976 0.2087833658339211
35.83108157453196 57.09040191960967 0.1911370422164977
35.87860326182376 57.139211281185986 0.18143425719542006
36.35904627864313 56.567502614069475 0.1577720611095706
36.55198484604555 56.9202295108699 0.13074194230407116
36.5352152757598 56.86663631105328 0.17115706447910684
36.60305187120777 56.88517890836327 0.18120471863296672
37.67970054384147 54.13232936152036 0.14908583196989666
37.671615796794995 54.08858015945282 0.11643314921130275
37.71843718081492 54.14638725285182 0.13057830523251474
37.72763511478578 54.14161055277881 0.13750723346227733
38.03479657754128 53.71330184212966 0.12610170076963662
38.08254259796466 54.293276027247636 0.1284634929593904
38.09700803292529 54.29039385368784 0.13335062524020358
38.12865565666027 54.28218333468781 0.1634184903574935
37.88737880568224 56.46974612016112 0.18109143787502652
38.37931103594716 55.30693157903266 0.17049550176879924
35.32350485915525 51.784819160045785 0.1499030527379938
35.59581206698668 51.88351642161821 0.13277891363702465
35.86591214712464 52.64492215844847 0.167601345643069
36.95606915342001 50.66553670210266 0.18159534815476336
36.97536251111457 50.63213709653057 0.20194287329240918
36.107406346076765 53.08146154559144 0.1546076782954085
36.97990040403961 50.765344936869745 0.21357955378111126
37.078276917489326 50.638866062767896 0.15859446259163645
37.149202932541655 50.30265166159913 0.20939000170335792
37.09307435733878 50.73717123513447 0.2188759879637746
37.10833551417862 50.6610933676398 0.20685042809153564
34.87940462016922 57.044156154851194 0.2059042552568514
34.92028199681113 57.026686569844195 0.25987320661192953
34.966749336762675 56.97561967162648 0.25673192204172646
37.425422121902066 50.440635461752294 0.21288235535405586
37.612293561443245 50.33327974726595 0.21068579426239553
37.60853646144155 50.23898641921329 0.22095593587775125
35.19197441082415 57.33557590927934 0.3070904982040998
35.25440944792904 57.186183384437605 0.2678160132095612
35.26376722252678 57.12219695596401 0.26034902890880446
35.33011263977906 57.041944858763095 0.23163854309739884
35.37153846535291 56.947772669112865 0.2981828272876614
35.271515819947986 57.28310651925544 0.2811058737125676
35.30763394026732 57.211151582840536 0.2502777259779829
35.71159101984491 57.24097917653672 0.25891625887675235
35.720403568749 57.223148499078626 0.27647883903287185
36.52508455958365 56.85344700096691 0.23454962891438402
36.62749392838792 56.8844153553363 0.23077843737580428
37.672070649333115 54.13476695258948 0.22398761063048983
37.67309109505886 54.10184780099874 0.20278594624051383
36.70765690223284 56.88624838322821 0.23012580293334595
36.765337818917274 56.8579591330641 0.22684454432610934
38.11938185725971 54.28221853337228 0.19804028946960067
37.89470881737389 56.482381253249486 0.26402143776201514
37.904077895256385 56.49179589926401 0.28002468379927803
38.37908637475973 55.30961312347859 0.24295239121824985
35.83522539001158 52.793941896504464 0.335085166368095
37.00881696135814 50.57285868918808 0.2766614796131316
37.134587324327754 50.25200625513951 0.22462742983007167
37.0177108997635 50.7166993769305 0.2723320754894067
37.05242519378176 50.6629665200352 0.26938833672383605
37.13279611099671 50.43335941546572 0.23458488970065844
37.15373535197122 50.26701867410149 0.23525351143889078
37.12831254671962 50.8609185707352 0.2562881320074389
37.11402332952566 50.75390515666929 0.2812913453561075
37.11082034972248 50.66939544971374 0.27873356924382364
37.14743687641649 50.55792554448048 0.2361171168609298
37.16463575813033 50.83791337208547 0.29153659059116366
37.18759973386245 50.80033916044348 0.2832764512863838
37.24917219761059 50.72538193749156 0.28949208938704574
37.29881050357648 50.6167410832189 0.25500175432026406
37.34155882487891 50.41714075617055 0.264972870041057
37.39681686228764 50.33816878046511 0.253826981501605
37.42691409554235 50.27105841473863 0.2440300525066485
34.98986244929283 56.97075341715999 0.3637300688862048
34.9986475404826 56.95389775090259 0.3668256310284342
37.269150201851026 50.82339434872472 0.26879947288870504
37.403500807141036 50.452475024333644 0.24711684013329827
37.47049319984378 50.336582505986144 0.22767043960001843
37.53459703382016 50.249258064559534 0.23704137868690328
37.528905579615085 50.20148463136897 0.24312139418591716
37.59105066640187 50.08679537863659 0.252416355055842
37.63490296058282 50.179843373626916 0.2366810009902378
37.702918972469206 50.1350817055964 0.24947752745037444
37.7138647843106 50.0412910104859 0.25442787570885184
37.77119431330741 49.9865794417008 0.27438887080296864
35.13221321086209 57.2716763435554 0.3987170770548588
35.09295272939051 57.18564187983351 0.3694748845330849
37.693585149476164 50.25543802981397 0.24638031516258907
35.15420952220017 57.34696290447084 0.32445929975877225
35.18502847506722 57.32320708748288 0.3545862628139083
35.182160550930845 57.196633043703876 0.34981081154012483
35.354787589655274 56.94680606122744 0.31678554888661115
35.25796418602357 57.36912530045965 0.3840962329575594
35.38660981638347 56.933564829440634 0.32242529768570255
35.37925340563158 57.3415603884805 0.3878208421637315
35.429708591902234 57.31491424701762 0.38917949025548587
35.46552843063329 57.2966433068471 0.3881732377958724
35.6741491568404 57.22773822112352 0.36660605130488383
35.688896611129756 57.18281293189039 0.3525034227212179
35.71542050114513 57.20904537740179 0.32277826263292453
37.859593415458804 53.85722243307713 0.3614379157458664
38.0276185588726 53.69273582782347 0.3324903645150472
35.718969157684946 50.631467418207095 0.31971405607225944
35.68354742543429 50.549485115488686 0.36712526497578857
35.624515540244886 52.25514169610911 0.41170671949970594
35.67262852535623 52.336210914513295 0.4273951074689287
35.745777913832825 52.46635129540852 0.42410761744070957
35.71144452602001 52.39546452124455 0.42695222467440563
35.82267817685368 52.34705958055755 0.43310778451275445
35.780585957863536 52.68056107877067 0.36867394657984015
35.86132789497489 52.42245711804812 0.4250350876833211
35.82149559080595 52.76054346552623 0.35632786187229964
35.88210450323445 52.54264856076934 0.43635683691889693
37.00445503455534 50.61200485194825 0.38206393891952206
36.99050193834524 50.771451957341945 0.37413619922373575
36.99723385323769 50.72711061715913 0.35624512008893827
37.02705103543568 50.62737846908479 0.34598408152508686
37.12613179124392 50.7443360033178 0.364511651168474
37.15067218342546 50.656005117542854 0.3666028918181533
37.17039746470809 50.60451903155927 0.4017633354434106
37.17374632223992 50.778377158448514 0.3443471266703435
35.043699317272726 57.451090775114075 0.42970101035837527
35.085830589651074 57.376736614649275 0.42473347614030066
35.1058288254392 57.314630985225044 0.4186366991781896
35.09358047106989 57.43495421897378 0.4557343398918059
35.15885257430541 57.38978679725853 0.4374967022842755
35.151392463232284 57.30218769054447 0.41301058552795966
35.22240322912317 57.37723450201574 0.44320149200729864
35.29404934321563 57.334539688151196 0.4357547704221185
35.348266591946135 57.31347009974214 0.4286522137110532
35.40698717324954 57.30116981289293 0.4270608391863836
38.043491540090045 53.673104613940204 0.4091861346943996
35.653021209126145 50.43533325630393 0.4633897813984732
35.66910145860137 50.52544667757433 0.43284634609585915
35.61390189581805 52.2110867092335 0.4588330531908682
35.69023142769791 52.36125022913642 0.44717951108296305
35.66390680963302 52.27208859528319 0.46111208754698474
35.76194942673621 52.18830601850588 0.45391380887478083
35.76262082768692 52.39867407673404 0.4646989445404297
35.79349408644772 52.267175792368974 0.47603271326411045
35.77470473094157 52.2295600446902 0.5128606549316261
35.857117353673104 52.51608496793948 0.46602467617092813
35.83629741308147 52.32498944792834 0.44134627854998454
35.907138415506616 52.63428294094249 0.4779970289704605
35.89198033163096 52.54033913243505 0.46175869042495676
36.75861382224326 50.41170710626122 0.4929021023556578
36.78952478264708 50.62280672271776 0.4746064003817825
36.780172992796835 50.526262663910074 0.48870832706251754
36.819969859962214 50.47455563300584 0.5157758363075494
36.807384636804386 50.66123634860749 0.46562660190770966
36.99896872336221 50.614945193122374 0.4479239687733201
36.992775747272525 50.70284339108031 0.49378841240807303
36.692527694988506 50.23297913768613 0.5140584756268638
36.70658815783264 50.179753780890636 0.5170231625523991
36.824864144489574 50.44359588052399 0.553733249604622
36.8211910923957 50.31282731961028 0.5521812163207961
36.865752914669336 50.62168355746058 0.528479067081345
36.858649427478824 50.52724301729666 0.5675763909094743
36.86444923184295 50.43560911616889 0.5848284505521986
37.002571035561935 50.59201897503584 0.5709227401261846
36.97973115940591 50.79399519712762 0.5842097144730121
36.987129902762746 50.708223423649045 0.6148984722462207
37.005997405771424 50.64459424866928 0.5825143943344708
36.75686582803046 50.37917070587185 0.6785549637058751
36.10843060563319 52.27650917764588 0.7133597271630566
36.10850060269478 52.21178557971333 0.7097235895739828
36.76290256666857 50.573082295559814 0.7019548834818357
36.78759493871179 50.521810170733886 0.652645885248329
36.78717163237279 50.43631364607236 0.6594706484032467
36.83467694954866 50.381605010569125 0.6298069727682228
36.998387866924155 50.62408110736091 0.6359959217583354
37.026458113041556 50.625490662163784 0.669859108996741
37.13658149442705 50.635458799688685 0.7082196333002304
37.12261436014636 50.597459729134044 0.7193435370639862
37.27612789975589 50.6577958600937 0.6628289923711965
37.294851892040725 50.61280904898183 0.6740509587571203
37.29792114657623 50.53316753224308 0.6892910389248704
37.35383164198383 50.31524526126003 0.705404011403133
36.773469188750134 50.30313860562778 0.798823131671077
36.08114354263249 52.21613538655313 0.7489720165448445
36.772086551944184 50.59498458014475 0.7374683338322784
36.785773310345824 50.48788232381894 0.77488910843246
36.82202478803119 50.433836437525585 0.8121926994970312
36.82724606669308 50.61087819309474 0.76207170945358
37.034147014340355 50.500812835870924 0.7260510668795757
37.05983531229008 50.40721880307223 0.7450358516133849
37.06562375543421 50.302807269596094 0.792995593312009
37.09139117503387 50.22903106227044 0.8016007342218885
37.12346348764055 50.49824287511777 0.7528845815399948
37.1363343245929 50.41794897771625 0.7756065785847753
37.14911289784203 50.36914297899136 0.7872991247121227
37.207091167152846 50.46918317985014 0.7998997488640264
37.281249165526134 50.376644703214744 0.794951852495282
37.26936651789992 50.27913222174374 0.8050091715188099
37.3589999232319 50.16765036682463 0.7482828940950266
37.41130319362044 50.007089392412624 0.7739584645108873
37.44081295506229 49.94017934774829 0.8050125376313811
37.26210726029845 50.523762037183054 0.7316329574338701
37.42304376458433 50.106958920870866 0.752279105516281
37.45079547642259 49.99790686554425 0.7753140941703305
37.50752761701062 49.97619162857053 0.7962108099357036
37.67989649774924 50.089603168418066 0.7588873721043979
37.686383227016854 50.005115026314506 0.7846873445076035
37.72450040921191 49.91838198954733 0.8154856528200176
37.80214522359779 49.83821075573878 0.7804990035603964
37.769052015204686 50.03521227312446 0.7339012327605017
37.78123828704742 49.97212337122237 0.7669237920601756
39.020100608306095 49.86523601618281 0.758261030213652
39.05599184211305 49.78192337722063 0.7728167699990247
36.77830930431759 50.316594741881026 0.8170810043343552
36.801084209193874 50.198434242526304 0.8753938847403284
36.82831716474804 50.31175048471792 0.8686099226633014
36.86479137211126 50.54403324715179 0.9019773581770513
37.17435866082499 50.339961698919474 0.8434932720309004
37.262135407283 50.344364827461554 0.8830481199560397
37.272270283217296 50.26545188099311 0.8694755473019679
37.28107799276217 50.18053296420068 0.8668052982688678
37.480046925412815 49.81953921400977 0.8362436321547745
37.572453188612684 49.8830524660788 0.830637542917969
37.583337734169035 49.79088072117631 0.848153270158771
37.46497010616458 50.248242888296595 0.9036423458026549
37.645143443910364 49.8686358729516 0.8349638681207662
37.65728794442429 49.773453888502324 0.8492553808363769
36.87144372820888 50.52462021262234 0.944952230697555
37.28600617051453 50.12025132858967 1.0089240919451246
37.274446947345545 50.232239821072824 0.9486050935663527
37.277947184621624 50.22202558452475 0.9712159841328566
37.412251182569776 50.050919474057125 0.9993889829709711
37.437354747092535 50.20636625994931 0.9209554115946178
37.44444777113693 50.11489518684349 0.9513065078150705
37.49389204704148 50.03497377803248 0.9394320847132932
37.542300124795794 50.13828613000022 0.9254815854393371
37.59538827605576 50.08418460089524 0.9587419587393323
37.63569259418668 49.943949211788926 0.9894183475242614
37.62949757173152 49.886723212856054 0.9812077064696486
37.61076242469204 50.149851719215896 0.9611379443836855
37.64473980020751 50.03730726136582 1.0104322089591418
37.687447544142785 49.94505992693234 0.9954955927468346
36.854226966822026 50.1868542011086 1.086947462231455
37.27623069913461 50.14248002084765 1.0620939342409874
37.28958006657165 50.109821827204904 1.0320116032982873
37.40876083321507 50.08333296962499 1.0299493798387769
37.415022968428545 49.9896703282484 1.0385054915693568
37.40340536828449 50.20544750664183 1.0404071593829145
37.41013208146635 50.11514093367732 1.0539580222690874
37.65161038698241 49.96727318523221 1.0417688771762421
37.62009606090843 50.12261465692149 1.0214331077048058
37.66055989996797 49.9963721329214 1.0645597481880142
38.937895828866964 49.78378470488376 1.118764561777301
38.97977534868068 49.76305232490789 1.1244131634935055
39.23153417850877 49.75454060323132 1.1231225677257233
39.25507292816654 49.74408842254045 1.1260107054121857
36.85008704888977 50.327745783828775 1.1483718726827787
37.3144437916701 50.153620457107856 1.213975082757583
37.41539624533515 50.00034042275091 1.1546831581717016
37.42362654918949 49.94111407031687 1.1504262061206516
37.47935570989447 50.0837998279115 1.192284482666258
37.56596404603372 50.14018442257155 1.2061168779756457
37.56149211862204 50.100045825353874 1.2064941875118027
37.65019399442812 49.90278298458659 1.1886219259354986
37.67338045599033 49.812648387198145 1.2095501620447342
38.99239444235598 49.73210250747057 1.139143692925058
39.043355720016855 49.6300611201116 1.16083164108508
39.094650466888496 49.57049839283916 1.1723355512416165
39.102288584329585 49.67662779538826 1.154425108248944
39.12958454657903 49.583453291351034 1.1641959762377172
36.75013318456424 50.111660298452364 1.2184870831316477
36.74524056263884 49.94720286873137 1.2861232176384938
36.79012099381287 50.11609606933719 1.2390416712469305
36.8052769976624 50.033779447184465 1.268691733897902
37.30216877780538 50.06678819998497 1.229654649261293
37.30999529982565 50.004346755216595 1.27417741220897
37.340446920395124 50.1724716450808 1.2282415840543657
37.33003222614928 50.0965205756196 1.243513739246975
37.444235761140455 49.90442191049553 1.2272229415582372
37.446584213361284 49.7944378903141 1.2665010749626524
37.47890741062107 49.732047554296884 1.2840791507433802
37.397338608862746 50.169961386320466 1.2275396994208718
37.47276522218643 49.988357338256534 1.222856468224336
37.51541203349803 49.94883346536504 1.2410480271357143
37.50459654915159 49.8689734715822 1.2791161742271562
37.578160238691034 50.0264612011622 1.2249827404004578
37.59551977592241 49.95143894133347 1.243881515826163
37.66364363258892 49.78254301315877 1.2499718678030087
35.943165928140836 50.510906654970576 1.3964785669444575
37.469133031713454 49.670624175782315 1.3198807210722063
37.492247708650325 49.610358764686595 1.332104990311503
35.8671846872895 50.147997595725805 1.4555327788215264
37.4742824680457 49.892129052745595 1.4532232663368352
37.49362451245693 49.791562277977285 1.4711573070847008
37.48507579859723 49.706085768562104 1.4575594789919752
37.48960667217317 49.893310791238065 1.441934750597511
37.51333942373768 49.82102620754291 1.4605061598051006
35.7509039056154 49.930962106906094 1.521841823565207
35.75259269041366 49.972743954805814 1.540352880952442
35.85195951899907 49.93077772600984 1.5264864734836208
35.87132446960522 50.01132369524169 1.499365727337745
37.47744577752981 49.81427088123225 1.5320312211085974
37.51773633220682 49.71698145349501 1.541192500234355
36.78899904494545 49.90544446599051 1.6925248109965296
36.77190366375028 49.78058538289877 1.7276687629289207
35.035714540070444 57.590094159935326 -0.39944350673493956
35.027542113025774 57.58398300667062 -0.39962863817226385
35.114138941524054 57.56813140912699 -0.38899289816132515
35.076231107991035 57.56956184828704 -0.3930107203817424
35.210652029427784 57.54175484811669 -0.3764051145062506
35.31814519538975 57.51002258562774 -0.3623798980067502
34.92416058564686 56.36418373707622 -0.3785660090847994
34.85371396500318 56.242823101723474 -0.38156651534389824
35.388756337985306 57.48523791605979 -0.3528609043022146
34.93204589894872 56.35060251991253 -0.3760542828964084
34.95191840144367 56.278912234305515 -0.3667088705748682
34.91161845928196 56.233416279775575 -0.3703891046848106
35.34465016542462 57.13313541742649 -0.40231298777458935
35.42535364204711 57.01417389290784 -0.37567827456584885
35.74479452373248 57.41388238267465 -0.400373201091101
35.80594808375874 57.403197154354416 -0.393144234540457
35.782477623065716 57.40322210144842 -0.3952359920951069
35.89709246954046 57.37628136460559 -0.38095649735767045
36.22184503006691 56.778772078838195 -0.37697003518006666
36.47499775582272 57.08418170305559 -0.3622653313433874
36.40952376201586 57.02855650079594 -0.3540991405912205
36.35478096087548 56.91208507784241 -0.3876870548064774
36.33082911405463 56.82645532253852 -0.3782516534679808
36.299630056428875 56.75220324119155 -0.36321852209323147
36.54279015488194 57.09158786651489 -0.360912172668392
36.46871058944861 57.024151474198995 -0.3499582648168233
36.64023291569271 57.063998914228655 -0.35175582708327774
36.73243407706108 57.03175667804852 -0.3428349140220877
36.84843371985243 57.00520576218353 -0.37937922796669854
36.834954420954624 56.99645261815284 -0.3991274539127715
36.9300848993948 56.9796356258642 -0.3954145400775357
36.90051809548158 56.97773688314856 -0.3945930837901038
37.024039965385114 56.95707257070894 -0.3916243053001137
35.98427573463499 54.15938911655158 -0.34862921972466926
35.960872333369274 54.07145747203829 -0.3735117769196784
35.94477412053027 53.997040661049496 -0.371387822703551
37.12082433607967 56.92875348995227 -0.3879565748081743
35.93265681260145 53.950835943099335 -0.34939228603723105
35.91541697966205 53.88739401275213 -0.3653112446249075
35.891515680385716 53.793769212221214 -0.3886928362670349
35.86316129066586 53.69269212137579 -0.34801434341480764
35.84212739836198 53.603948403162896 -0.36693964502937654
35.82430641471515 53.50996099301593 -0.3866045379528663
37.22016546671728 56.90311083305047 -0.3866182154580859
37.298196006286474 56.87820399290414 -0.3855249467191425
37.3242172841086 56.79869825672724 -0.3686001973265884
36.070275715522186 53.561697467428125 -0.35382901597952143
36.03284342831336 53.53293350376836 -0.36269365979088014
37.38403296633759 56.776743863484704 -0.3683867069466635
36.13910073475644 53.54540472952584 -0.3516605873516704
36.15427130454917 53.51214230879135 -0.35725019672637087
37.498461335295886 56.755958241365654 -0.3744239278766567
37.47323702254017 56.755364907300134 -0.3717387499601376
36.23744352792623 53.50538148331233 -0.3528964314138761
36.24631358032435 53.48319602737485 -0.35690866107308916
37.573986992979854 56.73083258178714 -0.37698348972431683
37.54115265846816 56.72955175710669 -0.37300020715304094
36.27521162514566 53.44221815688224 -0.3635494555898711
37.706680875961204 56.68413062172837 -0.383255570007317
37.68354052965782 56.654155402524275 -0.3739717746660294
36.06267201684694 52.60363965007786 -0.3523683375299012
37.81265194117244 56.651855409075154 -0.3913923070617806
37.77905838179185 56.605428381048256 -0.37727291666213747
37.837158664175675 56.47452038848386 -0.3609329081357744
37.80880542654536 56.40159452241749 -0.3427941334055378
38.25613768265275 55.638673668500715 -0.34303160269542565
38.25311521524866 55.59200827042191 -0.3398727854185613
38.29634260364203 55.52554489686104 -0.3479872550947054
38.3824292354247 55.47666224711108 -0.3682199114706887
38.36896631823915 55.40196936795446 -0.3634778893456965
38.34124027921373 55.305977900708065 -0.35598357369599165
38.316254134844584 55.20864951180384 -0.3507046215078106
38.290225576790874 55.113043120067886 -0.3467549696720305
38.26333677914161 55.031221250629464 -0.34350867286459597
38.016202912935746 54.461327117365585 -0.3443836750901102
38.29496987416569 55.09013864211225 -0.34877401256928936
38.267050764678665 55.004531509600746 -0.3458716517609238
38.242020333698875 54.91548757293931 -0.34531017122076946
38.21435871255761 54.818194171157614 -0.34632307491772846
38.18744864522338 54.723671800399856 -0.34905989989130054
38.16420957668878 54.62671129710811 -0.35468288355529
38.13584131097032 54.52957214406828 -0.36088139833163113
38.11167464224743 54.45853811872742 -0.3657059172348302
37.021471248800374 51.08911617045715 -0.400876733625939
38.05271162746353 49.870557191549615 -0.3396686038149222
39.06524152685052 49.97089957146841 -0.34024960459246656
39.06207439310611 49.92606405497271 -0.34320123449343604
39.16983532451831 49.95737623977723 -0.3423594964656991
39.28002185414559 49.938281835752036 -0.3449905642508518
39.40188828450281 49.82927169073481 -0.35380524914618405
39.61476219366712 49.44239946163892 -0.3821902878646568
39.70726173582064 49.406626471129364 -0.3858148551783061
39.79733289302709 49.38156058463573 -0.3887376199553792
39.885217334927425 49.36443646588653 -0.3911290742225245
39.99428842697425 49.33430132904972 -0.39474183266066876
40.097693418713625 49.31731628251724 -0.3974615946794395
40.19155873010065 49.296399496686234 -0.4003171335185462
40.85671475906969 49.468736740149374 -0.40168111929405237
21.04739077360324 60.999887887342176 -0.2981281833176972
21.139703726591605 61.02499112680668 -0.29546266133203775
21.04654904820537 60.93920245606482 -0.2987273329847449
21.024403296444696 60.85377813864079 -0.3002298396975688
20.99379879691996 60.73983043493221 -0.30223423932472343
20.963596344974093 60.65548632348063 -0.30395108260371767
20.953988570714163 60.59627777237541 -0.30478434987968717
21.658279470037407 60.893445855527794 -0.2837338892659337
22.127495704802698 60.77785256367395 -0.27297691286132986
22.565736820375847 60.670121192401524 -0.2630427202407095
35.20448464935047 57.448217691732786 -0.26997051985703807
35.1962857765726 57.379750577889965 -0.26494918810585194
35.27211083350625 57.466629581100165 -0.2661934928759404
35.20800418103778 57.32531767372958 -0.2595232631763368
34.87459036999257 56.23502568696574 -0.2998889591401868
35.414819370012935 57.45876764215533 -0.2547250881209428
35.38441968558868 57.405181180993516 -0.2523103861940812
34.988558330561276 56.3283940910429 -0.28889763050778733
34.98421984129299 56.26297250435011 -0.28538119630197367
34.93346872338564 56.21532252990222 -0.28998887667254986
35.47708703495131 57.35948313276318 -0.2511113802489433
34.999318918757794 56.25553938673029 -0.28267061517586956
35.42742789918592 57.01617166786798 -0.29547558523042255
35.82310935585223 57.402260646960194 -0.30655418090954945
35.798700031104275 57.36743877760118 -0.303910588878257
35.705231627764256 57.01484353725276 -0.26810203004542466
35.902180147997164 57.37275426357058 -0.29712353186750395
