ply
format ascii 1.0
element vertex 845
property float x
property float y
property float z
end_header
4.239805945682079 32.19885687214291 -0.5909441553515918
4.2666627000660755 32.265140201302565 -0.590944096630183
4.132240118531437 32.01667397418914 -0.5899098588623586
4.157510373287179 32.10627205873155 -0.5897628884627808
4.210792085460209 32.21035413715989 -0.592736058347894
4.227655312676969 32.265635718149255 -0.5974854375996156
4.041034186708849 32.05593290408775 -0.5906586803649393
4.037891280374113 32.142116856678456 -0.5886902483545303
4.064157320529869 32.22815610590927 -0.5906679588801811
3.477557535094001 30.256996116327315 -0.5783605996546783
3.511123875481321 30.28102670813723 -0.5995885750591803
3.9638234556681784 32.0681255452662 -0.5920206290788742
3.96756122384866 32.17300766901298 -0.5933467200292873
3.938925830223146 32.235114750402374 -0.589080890728317
2.6560230250394223 27.413479305838717 -0.5732700190788845
3.3381042492633397 30.150283252421904 -0.5907807650738534
3.406624141627515 30.203355408338815 -0.5925995011726414
3.8448065371510585 32.13285236314745 -0.5965445102626924
3.8708166835772255 32.17071315317671 -0.5939428569702351
3.8803184319657538 32.24711735707428 -0.5895858966015115
3.871003402599724 32.420750468047366 -0.5995126939520116
3.8949642930797648 32.499862817988856 -0.595571809474223
3.910847835141025 32.55717973098905 -0.5939871632064054
3.995157666891353 32.66793380196304 -0.5934944012973326
4.0174535616515445 32.72899195604581 -0.5925840104104777
4.047639091306998 32.88994669654411 -0.5918734108480351
4.0416713730812255 32.9205148302339 -0.591625866565101
2.5696641122850874 27.156040939918938 -0.5623089434421736
2.5827949737307705 27.266325850012397 -0.5695607230906462
2.5907862512977387 27.364710448714153 -0.5746747213019977
2.5946507558153993 27.431897377429777 -0.5842054301482821
2.636655027656084 27.520385801756053 -0.5648715006594194
3.192107897628767 30.030657935115453 -0.6139544939216776
3.216258037675034 30.049624844717265 -0.6039840805286061
3.400447544518282 30.899018149593136 -0.5905072533480235
3.418162642711696 30.955730166300604 -0.5903149493821065
3.4336188291803316 31.037108838805775 -0.592309556580187
3.4624136734295607 31.162887690914502 -0.6027310162559476
3.510011778608032 31.350779105123284 -0.5998499252056088
3.528503460468339 31.430952055182015 -0.6018930139638289
3.5467466422892686 31.502988929031606 -0.5994150944020621
3.7699975412463607 32.151624573966544 -0.5948410866715479
3.7826913533746795 32.20372711409183 -0.5985677823087504
3.7804490417047862 32.326287006065414 -0.5942764934991092
3.8344966610845566 32.397758947221604 -0.5968057815233997
3.862224784924824 32.48148522668738 -0.6015979424319277
2.5757554173477146 27.557522963615348 -0.5694856777141031
2.562236281333795 27.654612911884335 -0.5535239540523181
3.07545352946764 29.959272908900992 -0.6218697386084067
3.1436507635184068 30.004519028362353 -0.6082867644861154
3.208303222775781 30.28690110199674 -0.6141235109681498
3.350734452965468 30.896985572886273 -0.6013746584747447
3.371399956473887 30.979010642548328 -0.6040396294800191
3.3884039338415217 31.069784428378757 -0.600059504449763
3.403910529455571 31.18493914078433 -0.6059799712268239
3.4250309152557534 31.25050859906692 -0.6044596118833581
3.4675161910820544 31.359512596879117 -0.60363396151397
3.4879460234564448 31.45776456887182 -0.6040280333210335
3.525424590582972 31.51996888354719 -0.6022833757295005
3.51656729384219 31.6638797831141 -0.6049275110185725
3.5282265242845474 31.71057025260176 -0.6118776585607447
3.9290936606045386 33.488288598809724 -0.5954496559673358
2.4631420497742944 27.623530900953963 -0.5625054533812679
2.475935764313112 27.656640205386008 -0.5508328024936787
2.4835925221787445 27.937525563235646 -0.5393983852396359
2.537536804858603 28.109622311888838 -0.5357739293124599
2.554953233370596 28.164786293607282 -0.539081924044925
2.617624613787969 28.39468202591574 -0.5722196584884447
2.644870988263647 28.476030138580228 -0.5889287825962295
2.660072561189578 28.573020441976713 -0.581048726832393
2.6891007945656966 28.683269106031737 -0.5812474144006985
2.6845186016480134 28.7656647760076 -0.5884975334160715
2.7327250186872587 28.875349297563794 -0.6019768029174378
2.7571344333392034 28.968708538466124 -0.5823114505170071
2.7928866256970033 29.06493446786125 -0.5858892397230384
2.8022803513829975 29.131083989624557 -0.5967527612397018
2.791600171302692 29.2340849809671 -0.6160920889147969
2.8650705290607266 29.362460668258368 -0.6012894904144305
2.8913528906087054 29.438902634546746 -0.5995804033468668
2.9118342283415055 29.530241120676973 -0.6036280109426391
2.9274188502666956 29.617194781762915 -0.6052165036451544
2.9636614411890956 29.71929778120226 -0.6063581096913043
3.0169272592420606 29.928358173028585 -0.612967101903371
3.2343621900973196 30.82075590576825 -0.6004497179109362
3.261511925897488 30.889251347782082 -0.6027212568220986
3.2802351458513614 30.990115945572864 -0.6037955390612245
3.308060660652469 31.093957627164915 -0.6009632007877777
3.3218206302911724 31.183838585709378 -0.6068970294227726
3.347115427861046 31.286460692331946 -0.6102779491950588
3.377647437953336 31.38143291231443 -0.6074375841908697
3.3943117680169332 31.472843355458128 -0.6056716082980661
3.4248776377100105 31.578399227457943 -0.6052964611606692
3.8703369313972305 33.57388537556788 -0.5984733795352484
3.918921625749114 33.592400404396486 -0.6031940530331588
3.965943446467612 33.70099009328648 -0.6033692030554982
4.258599510546585 34.96251299549679 -0.6236683941197066
4.300877567230096 35.10405702791949 -0.6216971783200996
2.356607504769997 27.560445125684197 -0.5253933162258594
2.3309595297248045 27.62333176131991 -0.5845735415171052
2.386851741395021 27.69878990130704 -0.5525963784818485
2.4285337192597343 27.815912397264896 -0.5472425777466176
2.6259429553777274 28.59647904898521 -0.5648241452641036
2.6289777241726 28.691764412316957 -0.6054091935203334
2.65770807720285 28.78523852679709 -0.5673286613565597
2.677345520512711 28.86758488043432 -0.5620506225766848
2.7133423591157664 28.96901485032384 -0.562837477913014
2.7377066272883366 29.094694798323253 -0.6263637907819828
2.7502013157542207 29.216891202344414 -0.6204281611554524
2.7680728797613607 29.23814465219092 -0.6240083008151491
2.9353800835971544 29.87801201570011 -0.6226420489441032
4.779533904117462 29.15494278823333 -0.5258779152365046
4.703904150372067 29.82330188150653 -0.5015858441882334
4.729851254495203 29.92525514630102 -0.5155889664802603
4.746649005177432 29.976927618696614 -0.5183888290421241
4.825201214134204 30.346084746171318 -0.5099286014673098
4.848707009686105 30.424345209085093 -0.5117585837255468
4.868932405530374 30.522698166254806 -0.5057814865829475
4.885194006373166 30.582357665083055 -0.5064058708219115
4.919920368890232 30.70768706243323 -0.5144335017888757
4.930245794473856 30.778194028048638 -0.5068703522400555
4.954991724488123 30.89787638908769 -0.5002432071260123
4.979742930368465 30.99718107141122 -0.5016026958711126
5.003532742647867 31.100076628607223 -0.49970202221206195
5.03001011794839 31.194166780058296 -0.5034154067736473
5.047881308144245 31.272465346309954 -0.5003443710750518
5.191725333817099 31.882668340156343 -0.49795841108482486
5.215449302402959 31.961276640857005 -0.5036552512761974
5.246340886010829 32.064645845063275 -0.508822345447742
5.266290694348923 32.164678926157755 -0.502406338693667
5.283434369748242 32.25433209702473 -0.4983396372517759
5.306505698788289 32.350442094955184 -0.5022114104286888
5.51632634734758 33.25440858081923 -0.5362699152481454
5.542732445940677 33.31904936850096 -0.5401346046337423
5.568997138964441 33.417109139904156 -0.5569694080227706
5.602777431973982 33.524349828697076 -0.53807221463205
5.626406469265213 33.606646085377136 -0.5306257449431311
5.649500048775968 33.732612998234245 -0.5450215210813759
5.674080956622329 33.81263850726162 -0.5160852446870616
5.690675293463106 33.91043091025517 -0.5639404295176838
5.7169090456076015 33.98889653111152 -0.5523045545033332
5.753687413201856 34.11480309872048 -0.5183268912324996
5.779043575597475 34.20404674425992 -0.5680845923910954
5.804721806826934 34.31464975828644 -0.5478838996920836
5.829355255480446 34.40474201901439 -0.5868820985405886
5.851776977571167 34.48912791477477 -0.5792050317263131
5.881921224824131 34.574403359770365 -0.5637818883274612
5.9006152062717945 34.66160933591583 -0.5351057749186882
5.959475970388414 34.86801892725577 -0.5327489483411901
6.000869098228286 34.98102010161423 -0.5492366160834015
6.011389086257474 35.046673677126165 -0.5444842018969898
6.0457196215046025 35.17320751698652 -0.5609955569155012
6.058803269612057 35.23208953518037 -0.5394486675426663
6.098612711685399 35.36856355730562 -0.5559845387583321
6.131050704513061 35.401630998629486 -0.5506253790036726
6.122881290473501 35.67434272938887 -0.5735362752079588
5.088617790345509 31.93359227356898 -0.5823632579549995
5.107749517458936 31.975888959908204 -0.5810481985775302
5.226523290673471 32.096270389298745 -0.4865460664956369
5.2466211557604225 32.37954704687616 -0.5050817882276125
5.556842022020884 33.469243830695675 -0.5727525902534712
5.557388938912678 33.52572466401367 -0.5694165282786816
5.635555153269642 33.78618551426441 -0.5650262384724603
5.6507737225384655 33.90611283302942 -0.5767341152058222
5.708844741703244 34.344408671034444 -0.5779822082875367
5.753143483943546 34.405530830725226 -0.5887738737780146
5.781278917522084 34.51409513620584 -0.5887459179746196
5.787780529483846 34.58648457339923 -0.5841485102204886
5.7829190137927515 34.68163096115176 -0.565124135357103
5.8493205010202916 34.86346918405631 -0.5729946880251071
5.041183799443039 31.927803377406953 -0.576952275604021
5.070993962808089 32.01052259891646 -0.580488591371116
5.06317765937274 32.09226824737817 -0.5808543087346415
5.0695363126164 32.19346535859168 -0.5833970111235045
5.068934017051363 32.2664505425915 -0.5825072706227645
5.147024557496774 32.39278233399378 -0.5002609359650927
5.728531376943809 34.580415537802004 -0.5454661377835566
5.889626051174879 35.62122906195969 -0.6254332016087387
5.928404027038807 35.72934187545578 -0.5998155077794793
5.9598396714785835 35.81382657740667 -0.5983016754603412
4.433145925910774 29.977152975078752 -0.5269292563088314
4.978277397047032 31.948447201606026 -0.5802891301658498
5.014265157050176 32.06532860483003 -0.5802670226116333
5.014096902615877 32.077961195828955 -0.5807735187048928
5.046090357096381 32.30424352694479 -0.5756860538561611
5.057429104934596 32.427162566133205 -0.5467400643336358
5.058285735947972 32.50540551264312 -0.5403141954088642
5.0833501465710045 32.599755809061215 -0.5599182846714368
5.131439829976627 32.68203220095272 -0.5775521020626543
5.775127230846674 35.31503765137383 -0.6216184308865146
5.8065121087568965 35.39931137715786 -0.6205608419187382
4.401150021465556 29.97082345308183 -0.4782255218392696
4.818672666477173 31.97173735979145 -0.5798975209341579
4.843157929846758 32.02195563490519 -0.5813534848258227
5.4095343754049106 34.37285398596183 -0.5916734173431525
5.457069613298868 34.50198564176732 -0.5893469966165102
5.495040140623956 34.60336247449493 -0.5985055021062825
5.505861604728316 34.633765452628055 -0.5917199711160959
5.567948094750969 34.76275698356752 -0.6040141095835386
4.751964179912912 31.9523251678701 -0.5792151124526179
4.634529735855645 31.979526562259807 -0.5797247285712162
4.491660884339244 31.93483577742352 -0.5802270396645653
4.518980328514271 32.12609994972161 -0.5798713464766817
4.608019184839866 32.424607422152945 -0.584863644353372
4.406638151775315 31.897738399945382 -0.5780657405491775
4.417282401006383 31.947360582098625 -0.5787030073520109
4.437336268744865 32.06026285555296 -0.5794669648033022
4.47464829532802 32.12638689159332 -0.5797188875280145
4.510453107950991 32.24196205070052 -0.5802093609600588
4.333493067149341 31.97519162257774 -0.5785026943284579
4.335975424918976 32.05871208136303 -0.5800094588183793
4.41695366396046 32.1432677633487 -0.5803018724034852
4.284246397954442 32.0348309020112 -0.579310132231821
4.262253229707765 32.11276548291601 -0.578415943119775
4.253340872304061 32.25033126868576 -0.5819791792957469
4.16940463126253 32.11921156668889 -0.5776475683438638
4.020272420458829 32.0966532209528 -0.5801569763107741
4.03531307620179 32.141690935754326 -0.579971065846929
4.057628041945009 32.23265076283506 -0.5794138944477862
3.4825065119832406 30.269111351532644 -0.5452474669490136
3.5011229677439326 30.292594666967283 -0.4726962281891076
3.9547295777662557 32.2031767906933 -0.5806475972653204
4.0626221348267455 32.768096815438994 -0.5719130507675615
3.921880104141112 32.49056138056319 -0.5767717651671569
3.9855076376531606 32.70412319063092 -0.5324533332310579
4.0274984044327224 32.764498580175164 -0.556260500016781
4.032394110213732 32.85071590308556 -0.5499864452553429
4.032083286786916 32.946548214320565 -0.5820104937373729
4.395297413757505 34.48033551709689 -0.528229301827386
4.402350212483146 34.510410617221325 -0.5226908599294151
4.422291609635372 34.61959941385638 -0.5280187876716005
4.429877252587758 34.6899134174158 -0.5293579464778848
4.451798581211897 34.79780011891698 -0.5326823742342044
4.608037091013424 35.44128607727901 -0.5476786177201198
4.67379195787613 35.59482044478264 -0.5415402347952847
4.7061328917140495 35.697931761653365 -0.5366184360039201
4.698489810976851 35.82949718743921 -0.5520582653493922
4.729820921910173 35.89499810141184 -0.5404033361263851
4.742776229582551 35.949872053014225 -0.5408915212317661
3.784112732055552 32.31625698107295 -0.5796658214437297
3.8782079710218347 32.70393760750262 -0.5123367883217966
4.301063446027626 34.36453037764368 -0.5787048348839589
4.299717833502477 34.45316046217459 -0.5828256258087823
4.3296227142261445 34.533262730577476 -0.5771527269588089
4.36719862338396 34.64102773080553 -0.5602254544939463
4.416576792715816 34.82229576246187 -0.551592504530152
4.449529303671203 35.03945663365883 -0.5659694040463525
4.495223250159544 35.16356970563485 -0.5607484175631212
4.486025967979039 35.22362384912534 -0.5690107545158853
4.494211124357992 35.35456942561205 -0.5603567645798951
4.549163625426721 35.42133405713646 -0.5723346656865994
4.562357740199496 35.51861192738733 -0.5748781045078499
4.601328977243679 35.64339910303106 -0.5758711162728344
4.653730936391936 35.67066518758636 -0.5562446840478444
4.644901390008421 35.81729336712917 -0.5747764784517355
4.703080132414416 36.02656846560747 -0.569308756506175
3.7250202561435777 32.67879016389804 -0.5064085384080346
3.7950003345099503 32.71032963906888 -0.5027017660117292
3.9241327458992497 33.4788077343737 -0.5810265599912126
3.974623733668241 33.62826898051012 -0.578012445510292
3.9988252212391884 33.700731536719864 -0.5754652991916608
4.024053069993831 33.770041947454864 -0.5873219633307314
4.107778380229166 34.10687552835325 -0.5728266427122258
4.128725368549975 34.162167218767486 -0.5804991166792682
4.150238845691318 34.25189452926483 -0.5836367701649143
4.190346128450987 34.38186783083647 -0.5731140402947483
4.198724925992299 34.468409154188635 -0.5577214130781573
4.223339486925583 34.56886840554304 -0.5687541253343691
4.271041288404863 34.63466227151303 -0.5917686659514909
4.251302688029541 34.785401812311086 -0.606985051302102
4.284445978182678 34.94939311947936 -0.5954693162933893
4.354996279235442 35.164522476059965 -0.5430570739718841
4.3581007822915545 35.24463516353131 -0.5163815896106502
4.401473337972831 35.34576260683562 -0.5488813155527815
4.436610453430515 35.46833016679279 -0.5341282874133617
4.454606797664622 35.561573554957405 -0.5348513421297484
4.50051875286777 35.72162203558869 -0.5614709415018136
4.51447730216771 35.917155042213814 -0.5441458541404215
2.3615142966731173 27.45568087542705 -0.45363705393043063
2.3766284837329374 27.48685496056669 -0.47801339325983294
2.4103552815576466 27.604813190947432 -0.5166625013768994
2.463677545205811 27.652558264841915 -0.5240943710646373
2.4625007236462464 27.792469861337253 -0.5097046101277496
2.4966849113738405 27.926305953991662 -0.5098946710985309
2.5166800104760316 28.004125277481187 -0.5185607930267342
2.5345575044724775 28.07342785629396 -0.508073009108444
2.579793216518488 28.200220892991666 -0.5084421395900166
2.5884474034768727 28.25271722410866 -0.5136448651851308
2.6351896984156555 28.386576400154272 -0.5128087203646007
2.645243474069294 28.466942542902316 -0.5127845244087974
2.660755300932636 28.578758346382898 -0.5209124730291868
2.680207558597306 28.677419368211375 -0.5265691359949756
2.7043230437376167 28.78563713444855 -0.5275012379971297
2.7023055597714967 28.85373264842339 -0.5338944866725082
2.733568163297017 28.97679013110607 -0.5388752659115429
2.747404100573978 29.032519940922853 -0.5389373662278212
3.1958574273311706 30.717628069695113 -0.5248295419872773
3.22036499958857 30.809376075833733 -0.5247699925977476
3.240992729531553 30.904443177875333 -0.5284393447339293
3.2633545128029655 31.00231095667973 -0.5314361683558383
3.2802449948704533 31.091548247128905 -0.5324265767302817
3.311669506349264 31.194058031650325 -0.534189028670966
3.3356883433296853 31.289607894670656 -0.5363032770604873
3.362325458507597 31.382460014419745 -0.5300376514633945
3.38340048697782 31.487404008829166 -0.5291662967131301
3.3991951997667664 31.58787663886826 -0.5360686600690865
3.4264592035534016 31.682957672404513 -0.5351661229684229
3.4477556571607386 31.776837492065102 -0.5318922381229358
3.468967715220242 31.864319118688098 -0.5308361111566435
3.48399916583821 31.94720869115461 -0.5349567370855924
3.5727597515880687 32.1912813913311 -0.5216954060109247
3.5752818411029232 32.26411975394793 -0.5260136009934817
3.6024742777234424 32.35173172024856 -0.5241066015414406
3.6309567685197006 32.458276538584215 -0.5238597770487236
3.6682636104401625 32.53007069248392 -0.517582649586883
3.6836365423026303 32.63946807700274 -0.5213279448270163
3.723192360509021 32.726268461100474 -0.5127507625099444
3.892997162795292 33.531176558028314 -0.5795414444796533
3.922700947899553 33.62761048756822 -0.5798782688856127
3.9526287472084647 33.71851599949359 -0.5580469808661247
3.9771442537628383 33.80536349272148 -0.5526461815386368
3.984530955082328 33.901907331330186 -0.5617816884044758
3.988968884088287 34.02158575739092 -0.5747127423150149
4.00414007399148 34.10612543588594 -0.5717537949133727
4.017307612780502 34.2058822835046 -0.5719415893913868
4.016739469816944 34.282985710916144 -0.5836875107113133
4.2068789487676 34.69144257500863 -0.550607164750432
4.213262924059109 34.82167222386112 -0.5640865701986871
4.230768739277608 34.90696214816715 -0.5696912469077512
4.248226369284405 34.99322502862515 -0.5824771569444487
4.28355214380205 35.087658125652396 -0.5803518424219224
4.2966694598291 35.17863287430943 -0.5565605534981858
4.286229915111849 35.264992125187604 -0.5938758700645821
4.359947746255557 35.38035169993699 -0.5437675680342345
4.38411884064362 35.434947507014094 -0.5682379404168328
4.496123783840228 35.90872176136644 -0.5483619764544643
2.305802500306933 27.399078662538603 -0.5163004636191904
2.3603723175605826 27.51457416463757 -0.5150139642008879
2.7584874069614065 29.305631932170964 -0.46313540596396563
2.778969471569713 29.3669002160049 -0.46708636369280465
2.805209562694938 29.470173070041366 -0.4689460881660392
2.7871066457717353 29.548339430709802 -0.48467583957144356
2.8366599201793363 29.664541686095845 -0.47626098387589
2.8723770708334735 29.76853567630834 -0.46833765675012917
2.8957560655130674 29.83892631410623 -0.46755080881009226
2.9372384816792216 29.907047202200147 -0.45431217018536607
4.0098898441824815 34.33183090989874 -0.5378066089048086
4.0032224137728765 34.39247459865914 -0.5498496746988714
4.693596333630286 29.80677885491013 -0.4083234418313595
5.640769438063168 33.657307425400354 -0.5033213354699061
5.64267540284033 33.682895659662606 -0.49960352885028847
5.704415950782506 33.951636900128406 -0.5024275601318038
5.722010605613032 34.01792862373331 -0.4988220797274313
5.744952561291508 34.18273777971308 -0.4983930123922323
5.788405648483126 34.32324186724938 -0.49762819500676403
5.79730025459882 34.36867511196296 -0.501414822348529
5.8564253000213355 34.54527216600213 -0.5113881410892037
5.878955014530663 34.6556543387905 -0.5067285583605132
5.9993061075178655 35.19701564834048 -0.5061417715641836
6.031129898009105 35.29171055856097 -0.48918761832783497
6.02750087256368 35.352383350116995 -0.4440256178680215
6.162474208345688 35.70414612664236 -0.448860061845735
5.961470920921681 35.154115759132814 -0.48574413390247906
5.980468752268441 35.23945500771734 -0.4687607418320374
4.418819725225536 29.979752001867407 -0.40335911456853735
5.067524352599067 32.44322690164403 -0.4282729392601957
4.40150156935989 29.979232103164925 -0.4542363473669391
4.287250064450203 30.269504694456028 -0.3970716896446338
3.469675032319559 30.400961073631628 -0.456062401317746
3.9807278610600263 32.71553560162523 -0.44894161428286217
4.449067852432283 34.585544531119126 -0.5068511255562891
4.603223808120322 35.86514135944567 -0.5020821266588406
4.126905046214023 34.225271620736024 -0.4333393467614308
4.14046860710773 34.29291144752985 -0.48345799015042246
4.165200113718244 34.38274718779016 -0.5044727939362195
4.422026401117525 35.35135482408619 -0.5056334930857362
4.439886731852567 35.403344659219876 -0.4926975262040493
4.440314871363738 35.543930083778164 -0.5127188314391995
4.579244322464718 35.92768731511255 -0.5137160427020693
2.3560830286494974 27.43213929342043 -0.36079764253634494
2.3877106793069043 27.492611527738674 -0.3793583569328772
2.9621987624786605 29.93188065590095 -0.43800229210584063
3.8767627806389457 33.571333575615306 -0.4533842660140187
3.8928792135200285 33.61529790744093 -0.4525954880499925
3.9305594629971154 33.72758171950628 -0.45519166490243157
3.956071115364884 33.8137252437204 -0.44503142504014725
3.962713029649515 33.924591364927686 -0.4580402210114948
3.9898362108997465 34.144889298804756 -0.4817169097242058
4.1123782417523875 34.30886094581798 -0.42712281321527834
4.103557970736217 34.38685301574513 -0.41145285191017755
2.267830971596955 27.267230173152438 -0.33509613917548553
2.725634633865453 29.223599073416953 -0.3738598341266275
2.75391175031611 29.266958251175563 -0.39771679759870693
2.9353085757535213 29.883719461234584 -0.4510331707963262
2.9383162187240077 29.918299575603232 -0.4389537643196415
3.99233581006376 34.345307216375595 -0.4823808257395399
3.9878361443327024 34.40098480170493 -0.4722339869205554
4.693778767575306 29.804511000201934 -0.3058866413296739
4.423769229029446 30.043619742326875 -0.27915322912341656
5.060975200170554 32.43733459873124 -0.34221874278476017
4.417150873141827 30.042699767101862 -0.2936858967714444
4.297896762254225 30.26262552533715 -0.3568123196131767
3.533490666738502 30.32997829592838 -0.32507374120643695
3.984691540969378 32.70486837339088 -0.3276648467886022
4.127794882832597 34.32163905559408 -0.37323221130241635
2.3700108312425345 27.441002241716447 -0.24790206224603875
2.3723251986338685 27.47673424847155 -0.2282000683967085
4.079151486988611 34.33089666841018 -0.37444328182598596
4.058734077463503 34.36643397273937 -0.35809572309526827
2.266798471304754 27.262754837452743 -0.3174466985512324
2.3099729316930597 27.337866238277556 -0.292096384475353
2.3298077945590467 27.371045056248043 -0.27140064174805456
2.748202290233966 29.257078507132483 -0.2992099744175577
4.032377965800507 34.42552763901232 -0.31647804331708485
4.693557525290251 29.793623470140954 -0.20537592441625824
4.43903899816698 30.077071139841674 -0.20157817313023352
5.056422220684364 32.43563828093059 -0.24297731705567763
5.086620863935435 32.61030048056778 -0.230308133875711
4.427276000263923 30.07014950752351 -0.23687816848202722
4.164569685347646 30.290322606519315 -0.2299854678197719
3.9829712229024743 32.71090681181844 -0.2423644098215362
2.3503454247713034 27.432499323421524 -0.19772299891242498
2.371358835052164 27.472545465190656 -0.21167990749996968
4.071948858619295 34.402923181668356 -0.24708519548451127
4.092754555856069 34.51629995978052 -0.2411452615686813
2.304715955883002 27.34071613719526 -0.13478030636563673
2.327809464831259 27.387161861422335 -0.16659214648757653
2.781656495637751 29.284924845250547 -0.16490369682044112
4.024417617869236 34.4208052255386 -0.23989452227437666
4.693892176610864 29.795336374220234 -0.10401546948771143
6.140594236687523 35.6615184142676 -0.20326385414016954
6.165075822669733 35.72548012624178 -0.1654089445021562
4.457300270954045 30.108775711510496 -0.11785464799013293
5.066697703899276 32.447890359612124 -0.14036416052677417
5.1021186401046865 32.63158549711587 -0.14194969603488888
3.980087225180591 32.71413252697744 -0.15209416770734777
2.3876909818838694 27.47747032918566 -0.04528904422601644
4.098335700781801 34.406786238674734 -0.17279292087813075
4.090338744190913 34.5076728858378 -0.1358579680871101
2.259406844804976 27.254248290536164 -0.10387303407537174
2.3027299875693963 27.332108557886315 -0.10083387764133472
2.773835254644599 29.279235170834063 -0.0856755646203195
4.020888141832847 34.44169588738672 -0.16222160018961004
4.666724666526346 29.749689045750877 0.023305298701590007
4.694424501476161 29.79414358460596 -0.012453205254483235
6.190123923074141 35.790918057652554 -0.12669862600822426
4.652977562499891 29.76279024016249 0.0006577060718192286
4.460365558694414 30.156485908661192 -0.00911606590131614
5.074411274018695 32.455048239422 -0.03989276232166422
5.0837095157939425 32.47154531224744 -0.0506193248271911
5.079223133167588 32.59828446531068 -0.0020398872534333097
2.5865728917545603 27.148753089015667 -0.018330351785741848
3.971225597959612 32.731584578673925 -0.02755178628616111
3.9674732584645787 32.74884987125276 -0.04056136754433426
2.516700978054704 27.009467012157636 0.03373907643084205
2.5566162136690953 27.079033617884896 0.007282946810135946
2.381311664622185 27.49907870206877 0.020267637371324657
2.436806925927075 27.588844382821797 0.02087771728988203
4.0859731226595075 34.512775135083025 -0.051724488022559065
2.338372518370856 27.40548689504407 0.06924771206201052
2.760619654361761 29.27067230747194 0.004696461153679256
4.017621664267701 34.43746619970762 -0.04806961303019068
4.039617508273811 34.52141615502313 -0.09447147835064734
4.67903639650064 29.755409751428022 0.09469996131948137
4.694718646118716 29.793578422302485 0.0922983079453073
4.478881138159401 30.164423860112556 0.08754176672334409
5.063210243470275 32.4428080068266 0.05872028556137787
5.089634264696569 32.61159776440448 0.10676173507997802
4.163564582210866 30.28977107792674 0.13876019005780943
3.9798741976987726 32.709957143818954 0.06680479562266546
2.4835564605423333 27.028491068406264 0.17687734420621892
2.5047916880214016 27.087023545242552 0.15742604330046076
2.5161782149150778 27.124290513380856 0.1390250267082941
2.5449039588357065 27.242129482570128 0.16979204899577183
2.363634671629774 27.4398668363687 0.1419842888255382
2.391936328443472 27.488750777251333 0.1538338637578419
2.422278002127249 27.575001995844364 0.15371015485728384
4.095727229589714 34.42246960437815 0.08892310907139706
4.094473118370718 34.5014161628743 0.0653502824792984
4.0879572561128095 34.573830282444064 0.07710703499140617
2.3090455783767467 27.347949219705757 0.10319979015708425
2.7723359094623987 29.289263513714978 0.10790633283397211
4.0102817817926235 34.44977361612057 0.0419674575216266
3.996760500625644 34.48340329089899 -0.004839576287780166
4.0718700121341005 34.62393842507483 0.016781393571043683
4.6937967335432935 29.775718258723717 0.16587861731192696
4.693973034710128 29.792201923275613 0.19292138453658889
4.482496055972554 30.174758739544338 0.14228563958137086
5.0680128295554905 32.44719163267718 0.1587710329405557
5.091953691083871 32.615266206026675 0.17448978974515075
4.16075688949586 30.270749037047715 0.148683391160795
3.9786661868634683 32.712750728218914 0.15985420610700818
2.489211505720536 27.163303847648997 0.18993209102813083
2.536317125294498 27.297135686131387 0.20941010485431438
2.5819729439434624 27.441129917378888 0.20033082193377158
2.4467331632819382 27.032942254356335 0.1949105344343416
2.4366918574310157 27.20688340208279 0.23989567689791674
2.4428873413380865 27.30650306743335 0.2351808982349951
2.505738069918083 27.382397999600723 0.22254629483227323
2.3879694224511727 27.32359707882277 0.22443546543202436
2.4168638603910764 27.413521656495774 0.21463453487054224
2.43569000456719 27.496480249772993 0.19122614543568855
2.474786272672675 27.565502905222278 0.20732388984798114
4.031326594006981 34.25917199643156 0.18919612555193907
4.024463945572263 34.29217224112593 0.1810164563072446
4.0916828117411175 34.42689521160161 0.16109692744214768
4.087256408860741 34.49072485433239 0.13516853708372784
2.711857201394319 29.21668112193775 0.2552362954152221
2.762304113143645 29.27997152760247 0.20827767617682938
4.017268017733149 34.36138472187828 0.15139917947252357
4.004168209664712 34.4150485656784 0.13892741363384098
4.69833326534138 29.783934706628813 0.24893212643568982
4.695830736801296 29.78809880517494 0.25431913100567743
5.064106545586567 32.44360462279227 0.2668398253991844
5.104713239672051 32.6340120464274 0.22075755999378774
3.9704730674357886 32.73058799998428 0.2602743788101279
3.963856921169295 32.7450554475647 0.30893508005025005
3.8451429876176877 33.53166979323658 0.27009272591045663
4.039167114934505 34.22044929061695 0.25649740927772324
4.066178784868457 34.311042358146345 0.24137249222043422
4.0918303174955675 34.362796391307384 0.2909252112196
4.088046383464841 34.497346154346495 0.21057288715907405
4.0891689948757035 34.566869328169524 0.2257451536160957
2.724732546406892 29.23122349635078 0.300247856185224
2.7529044655184056 29.272201430773304 0.2863576419471082
2.8827802186576124 29.77867360724724 0.33239414804942913
2.908925894107959 29.825731960543745 0.32458288226446863
3.831051640272734 33.5698324069518 0.21758117132422633
4.011948533647926 34.33328916371467 0.2420140986376475
3.9951646975290034 34.41037452101797 0.22197917712806234
6.304883636091707 36.02592705288714 0.36606513419895337
6.079440823133281 35.47652051372691 0.3164532529418944
6.118234022541468 35.56963210042619 0.35185174481174963
6.1552383702094104 35.65250214711858 0.35826352181472154
5.071151109509766 32.453162076636865 0.3599851983203519
5.084747352166373 32.61225902995664 0.3736044280361095
3.97271002030625 32.7206682154525 0.365713752134888
3.964361476995579 32.74708357640927 0.31332704580335047
3.858892457138726 33.556787132579764 0.3356895355357984
3.864534295093615 33.618580778648266 0.34067013578391636
3.986717018630763 34.034611146661746 0.36739643354893703
3.995619411999196 34.11392260122253 0.35669718864539135
4.017061145901137 34.22601283656296 0.31882371720954306
4.10001058823342 34.338470712108986 0.31770744256510375
4.087037435351163 34.383560706866255 0.34449627442791697
3.8372155499531577 33.58807801732728 0.36538905958969137
3.861042283567992 33.71694655951306 0.3547199785734442
3.854379196427467 33.83988114557957 0.37148855093535715
3.877577673594943 33.97638096367646 0.370784562964111
3.904221517881257 34.00439102133661 0.3657205314836499
3.9964353524085796 34.235338660667985 0.33704254080449914
4.001042041203794 34.32651819302656 0.32935008428448087
3.828959681481736 33.98510567313291 0.3984745954957767
3.8298173330826364 34.01342380306847 0.3915559050564943
5.07135535946298 32.454098992774625 0.4205369308140904
5.084793944556097 32.60803719663092 0.4263425532522569
3.9747276815634702 32.71478601090734 0.43674227799970144
2.5302875390842114 28.145094406528102 0.5314928891104499
2.5468666670713764 28.173234624741422 0.512903596562294
3.8480377611717764 33.545771570052956 0.4738205897815685
3.9939047434410426 34.0480094402224 0.4056854972176448
4.001950491915819 34.13317852954582 0.4322244350796455
4.019231940728878 34.22675696473594 0.4220398409124556
4.076126723730325 34.45216193205623 0.4245624897845144
4.07820301393867 34.50711555701679 0.4425211616776127
2.504618030424308 28.09208647963052 0.4788688118011529
3.837677545906449 33.577152789315 0.48275225373544406
4.060444229010444 34.575327944094425 0.48329013044221036
3.8365584476880494 34.03574068937007 0.400699345954302
2.518871948608905 28.110057633990483 0.6042227720995293
2.539054144534596 28.158513143998878 0.6302736032968703
4.079944408318974 34.42802653290251 0.5593635409034635
4.079110579196226 34.47178509231518 0.5613634211974391
2.4820339572325274 28.039399344557722 0.6248977823209771
2.498249671730841 28.084712430840252 0.6037730821902747
4.058923667551564 34.60244264910405 0.4973669929396397
4.052913920959854 34.681465454490606 0.5298690835776526
5.697209969666012 33.92493691546349 0.6462734400571422
5.744360147708619 34.00078349590485 0.6288433280196565
5.630847420142456 33.925425156989114 0.6444000784948736
5.664891496908881 34.01389280005284 0.6512973923718673
5.953625039847749 35.231015544255065 0.6150629908384435
2.5249645855040477 28.12197484825935 0.7114440258999651
2.5484184498743607 28.167720540882655 0.6925055602322366
2.60076257042506 28.249525967847678 0.672360053643522
4.096532482200182 34.33592137833192 0.6562386918048803
4.084681838680176 34.412153077942534 0.6264056041472338
2.4816045161265916 28.02267303925372 0.7572072884439398
5.657865523877815 33.76622394032149 0.7273033124301125
5.68009497678983 33.83687138779424 0.7446262051912758
5.678619854669144 33.8987349792849 0.7431896912895603
5.612485471807307 33.67763260159644 0.7929249180281834
2.494212630254058 27.93317278498762 0.8238063323691253
2.513046854663833 27.98588864269059 0.8086761653856392
2.5527402154041323 28.068330982379205 0.7964631792814474
4.082225606196874 34.34903210852089 0.7611354069470955
4.08304829517643 34.395061847171476 0.7444745439691455
4.16194898857009 34.686833183164495 0.7607691610663437
4.183836945552773 34.79484161197594 0.755544630204517
4.221783340404526 34.888129309544176 0.7512181846321545
4.251156847607803 34.977314486737626 0.749400842503898
4.274862605227951 35.09596692597968 0.7542639318479264
4.299916147408383 35.22747150666053 0.7603923984239668
4.32402332821068 35.29719777558151 0.7665437499673372
4.342164049729398 35.36783598401816 0.7745717614419629
2.4194663395468305 27.830142481049243 0.8354520545387264
2.4615395425015687 27.93662872632244 0.8085187471853702
2.4682068118745235 27.99493530237067 0.7784272620859731
5.64823846112159 33.7596866698426 0.8550841343477811
5.674735135577393 33.8298874183091 0.8387232759823473
5.68736908449565 33.90391695735111 0.8242530636421058
5.6042638498846635 33.669653714260676 0.80615321826321
5.616859341340652 33.6957703743677 0.8320524426823079
5.654648043958589 34.02923623812873 0.8733733405590053
4.163745368440857 34.44481405752147 0.8164955404256714
4.174346416680074 34.47840935062793 0.8259856614094626
4.188087241654775 34.55799914863756 0.8550360879858511
4.20808454436639 34.657396195786696 0.8454283982995323
4.366888252844004 35.179234512191094 0.7893793045909909
4.37412373575952 35.263335481468346 0.8043553320619613
4.413550932935234 35.40326154448511 0.7972161590256979
4.414743343814275 35.47785458522182 0.8238512379979321
4.089255046730398 34.34812022400495 0.849645193771657
4.125430738186184 34.42394306126532 0.806734985526293
4.193517108576965 34.6233801658361 0.8697079646933936
4.201444813051708 34.676440541700636 0.864703078226723
4.219876042829894 34.78829048663815 0.8633822482295416
4.224641146766841 34.8787748353425 0.878426465213392
4.340905385356134 35.270356660472906 0.8270611252266763
4.343638061826753 35.37376063806863 0.7874017432345669
5.776313252741132 34.25147181994279 0.9762503027759853
5.814797165827393 34.374562103524056 0.9588760562150707
5.854287764520734 34.504293326798525 0.964695746499524
5.871167991267887 34.58258246221307 0.9720421623574531
6.118014806845483 35.61877064172223 0.9115394469902488
6.151674280990308 35.69205921259819 0.9144009837355334
5.720680033912507 34.14386006849733 0.9228014196586474
5.743797325011482 34.215214958206765 0.9326474141844506
4.10279785042052 34.40858727629685 0.9460629567083997
4.206528398801177 34.78996437668615 0.8925284189431884
4.220025632550279 34.897419692222144 0.899544006660052
4.210474153305073 34.97747320507129 0.9321097250390964
4.443141750253521 35.86779748865174 0.893569620281593
4.462691192094065 36.06082752495389 0.9546152936618728
5.88087427503849 34.52388389519874 1.0077867987147322
5.963273326400735 34.818062250274195 1.0134348163384126
5.998392969618255 34.90289344281399 1.0414510830157309
6.028168390246736 34.98752008520171 1.0509973871110663
4.079437592227082 34.43784585865125 1.0236838727051698
4.089773190283155 34.523695404575484 1.0273108872884196
4.481053666865332 36.16626492157316 0.9853296638177086
4.479812161929116 36.20698586858903 0.9797704909048895
6.347802949216702 43.665121981726855 -0.2566304550919888
6.204087568995893 43.06073036959208 -0.2358007681084606
6.083517871089493 42.57185210972416 -0.21885613189642655
4.806997492318474 37.2161399903267 -0.24850226061337197
4.779714782020692 37.14037097828404 -0.24314905327238887
4.748626665239586 37.01073325755381 -0.23405981395248707
4.718904846384855 36.88697590463201 -0.22542429512972353
4.688652372088995 36.751128864968415 -0.2159259325373567
4.660689863801043 36.64110766108511 -0.20824695460233897
4.363682510279539 35.39132220737691 -0.2716446014394761
4.347929707467728 35.32988796042755 -0.2651960773267238
4.325590892307461 35.23369320977059 -0.25514697295083644
4.303406862992495 35.139391028742466 -0.24530290841062605
4.282163356492257 35.04990712432924 -0.235959296763514
4.255575979413107 34.941392103527676 -0.22464632416379324
4.236632850269522 34.854662127994615 -0.21561550428014284
4.224383354805971 34.79483295863839 -0.2094092318445908
3.971021473922212 33.975971289047614 -0.2271413690861749
3.930245518379527 33.93700975626933 -0.22218989687955307
4.099710395882456 34.256761738709855 -0.26518940890528153
4.073976932802833 34.15855115312077 -0.25168131719176856
4.057413093904642 34.09181427533837 -0.2425126944454842
4.018710517453328 33.99844688533272 -0.2298479049075158
3.644248285411157 32.554338982323515 -0.2584843552731859
3.69877546252382 32.553467191604014 -0.25260162121346486
3.6397025806194714 32.51313438161891 -0.24841974975604772
3.6241531489691945 32.39861031874125 -0.22109745878082965
3.613228912834835 32.342307317201396 -0.20838712884203794
3.7914317467582626 32.52682580383914 -0.24428129161202558
3.98259254199702 32.67109084751508 -0.21967052032964163
3.961066117967444 32.608522252453625 -0.24153707868852112
3.900380250625522 32.50326795394351 -0.2369787600491889
3.0379738366989777 30.23630041508253 -0.22038980876418302
2.9905332090148273 30.180987981472807 -0.23833485894310183
3.940055089706228 32.482040957626225 -0.22848699907940664
2.761218440342244 28.960741195378517 -0.20916148352085664
2.7410012919609725 28.890433672355655 -0.21899388212481505
2.717513786966572 28.795454935738285 -0.23199078824860084
2.6934945262782253 28.704464364726665 -0.24462291317066434
2.672089701328744 28.614525615880343 -0.25697325231613644
2.6479495260019847 28.527422983632295 -0.26924583774016453
2.5195363123705166 28.006447874438987 -0.21461198081645408
2.4949257974702306 27.897913326090556 -0.22597976768398934
2.468084845681706 27.808248661636863 -0.23574681786938798
2.453057775458956 27.738348924042374 -0.24306340129981693
2.428903498809504 27.635107424555606 -0.2539853603808343
2.3937134663805026 27.50754928467336 -0.26779289465584255
6.48238084429056 37.084085439254466 -0.26363729783358325
6.421182539323313 36.85990761903423 -0.24772667123649003
6.413986960424197 36.781684724316875 -0.24248361930470888
2.251711736422633 25.88056551902699 -0.23369426439554644
6.461815178741002 36.749094322007714 -0.24136471886497077
6.469319013479321 36.719894792119966 -0.2396223539532867
6.5527422188787465 36.703863329962005 -0.24039291433044138
5.976707308197117 34.99951431068736 -0.26641772929113916
5.952247741739368 34.90818304847765 -0.25670074242144203
5.931433293957463 34.82600738806046 -0.24799656012083512
5.9133323995054115 34.75133802451122 -0.24013160613505505
5.88973206294027 34.64956932294658 -0.22945187685581372
5.859366816942313 34.53547747362993 -0.21733760286712242
5.841692726237245 34.46696550695332 -0.21009563110449261
5.0506657154233725 32.38942041011472 -0.2510609348481674
5.030907422981371 32.29916353827622 -0.22607372213850505
5.017002212710123 32.233776249430356 -0.20814035159267125
5.712614248909543 33.93327038621927 -0.26607798743302535
5.699995928714603 33.872977653876916 -0.2577586010865103
5.669975679558302 33.75910507841862 -0.24170969905336728
5.646963497218689 33.66146676001287 -0.22813462035192042
5.620351203386955 33.56024728112718 -0.213923680217823
5.611836334207169 33.50461921122598 -0.20650051628805796
5.075670583562364 32.204833106170604 -0.21038053153978187
0.8428780517474217 21.283335253317865 -0.21376507178286286
0.8266695885630484 21.067905738664695 -0.22140092002019962
5.5539424766115895 33.28697101597175 -0.26603266715313856
5.165588659586362 32.195752675215125 -0.2231955249138752
5.161410025240705 32.18255654408305 -0.21957800797080668
0.9146898315868532 21.03844576718356 -0.22126404192547958
5.255362377636835 32.164521729287365 -0.2323770323278865
5.249158802422213 32.12594838535136 -0.22312137694731607
5.252622012004962 32.049282240412836 -0.2077946493880801
1.0015141220091 21.005274554222076 -0.22132343918097153
4.644934174264743 29.655707600478785 -0.2128891476596507
4.618351637352806 29.589968804117678 -0.22735282679990884
4.722857848392142 28.847445643605667 -0.24585528334624476
4.69940973579506 28.76880026949403 -0.25878448064613435
4.68210967904058 28.692292087227987 -0.2716304968361447
4.632685851917616 36.514961243898725 -0.19943452171654286
4.606324767920713 36.39669344878453 -0.19120956453702379
4.582665759024166 36.31012394838356 -0.18513273942531072
4.559408176575986 36.21952460910183 -0.1788218146723702
4.536381906097518 36.112808754269665 -0.17138076024601104
4.515015049261753 36.015993774416664 -0.16466165381154
4.494242755136915 35.92303703639106 -0.1581797562219247
4.474923896141516 35.853981357332785 -0.15337301204468035
4.445534105138568 35.73526648007529 -0.14510226506076976
4.416990059429688 35.60842203300995 -0.13628721138751773
4.399212993940959 35.52112035223659 -0.13025331305170523
4.373874132824495 35.429892578601326 -0.12389731715503724
4.349351474049854 35.32656306831754 -0.11672401825614714
4.334371368862608 35.25695762980791 -0.11192059766885001
4.3194196316588895 35.1812640050141 -0.10667633845906313
4.206661028936916 34.73081662089104 -0.20274710248130817
4.184179700540032 34.63276119865442 -0.19257235060579794
4.162687783935907 34.53654943579369 -0.18260478880433786
4.141977495351479 34.455128128996236 -0.17418146013988228
4.127295326696972 34.39372848649207 -0.16783308195174412
3.9495696267992506 33.97261313399135 -0.12499260507356719
3.9063805233715483 33.95535944515321 -0.12351536351527234
4.1136158651536165 34.33031285924579 -0.16129469721213274
4.095263321993506 34.26054738585212 -0.1541097170923075
4.070366108502407 34.15226721746655 -0.1429777121917289
4.050168347473646 34.06602637703369 -0.1341359548842851
4.007939529251409 33.99432805196301 -0.12691235481911137
3.639356037780928 32.54439782652972 -0.14300846482474838
3.6989216435489505 32.55184962248908 -0.16784999982808
3.637617926863329 32.51173734741649 -0.16447971877328518
3.6252863169604943 32.404682194680106 -0.14376496341372325
3.6002543551963675 32.30765732036856 -0.16358160221552315
3.57314090752402 32.20997123378429 -0.15882513886153435
3.5496135512658467 32.11296217160199 -0.13984941768029238
3.5258839313221655 32.0233512039432 -0.13997148201210036
3.498719743171005 31.919423132800702 -0.13007949006075278
3.47335231678272 31.839899695192056 -0.11947820373152587
3.4411433903595823 31.747296040025198 -0.10957763570016302
3.7957626945498086 32.52810668219315 -0.16479658411474454
3.472858088537936 31.813472930973813 -0.11468504969889853
3.452296766664686 31.749292720985185 -0.10753988263170478
3.2270379602848345 31.02692276463079 -0.10567544653749333
3.2313761947481323 30.9236624257249 -0.1073214812538427
3.2184889945861404 30.89166984937213 -0.11198256680704541
3.9804066292771374 32.67222109261371 -0.1617638930965963
3.96068984231239 32.59465489208168 -0.1613712199940434
3.897963582669419 32.505184458332934 -0.15797708739768496
3.2390275867329263 30.90619044840658 -0.10606977738201623
3.223926060922855 30.847233212421894 -0.11294887356121616
3.200508737197727 30.750962034005777 -0.12518046948964057
3.1745489285151134 30.653880915603562 -0.13967560294392728
3.148123677764943 30.55191035739008 -0.13747737479932057
3.125476031419847 30.461935539263347 -0.1468028775890955
3.0984976497667063 30.358440790817067 -0.16530559708077183
3.083235282894279 30.28592390057582 -0.16533659223248826
3.0137883767625526 30.205932905227176 -0.15010044434223174
3.943013047440907 32.48781243032508 -0.14744494792226936
2.784550772743767 29.01659411971599 -0.13942573339142517
2.7416487117858406 28.893510288755557 -0.12194057832030733
2.719219708775043 28.800128380580233 -0.13147732266858053
2.6931207097303638 28.696755262031093 -0.1421687322996415
2.6675198773440454 28.600218974056233 -0.15227338286477204
2.6562384632272407 28.553176007058045 -0.1571316453933435
2.6472423953113555 28.50835552654382 -0.1616759003184613
2.6226562920569463 28.415633492628725 -0.1714565366338692
2.5994308495241527 28.321951278682977 -0.18126556261642376
2.5735343192765763 28.222457566643644 -0.19178863046367906
2.5466070872985256 28.115395133013088 -0.20309325992123708
2.4400958397923302 27.703175634597113 -0.10978266203559153
2.415187363164425 27.612454868148518 -0.11635991233509532
2.3932957439240736 27.51011367791145 -0.12355348130023272
2.3735057878261685 27.424866596118132 -0.12962242897420062
2.3511205881076886 27.34887802495175 -0.13518807141287772
2.3347574685192796 27.249853659235093 -0.14202543958781857
2.4164537473404115 27.245003237751803 -0.13949724124746135
2.5308453024036948 27.224698610300514 -0.1370195982488486
2.4743492437839913 27.226680746505124 -0.13873048998412427
2.591774336942361 27.23510254834473 -0.13440533685012956
2.5275595277214356 27.04773102148659 -0.1486365399841854
2.5028092672740536 26.949796614982098 -0.15578052118821342
2.4848192257982262 26.844786700224095 -0.1632163198538995
2.4517213899085544 26.677069193380813 -0.17522926111358952
2.4736493372941943 26.66379707319424 -0.175470552836323
2.450701116902361 26.56116949323012 -0.18289801089055022
2.4167286799991006 26.42869213329564 -0.19266148401308683
2.3928376728966034 26.32012761791768 -0.2005185781061649
1.3936129708766107 23.54595938178108 -0.1284498517807552
1.351773513757994 23.354459107633204 -0.1355540155489001
1.2910581923654552 23.110427101490902 -0.14479084204307163
6.031011936119189 35.277995776620514 -0.13658188826601794
6.017776062687483 35.167308769112424 -0.12913846038183532
5.993593718739689 35.073483584481224 -0.12255119805895462
1.2329568383979583 22.867606293138238 -0.15388985544226624
1.1680220184217056 22.599775663104865 -0.16401355994925756
1.1055396689721482 22.333246581305993 -0.1739966469786012
5.964764680225867 34.95327439537214 -0.1141543246378032
5.938448796740829 34.84057072531653 -0.106303202826392
5.830187298013772 34.41303409076255 -0.2044846947164204
5.815032608130303 34.352033127184455 -0.19806646114988166
5.803945259737423 34.3000102272902 -0.19266174301962305
5.050839462657872 32.383584744670465 -0.16690610225295244
5.034367852140875 32.30234654790596 -0.14698479773343742
5.014465505849236 32.2299324453522 -0.13252684593626238
1.0315044769607455 22.02856001579677 -0.185525841261003
0.942863247699758 21.67611132363831 -0.19883315483567007
5.7881695464900265 34.239211568920574 -0.18624494659401847
5.7667898571501155 34.154495570307326 -0.17732785280858535
5.746141189508321 34.06045061123207 -0.1675670046621294
