ply
format ascii 1.0
element vertex 843
property float x
property float y
property float z
end_header
25.233877755379048 59.8660033897735 -0.692999917474235
25.355098674242896 59.83162703248618 -0.6843939944998907
25.41192833165662 59.83251975202538 -0.6913542509441772
25.523330150153978 59.82876080809007 -0.6620990340333326
25.635783839075316 59.7596291296601 -0.6765566339445327
25.705668782746585 59.77411643399595 -0.692065557587702
25.82360566044262 59.72965644998039 -0.6973031346943247
25.869169131922334 59.71697084652636 -0.6984558361133537
27.28947091776742 59.2908380753368 -0.6862039932981076
27.340576662666486 59.29613005773099 -0.6856578651567234
27.449666801066897 59.27238039057795 -0.6907349677712262
27.54570765758827 59.27966249153651 -0.6913592718060142
27.650432051104513 59.26589828379272 -0.689503319902345
27.76707061966567 59.22230374764021 -0.6839053488488075
27.83599781753312 59.21456984092236 -0.6869730115031042
27.940600194708587 59.19210712243242 -0.6859896771218336
28.04358562525124 59.164230182851554 -0.6886428443398381
28.13995519077113 59.1356131734086 -0.6965673202502816
28.19519912632657 59.066093628211185 -0.707490852874105
28.321746402898803 59.02207840004997 -0.7004866073478143
28.38982305284613 59.01203204723313 -0.6851759199691114
28.52864921904486 58.99664926865175 -0.6933593043897955
28.608033989001786 58.96208933920275 -0.6921097420495131
28.681555966040804 58.938017849678694 -0.6838724353362119
28.81279212003383 58.897860737806646 -0.6834998814657605
28.899927476132508 58.89086219886293 -0.6930348449183249
28.992204018658377 58.83611413002426 -0.6877626743933143
29.2751281181217 58.74539856197105 -0.7054281948883837
29.370355045358977 58.72698044007281 -0.7004320631328649
29.464090362207386 58.69781437850933 -0.6953187280366657
25.531604264851413 59.86847801870247 -0.6542959809434957
25.76197411198592 59.8352232218081 -0.6571569625724403
25.780770385674774 59.818551803987944 -0.6458638649702435
27.468125536064097 59.35109901443352 -0.670097397896268
27.55505479503611 59.32128539442002 -0.6936216008869643
27.644999895101822 59.29637639631799 -0.7041201971011043
27.73771912312022 59.26889587626222 -0.6997921047088327
27.855567104663244 59.22548962827344 -0.696017057843466
27.94883289406468 59.212423811133135 -0.6939776434519312
28.051318728509905 59.18747578073637 -0.6978816257192832
28.14128445313256 59.156276869491606 -0.697131204582276
28.205711443666456 59.128638833909335 -0.7100407430386997
29.80259982014348 58.67411113862293 -0.7099056394809063
22.903128769355753 57.88254448982772 -0.6029099757769784
22.974999874013832 57.8798553315606 -0.5344570687848362
22.972041122851348 57.881998416751934 -0.5677214253325251
27.78693272542811 56.63540593319713 -0.6731809994033435
28.018953937312105 56.57580393563203 -0.6754187934036225
28.279214727171826 56.499916840901754 -0.6761747221122235
28.290633129458584 56.497618871276636 -0.6774866182001518
28.60933803767199 56.41130156751546 -0.6818985528026443
24.70949834725033 57.60429399153608 -0.6224465157093227
24.782107096762864 57.57668679284795 -0.6274755317954533
24.88625130345673 57.54861387545857 -0.6290130370705492
24.95149725202071 57.533618340084374 -0.6196043685047234
25.08561152230995 57.49384403731457 -0.6330305234495064
25.17588657027189 57.4586736567922 -0.6364007436135345
25.31215069834655 57.42955608465842 -0.6334739898628166
27.698973052877655 56.69116456926896 -0.6673761387314024
27.76417963682446 56.67517392704331 -0.6653947921078694
27.836333006843535 56.662167468038774 -0.6629891300041785
27.95674479602769 56.615559073967006 -0.6674700946363741
28.046265565500047 56.612822914255105 -0.6584393971912804
28.142539443938375 56.58404638633182 -0.6612352991831952
28.22797497707315 56.549090113479494 -0.6664206396440233
28.338362967293218 56.52548792327451 -0.6619276893147229
28.432501387592573 56.507495399053326 -0.6588971245277726
28.527881646250037 56.48712604562906 -0.6623488731700189
28.631969322669566 56.4496126314316 -0.6638685821444533
28.714431547722846 56.44007355116462 -0.6569901115631045
28.843148112945638 56.3923098598831 -0.6695865490551455
28.880312508422552 56.39356453001866 -0.6651569016594494
24.650674236905722 57.635901364780864 -0.5661296612838024
24.704502559799213 57.630639933818266 -0.5948697977970956
24.794923386247397 57.60001202596826 -0.6105555517880623
24.891773426543764 57.56122586905505 -0.6147288054105934
24.990282712684774 57.53739456942065 -0.6133570476993642
25.07337352674519 57.5192826165902 -0.6148595240287709
25.170933563213964 57.48159378229402 -0.623291673780393
25.28626376863763 57.45810714075112 -0.6198144670311865
25.330724823985527 57.45122883218777 -0.6193157331820877
26.56785613399777 57.17861443292706 -0.5923889773471235
26.642022904911176 57.14558452178352 -0.5977831405324018
26.739962029672483 57.11188738733044 -0.6059158019914038
26.831198956848166 57.08062094086095 -0.6039661515790153
26.941129633065202 57.06377759981008 -0.5970375109140267
27.035577949420354 57.04655851867751 -0.5987685469092973
27.11442661544661 57.03073707376922 -0.5995840014369103
27.22618842942276 57.00079644718528 -0.5938099005050879
27.28243446440436 56.9869224484329 -0.5918812482846162
28.363880467907403 56.67557226787993 -0.681104691557652
28.665457826258162 56.50045835313965 -0.6466200925710046
28.87512186802585 56.500196621135245 -0.6634599099371566
28.91952492403403 56.50775559438839 -0.663508725000053
26.51419124912236 57.25640055213582 -0.5822271213497079
26.59580095533647 57.23358100034005 -0.6534537489688461
26.66560313088801 57.22131047325876 -0.6533100463420368
26.757003704254718 57.18193390521342 -0.6552511028341494
26.85671285939506 57.15383856389466 -0.652646916111709
26.947200968510973 57.12560155574874 -0.6550981657498418
27.054938470023764 57.10681005096931 -0.658285301260601
27.143964679760316 57.07383283170918 -0.6323290885412957
27.221742186852477 57.016604184616874 -0.592246931279972
27.328197509556233 56.992820297906455 -0.5859485842477535
27.398318820286214 56.968083539938725 -0.5810013600279179
27.94505586669104 56.8568310916859 -0.6682493389482124
27.99191120922826 56.8475733455728 -0.6702428172181523
28.12355304255953 56.79137055029179 -0.6718523815270654
28.168112175099633 56.76477831222819 -0.6690027167964647
28.309910582966783 56.735539174014804 -0.6717091102748065
28.395462387360993 56.72156171499648 -0.6730728666686078
28.48018499920628 56.7059433484499 -0.668286089674814
28.55255074153553 56.655357137214914 -0.6805484853053567
28.681024034135284 56.69206296429893 -0.6759649454671512
28.914716092494583 56.571170238306735 -0.662105486740291
28.96909605878347 56.587355015838924 -0.6581156134720408
29.08799608393443 56.54982717686161 -0.6629044724436891
29.148257187677533 56.531758200055776 -0.6395319971227668
29.288575803101832 56.493353908129535 -0.5995445272155681
29.36233340342687 56.46436366658374 -0.6049828757272415
29.45991641076981 56.423822924020314 -0.6084134875338958
29.55996769925831 56.402907095831814 -0.6480659043669817
29.64726652421874 56.38724391634818 -0.6602984308240829
29.756603170682002 56.35424521760117 -0.6519578301983244
29.84077922766103 56.34809731374385 -0.6464092028929417
26.535238806400844 57.35213619232477 -0.5844128745954211
26.639169798298855 57.37330062460381 -0.6555144413067491
26.714094844592175 57.28357055682877 -0.6500254055307895
26.79902116549055 57.28393744585865 -0.6546827855778788
26.894297229343984 57.29470907218789 -0.654788473186255
26.97455569155318 57.27159190840311 -0.6565233346698188
27.092672979995108 57.23220551064912 -0.6588288691980594
27.181056330188262 57.190057723333325 -0.654748674910338
27.27548365340602 57.1596107112952 -0.6609640653110272
27.77832359087183 57.00338403394759 -0.6591833162708527
27.841983989970554 56.98384561663573 -0.6680645986246587
27.92223785859521 56.987378646487215 -0.6647397196117862
28.593118038163425 56.77127109669323 -0.673187287855718
28.716784703661286 56.73823469798502 -0.6772777510389066
28.898459591662267 56.72297600714989 -0.6746077419364571
29.0252846626763 56.66067709416955 -0.6606105129889366
29.108368491472067 56.62702496594227 -0.6631364255848919
29.195863452942046 56.609248973076845 -0.6668533441608286
29.27775068275791 56.603927724019556 -0.6581363980791776
29.588302754836405 56.550083965171794 -0.689282411339754
29.668953978158573 56.50110220836183 -0.6722467540524296
29.73510459958722 56.44340541756293 -0.6758861911573026
29.86853324861299 56.40077719191576 -0.6521617111710466
29.955622191955165 56.41900046394377 -0.6850819717521771
26.559933654496565 57.44464616916876 -0.5846552335970454
26.637102441499092 57.397555610995425 -0.6556886026895827
26.830933062148272 57.3291793697983 -0.6579559103020411
26.897607698348107 57.313975428824904 -0.6580115071381909
27.00426894503711 57.28828688760565 -0.6586095362078453
27.099983135953007 57.262616384849494 -0.659392128488498
27.164267105851646 57.23964546823321 -0.6605332187532515
27.29123386186044 57.21073460307877 -0.6630928361881826
27.86645027985968 57.068212762543304 -0.6687578578951666
27.949613388137223 57.101505492575804 -0.6722050554143167
28.74261403042201 56.83123149170475 -0.6689104815937903
29.534814223133207 56.5736072254285 -0.6727070415409568
29.617080191614612 56.54610584522127 -0.6860587167832503
29.978127126240903 56.47982799090413 -0.6874882801259168
30.073758031202527 56.45791711197641 -0.7023075000536663
27.773955510115194 57.25785841616676 -0.6705924698608284
27.88904511934836 57.18916206827473 -0.6684804426035111
29.919905931822598 56.58804251396824 -0.6648898525288796
30.009760697097985 56.555057067519456 -0.6756530905631364
30.117704695904884 56.54158561556057 -0.6615374456370409
30.224118710821035 56.53563394855489 -0.6725044570481307
30.287996888236606 56.51778052112757 -0.6720300929005755
30.512266147459204 56.44906499622048 -0.6912551097027617
30.68285968274764 56.44190372454085 -0.6982940427629111
27.754496352459547 57.303850371209236 -0.6696378841974395
27.7788968113015 57.28606410167599 -0.669011419453945
30.701577428043507 56.515095508765675 -0.6815565339529683
27.801718853088182 57.46392080235314 -0.6695969328230776
27.82258852723296 57.42050644381053 -0.671669907115821
28.10405670090382 57.382801020176935 -0.6755078728479098
28.110260470605276 57.37806853466563 -0.6752744325612002
30.715586323434778 56.59197924772094 -0.6794455587410955
30.99621162460228 56.56525290143824 -0.7122426880792246
31.146495715446274 56.52213859679232 -0.6945397211839652
27.786865751984198 57.56367634317216 -0.6705718243215475
27.916319705962422 57.49992181086024 -0.6710294954377524
27.952136398061512 57.50352902643279 -0.6712519309875076
28.087865036680896 57.42359504610906 -0.6737165959976553
28.12140193772579 57.395330590438235 -0.6710672280002432
25.946573187319036 58.189571733155546 -0.6444510801245377
25.95903392354953 58.17994401871956 -0.6437511558334331
27.795728005734222 57.637907882132986 -0.6693763631375903
27.90884993701347 57.555796527823155 -0.6704960802758304
27.98627321812259 57.55314206825355 -0.672996365086046
28.2272717731796 57.55533732330569 -0.6750531563256302
25.804713690953417 58.2551903467614 -0.6189724367320522
25.928231761921253 58.25682967483621 -0.5971378312028134
25.980674099158698 58.233254561237715 -0.6304007879802902
27.829919034474138 57.69871044308418 -0.6703174757321804
28.03919041463004 57.61441633087337 -0.6717152406369402
28.146235227488347 57.66709441568856 -0.6731405072035814
28.222540706493206 57.57912554591998 -0.6745341814670854
27.82764871053478 57.857418134378214 -0.6698030962633722
27.862657589794345 57.8563274310484 -0.6688468279664379
27.98342905423606 57.801317673349004 -0.6716387277131368
28.099235175224162 57.798379571063506 -0.6726901851719443
28.285329089500227 57.693767362917775 -0.6719725119214092
28.320859768910296 57.70269425278159 -0.6762976471525158
27.738621549166485 57.91920807433087 -0.6681305846326571
27.7790373123588 57.909867645065695 -0.6694446702188548
27.891767117755744 57.87465318625225 -0.6700981507842779
28.00400377773604 57.893261021491774 -0.6701963906878289
28.094131227596343 57.83915317217782 -0.6719711748775766
28.179144516133643 57.83756194015093 -0.6701212504281027
28.27271215534221 57.795230095710146 -0.6716184223455646
28.40325811968577 57.79469232322482 -0.6731495488066334
28.45612528949602 57.78481647097939 -0.6737515230531844
28.61006758158816 57.68268213164014 -0.6781482566921251
28.644250882712967 57.707990952139745 -0.6731928439407385
28.76031962640289 57.69726783428509 -0.6775607944798051
29.006531045059813 57.640604888821954 -0.6750943660274189
29.029235786881056 57.632835650744845 -0.6810149776877045
27.934655641748698 58.005835530380814 -0.6696674370367348
28.021194297366776 57.96182882683628 -0.6711151211430406
28.127500246796902 57.95766846117625 -0.6720292602306781
28.196651361026046 57.90559027313545 -0.6720781569486408
28.310596487437653 57.896862424033394 -0.6706622125813626
28.411437684370064 57.880070351998015 -0.6711427582042991
28.47027402858371 57.863399544240494 -0.6742119675700439
28.758648275306786 57.73796472433517 -0.6774796424407014
29.010035358065807 57.659189807316494 -0.6698266903520619
29.04820004560563 57.658463911209694 -0.6725357091730628
29.221660110410788 57.66867032481845 -0.6666644312877228
29.276490865137163 57.65721925076616 -0.6717143501563029
29.352056174239838 57.63372280895558 -0.6762528916370513
29.441455126327046 57.6072885820706 -0.6833976441581858
29.79126814802782 57.51547991473393 -0.6853304403160657
29.860007750840776 57.49907064054826 -0.6871302555060843
27.985990267249086 58.12616862700618 -0.6695274380274285
28.057067666526052 58.09242027283398 -0.6700661636545736
28.14559698486014 58.070945062389924 -0.6707353879711604
28.231693178420272 58.018361562313004 -0.6727646402720929
28.37357082379497 58.016841050181824 -0.6714761660046176
28.422358232171213 57.94896582715096 -0.6744030231421739
28.50763926276952 57.92321368287752 -0.6750412396932091
29.349681956080605 57.669651100787206 -0.6547774435605697
29.46405567282843 57.67771079086602 -0.6783158285647302
29.708353541426156 57.609208444335785 -0.6745080384183472
29.75249820605782 57.60196990627123 -0.683678271786722
27.91201151973735 58.174050960760624 -0.668408806609344
28.075941395884154 58.21154678369814 -0.6709062464278432
28.18496002317817 58.12140874216849 -0.6718634651538437
28.376850882309707 58.04693569189114 -0.6736188297028219
28.467589435146106 58.03972105249671 -0.6724940915390043
28.51025208810725 58.0458300072824 -0.6721999593071766
29.64111316748449 57.697283991852245 -0.6864016191260671
29.715329657669876 57.713815932248494 -0.685558826948981
28.09737202458981 58.231835311964716 -0.6674754333330571
29.79989390065883 57.74474172032579 -0.6785226397456942
24.295959928899958 59.481461669137104 -0.5553118184345321
24.45441138592058 59.41913639461088 -0.6128164261813029
24.54775733365589 59.360205202777 -0.5814154182813894
24.619937206925414 59.34026670878288 -0.616529008214005
28.03405291357475 58.417976064832125 -0.6695829084188935
30.266276695795085 57.78626831029011 -0.6796712026931371
30.344249413947033 57.760142498778215 -0.6825210686997113
30.425424687551036 57.734057439054354 -0.6731090310320221
24.21326228581203 59.53550188764641 -0.5799523655052364
24.290401748603454 59.49213759537184 -0.5631843598737929
28.2010412253925 58.48908836396927 -0.6688282129061278
30.35628768083226 57.80058615122406 -0.6661814042032388
26.925203994272668 58.91349790895047 -0.592298285994322
28.192355795866746 58.541526826657254 -0.671828759303124
28.217232428359768 58.49687908103183 -0.6700763429597646
23.54113640258575 59.99390543170698 -0.5626417601714012
26.955129708148245 58.991692630513676 -0.5999203651214111
28.159649165049203 58.659603828091086 -0.6703580625588687
28.373594181479078 58.61802933624068 -0.6648078466946377
28.576243570935727 58.54494430493752 -0.6756708915439315
28.72083775594231 58.5309521016809 -0.6655892273697633
28.756149699634825 58.542244653511474 -0.6643981163973002
30.47338718454004 58.05588017307832 -0.6286296996877321
31.557203948993656 57.73873204900411 -0.622519964478662
31.65692969454498 57.73210090239729 -0.6192911174468405
26.979278440351756 59.077131230584904 -0.6023300696318656
28.446202701467286 58.65760703665152 -0.6742973290393179
28.621893482893526 58.62442570491876 -0.6725004039157713
28.772431246751516 58.57028843330913 -0.6663072447923383
30.908393367729317 58.02214908564673 -0.6760535239350765
31.032533740369903 57.96206394448506 -0.6918535127839333
31.367720614736093 57.913492941492414 -0.6120689665975588
31.393261537520196 57.830325944526926 -0.6157097891622213
23.22269892922153 60.20024239277816 -0.5978572279804883
27.00595970927533 59.18627600843001 -0.6028184907986178
28.580018204003576 58.70895025601882 -0.674405922152872
29.468078984620675 58.537858416533005 -0.6627132213819091
30.024359049933633 58.365844897799334 -0.6519508782238195
30.119329262238395 58.344674471867016 -0.648393488126722
30.19669053878519 58.319778322924044 -0.6438157592349646
30.28635626572177 58.29881741028651 -0.6446801320125317
30.3877560570218 58.253747501307245 -0.6457162321127411
30.463314289205652 58.2354043843834 -0.6485100314867441
30.74619315396627 58.12149353561776 -0.6562768012742024
24.012162804651506 60.18460440067352 -0.5607538371592801
24.14433626009319 60.14829818483198 -0.594781658107694
24.644205389969418 59.994682952522396 -0.5995946825430906
24.69245645513391 59.99367470648335 -0.593618857691882
25.091394523905485 59.88465959535421 -0.597116051754789
27.040835284597755 59.2984408589359 -0.5954334274805168
28.366000620059644 58.95785091514871 -0.6622317233364494
28.97996750387375 58.75944654352117 -0.6736818298706375
29.031285605027218 58.72340037477229 -0.675010621403182
29.487100000342505 58.601089189495724 -0.6818300159142746
30.022975866108855 58.452428796039555 -0.6818943008149045
30.109480185162052 58.39815401111967 -0.6740510861174928
30.198432311240328 58.398354467088275 -0.6689961193184124
30.39179259917481 58.34386527355191 -0.6684874946039139
30.789681785845925 58.22339398942447 -0.6761394643154857
30.85248765436928 58.18899958311088 -0.679960379958639
23.806992031793477 60.313600353893854 -0.5200871233221109
23.923086333711034 60.24543118978203 -0.5166404061583764
23.97927757811319 60.21301763521225 -0.5737494770779726
24.081753422458927 60.17985639983408 -0.600343953301211
24.13544809504611 60.163743486813146 -0.5971836561881292
24.27481206056415 60.15459326523809 -0.6128811577559055
24.679963665451147 60.017315327169555 -0.6137794214142039
24.736586720434655 60.017313243364356 -0.6162096217430032
24.83792875281597 60.00018052743659 -0.6176066979993917
24.92697960315089 59.973113284004505 -0.6181774319761929
25.043924347678416 59.931260005856586 -0.6155648944837329
25.141273024464688 59.91810040792809 -0.6230506806592934
25.230873525946418 59.891044264553805 -0.6217009341266139
25.337793148362707 59.858025457096176 -0.6186634256993
25.404723123960654 59.848027198307854 -0.624769096532543
25.51684284261443 59.82109243054695 -0.6203481876419403
25.644768242941634 59.80406859565988 -0.6288583884434469
25.715984193059693 59.79900678445566 -0.6318664023015452
26.40554674216613 59.541722784801074 -0.5969071176019646
26.478230254041435 59.51847144157818 -0.5966809158754777
26.553635880720357 59.50155796343244 -0.5999566303595543
27.077730041468953 59.360043558099704 -0.6055415922043506
27.153481267821526 59.3407196950367 -0.606808478272403
27.270799257467555 59.32461337847311 -0.6052686828511399
27.337425458224118 59.323017632517136 -0.6206447949661673
28.35680500786839 59.050471044695854 -0.635045102851953
28.402234803765275 59.01279032070376 -0.6174110833987821
28.532553809966313 59.015922463179386 -0.625846257661077
28.613286543799216 58.988270625276805 -0.6206069239430523
28.694863166666334 58.96462712998124 -0.6260390596944627
28.806172836007796 58.93127896426372 -0.6366303543552314
28.90152254820532 58.88433845761315 -0.6234089914965524
28.99011480960261 58.85744522229109 -0.6357996782172072
29.079732993621175 58.83677533128628 -0.6114162919450741
29.2120377362924 58.83002848155786 -0.6217058785053982
29.29484267184165 58.78829723295053 -0.6121564175030183
29.3717779289745 58.74908336077419 -0.6052229388620984
29.460036028561646 58.72383095698332 -0.6212878641894473
29.549363050614105 58.71222140605689 -0.606220906290163
29.87041342288502 58.64918835685837 -0.6167547069978118
29.940735331948222 58.59915827412563 -0.604535900257371
30.066510584078816 58.59719359183475 -0.6227951966357342
30.338213155222878 58.49944324202794 -0.6066985188367957
30.458860146388393 58.48232744207537 -0.6089990608415623
30.979923246145727 58.344016086199865 -0.6116317398027531
31.39921629318138 58.22279370054335 -0.6237510640029349
25.736770375129602 59.81037647367827 -0.6351392614823669
27.40403366767272 59.35514700337187 -0.6379606919002604
27.429060909739068 59.35051260441788 -0.6509318884638163
27.523795268209483 59.324295273155826 -0.6581253170009509
27.882976853429135 59.266186337124104 -0.5671619481428731
27.973970964893997 59.246795541535406 -0.568197634185568
28.14920514771753 59.199671106952316 -0.5719004573483808
28.41567735306231 59.0861489271737 -0.6187783548171655
28.50745518091644 59.057271705771655 -0.6366238769146764
28.59313241225058 59.01515449455781 -0.6293052211381438
28.750354436218938 58.99226153631659 -0.6366428921579009
28.77862525311144 58.990017331520626 -0.6389243968012656
28.87987013513974 58.940194387466605 -0.6381540920101817
29.197757533771373 58.85103072251295 -0.6222444141890847
29.277871051846475 58.83339568185072 -0.6257801875328309
29.43827706440474 58.790147966198845 -0.6132683559421225
29.687638070593863 58.72286423919639 -0.6338439337293587
29.78565547246835 58.71389587376787 -0.632715094422361
29.88105520451648 58.67895364063804 -0.6247695228333046
29.97721136235392 58.653742380615476 -0.6223368299885298
30.054989530769532 58.611635049007184 -0.6106264367423218
30.13472835868998 58.592309542641054 -0.61955807273766
30.26419896213274 58.610861588643814 -0.6312598748911268
30.3797618083951 58.566992480867874 -0.6431156164791327
30.525476088732415 58.479784467412436 -0.6218372997912938
30.65053939137058 58.46588319132419 -0.6169059372444015
30.714001158411417 58.461421611576164 -0.631116073278014
30.864792936730215 58.40871904254538 -0.6330037859594133
30.92150778630077 58.39226555732754 -0.6234262979779328
31.021510347952578 58.389937842099556 -0.6186167714946113
31.11980310706017 58.33297578297779 -0.622813105719192
31.27798682084079 58.31922392900865 -0.6193340430980705
31.309801422045137 58.28717061556692 -0.6223480300267172
31.395399373520895 58.23956231677514 -0.6198137237549494
28.303733382088147 59.23619153931891 -0.5727339456938091
30.397809311498513 58.61868983153556 -0.6491047039882715
30.428243535349818 58.60446762986745 -0.6591790658223916
30.567835711595457 58.6310578942686 -0.6661180061126356
30.989405332746486 58.48646804246596 -0.6679109569833453
31.010054011014553 58.45147158793186 -0.6456495418519366
22.973748780652553 57.864903840546035 -0.4527744789015011
24.593323509513493 57.62774947054382 -0.5258607687488526
24.63441360147625 57.637171589001696 -0.48859279652721355
24.67596971718218 57.64641456134553 -0.49151532709039825
27.423600050220493 56.943748223822425 -0.4910675537709898
27.415677334412788 56.95926590583681 -0.5311729770802155
28.989851607620377 56.55002574412642 -0.5237013702533471
29.090786201996643 56.545924188925646 -0.5466650252119246
29.145562633400186 56.52476376541539 -0.5660463686396686
29.22729736419128 56.52310603354131 -0.585958434794563
29.36303673842566 56.45904067820147 -0.5936212649276381
29.47833602650382 56.43103769167723 -0.59256137396796
29.572356561943714 56.40661860814546 -0.5952505126568346
29.76971817211767 56.3528940848378 -0.5922656488051091
29.85673460189127 56.34694834812616 -0.5646158562951136
29.90647383296757 56.32243088457127 -0.5553501236577668
29.756839750827808 56.41182831924945 -0.5225922242239887
24.39666887933058 59.42894409050064 -0.4907754985318105
24.46045576279647 59.39502317386976 -0.4430258248276647
24.20971527111715 59.57064633705119 -0.43756358864826594
26.92936254605174 58.907864349919265 -0.5089765512686362
31.21212388134323 57.81656186767743 -0.5611985194646298
31.32544898396238 57.81373796652221 -0.5848826913350955
31.377313568173335 57.779288545619046 -0.5905563688275507
31.465551707977365 57.75943621630737 -0.6062264979548507
31.14348263058173 57.953277107435305 -0.571660952786989
31.24328776828804 57.93000996648305 -0.5907687742164814
31.322450683673708 57.86273974638593 -0.5882386732594566
31.40718019593754 57.87776995961611 -0.5995794726806238
31.765161117152232 57.72407333348779 -0.6075964198513824
23.289638530675095 60.244833999611394 -0.4513156912028445
23.36324492543209 60.222115601489435 -0.42132423060345925
23.432872002610438 60.16068577283876 -0.42991851007039616
31.192419398590395 57.98459460941325 -0.572401840481717
31.282671549562473 58.1174297327236 -0.579483361571621
31.367892566680602 58.07104286462246 -0.5973035033124169
31.459516394880545 58.028669639762846 -0.5934261882071583
23.799357892367855 60.31564127902177 -0.48962730314337854
23.87673759050933 60.28240266931965 -0.4784770970476907
23.93089387727844 60.246245340968535 -0.4250856462966784
26.60895311822624 59.53425326639633 -0.48274371558913054
27.296983021065227 59.32266291657001 -0.5060796062079355
27.301544411347024 59.30502124047371 -0.4895131564232647
27.430062742044516 59.323436274328614 -0.4669877884155584
27.564977281834746 59.2929945662369 -0.5383818703403829
29.898715705598388 58.59333626807039 -0.5910458599232821
29.94371540448396 58.59046744856274 -0.5912470928193105
30.343845012145536 58.497841427443504 -0.594417191782573
30.941641656332116 58.35511577650682 -0.6024534610014016
31.02943786631773 58.3296988094375 -0.599051884561864
31.13385274803116 58.270070986121 -0.5879002438576624
31.232973574434624 58.24097766050995 -0.5764810771413166
31.321308209631002 58.19216820374632 -0.5873537161692665
31.406518752045315 58.220716669556296 -0.6078257597981532
27.45562916390378 59.361416407024805 -0.532013521922852
27.577957605457605 59.30125794951595 -0.5435243170554965
27.618978677503915 59.30424730295765 -0.5503089551736097
27.77587945511008 59.26034703697602 -0.5536062764866551
27.879602978663478 59.256983238527575 -0.5596597616703289
27.956686510867346 59.23585815268537 -0.5614586415762554
28.05960384147414 59.21349604607737 -0.5637981581427851
28.1327561788586 59.19944144780917 -0.5646221730501483
28.391016816617313 59.09306757627787 -0.5536673762823675
31.040335330149517 58.362813783524615 -0.594582977992379
31.13014991017873 58.3300327656272 -0.6002495573736571
31.22586290630348 58.30312067197562 -0.5966756246428588
31.334871140966033 58.262085308628684 -0.5998499967772327
28.30292666859917 59.226022975547224 -0.5576319610618
28.328874033246805 59.24733939154754 -0.5659273070329623
22.888412334445444 57.84524041539464 -0.35873015157218036
22.958031267628662 57.85932017248199 -0.4005198308833402
24.59824239700315 57.62942626349951 -0.3708559715628385
24.630229032530245 57.63971913774921 -0.37402144102263735
24.665969845396013 57.646851364970765 -0.41473682906397474
27.42868565561801 56.9340655708512 -0.4104303818170449
27.415381919414205 56.95955826871293 -0.4392635211550771
28.981641451493925 56.550866637133375 -0.4319173949395652
29.072595375265053 56.54438758756151 -0.4396689103149547
29.134764767567283 56.49629759836123 -0.4445471493105809
29.8026106333077 56.38047805706023 -0.4444255377772483
29.86290637453753 56.34577320244861 -0.4555632466351373
29.906234503714515 56.3158453702327 -0.41810351176062416
25.921735862015954 58.223525166604986 -0.3925758202665992
26.19458757192342 58.25863051618489 -0.40361284668032726
26.226605202659428 58.38824948408117 -0.41892664540948077
24.385950998992453 59.45486288721698 -0.39679911891623454
24.469000387073258 59.4032275145699 -0.41275245646563935
24.30103480234508 59.51713441394695 -0.410407465342616
24.371921874941478 59.46373664713316 -0.4110996495289044
23.985034363663974 59.72628476152248 -0.40380196343995683
24.1363206055873 59.63666394008514 -0.37024275491385067
26.795415660934765 58.933237429640876 -0.39573566999493176
26.932112921714715 58.91146248276606 -0.41361141676184815
23.88288713728537 60.27198556653119 -0.340688263432527
23.952915930325677 60.224934627416935 -0.3849095586815837
27.425914698477182 59.30963283670664 -0.42553780707055
28.346956696363563 59.06467068732698 -0.39799627719764197
27.44159037073686 59.35205348427791 -0.3783244565903571
22.911601496739188 57.82697241165924 -0.2650919589415544
22.96946617357136 57.805006297846816 -0.229808949993287
24.583220423631268 57.627336991803766 -0.2855498020306422
24.620006710552097 57.63916608243544 -0.27724648504485
27.42947313364723 56.940992268830996 -0.3321111233258981
29.00927041271184 56.50011542835806 -0.29638602368091166
29.0379831138184 56.4909871109994 -0.31736327042708756
27.42671778060809 56.954196767744904 -0.3047774082464512
29.004141781955497 56.55302480985348 -0.35812115094737423
29.053525510191786 56.54624211228249 -0.34096754064122126
29.123383987501185 56.50279759043342 -0.33799620661164337
29.856184528715453 56.3434497847509 -0.33678962106169624
29.91328465180538 56.3180935193029 -0.37959037965043735
26.60972658201152 57.65434962252723 -0.2634633269170765
25.918841961402688 58.17846294601383 -0.28781006524918856
26.933849859773904 58.90843934078152 -0.28092175740072434
23.27060775701384 60.24168277190325 -0.22072689221323089
23.337728586463644 60.21443150029675 -0.22870233431549475
23.124144263669745 60.33475530841701 -0.26447717744544386
23.150938290179354 60.33013303216778 -0.28095751684313003
24.011133338723383 60.17920549279839 -0.227816353584878
24.054931974336885 60.16491565874894 -0.2458526459492295
23.818507526495292 60.315434434101284 -0.30163998063225406
23.849052061117636 60.294078984530856 -0.31401052512538197
23.97947113775388 60.205529081435756 -0.24785789394391977
28.34825133915187 59.06355733509672 -0.31785363803015404
27.442847488292127 59.34512726297699 -0.3047998406662614
28.360752250405806 59.076378553813946 -0.2854593826824679
22.65282119144884 57.754557789582115 -0.11148772140968394
22.78425350027972 57.770542013046736 -0.13606466598181827
22.91622817811396 57.78911479779032 -0.18513642197524713
22.927033363650917 57.81944603463155 -0.19275102669140487
22.975406641863096 57.80863285867812 -0.19531210269027044
24.591303024146775 57.62719947717335 -0.19868840065720245
24.617752767677594 57.635481047065504 -0.16621765675605693
27.432571168506126 56.94450807413097 -0.20003389348568684
29.003705486249963 56.50843177255069 -0.2861376843418129
27.42670629658882 56.95853864389768 -0.22613289979143164
29.003729202791128 56.53747942239251 -0.2336677725973993
29.05696631752109 56.54025012509299 -0.24664542718832227
29.853010505132296 56.341698830608834 -0.246581334640883
29.926300895735682 56.304054959865965 -0.2715211749713653
26.609249715027154 57.65391437136537 -0.20209596951748676
26.000970580062024 58.27960625766033 -0.14773446270940044
26.257285615669765 58.30117341523183 -0.1671702735123187
26.255271154866026 58.34152133912463 -0.1938419743234132
26.93378299070937 58.908480197643236 -0.21916240542720417
23.26056376625383 60.26241953701776 -0.16136603820418227
23.36601489505986 60.212627977206246 -0.16563605700569187
23.47732420753236 60.14793643201881 -0.1616796723994924
24.035069437972076 60.175883548852156 -0.21238648219396195
23.839637056189943 60.29907204408054 -0.1502087410840252
23.884919687552923 60.26469614250415 -0.14835835461296865
23.954493363685206 60.218016505060824 -0.19581378096809543
27.44221263864717 59.33011784288216 -0.2471167134055426
28.3600284204728 59.07081364179344 -0.25615060888725566
27.47747180529073 59.34187060525176 -0.20549009923763117
27.60063869959958 59.30324761365044 -0.17280526199685947
27.63054503970605 59.30486410460033 -0.17770526558015987
28.247440798742428 59.15370623723575 -0.19086432278695997
28.372576451318274 59.078969058281615 -0.24419659162973828
29.706273667260707 58.71332107309281 -0.26870699255005615
29.808595704706647 58.737170638558204 -0.23152423346206658
22.769061651102305 57.74329019469439 -0.10957590022125957
22.879578957332562 57.7490828372153 -0.09215544405986298
23.082906054879782 57.75995009294273 -0.06026806689105773
28.071808067583348 56.55074442526041 -0.13041821331034215
28.09850881633589 56.5322429214142 -0.16781584609683856
24.58658292537416 57.62454257698105 -0.07507012136443979
28.056805486921384 56.56965013788207 -0.12862848318981
24.617202078904192 57.63572172626056 -0.08750638927017279
27.434186463582375 56.94216430920786 -0.12499507679598544
29.050561267178203 56.46711718911105 -0.12253921209603169
27.431699509654372 56.948719854474135 -0.08859477329447137
29.008251124378074 56.55314768956662 -0.16311019637365148
29.04012086351829 56.54624025562313 -0.11733614557469058
29.80227019419551 56.375067107917644 -0.1574105832695356
29.852398183528415 56.34801185818393 -0.16910429549440684
29.937366499852736 56.287961570559474 -0.13879591599801014
26.611078184237883 57.655775442196 -0.10669528228230409
26.244242349840484 58.2948886485256 -0.11155439489907344
26.21169857688935 58.39094504781015 -0.09969168696253658
26.252786938093543 58.33831892862232 -0.09850654075364351
26.934439060326003 58.907061156920626 -0.10399123852612205
23.249891592054475 60.277097935247674 -0.02441779871437782
23.319832713589058 60.23884532539421 -0.0831665841179024
23.12901389646415 60.338535684257984 -0.1030562817072487
23.20591719657903 60.30873128971753 -0.07291714783624868
23.06399359385724 60.487569313882446 -0.061773324309816184
23.81885910477212 60.31521571551589 -0.05732095805849047
23.88575154625689 60.267351875612356 -0.08115827321748019
23.979069419265077 60.21743338650765 -0.06819615992147499
27.448590515612505 59.326821873958394 -0.08920838552862333
27.56135430433109 59.293964104361685 -0.1253997129180125
23.75590776560881 60.364104900122065 -0.017749514418807538
27.474034445251366 59.35154074214514 -0.11488943967441578
27.576719031825114 59.31442334455948 -0.11824673732036575
27.664310565291814 59.30306573704066 -0.14442450879614263
27.761805521857134 59.27176179227653 -0.14462188278615656
27.862870257238345 59.246792504779926 -0.11685373589478518
27.942456061993905 59.238217453171416 -0.08354828856525048
28.245264090504755 59.1554011417473 -0.11954836528830715
29.8209029286887 58.73982592353449 -0.13302645630914228
29.86453497745391 58.74384304022872 -0.1392927987510941
27.586890003123703 59.4147915837339 -0.07593973017584205
29.91599795043805 58.75424546132919 -0.1761575848686951
28.066074751789497 56.54561945040288 -0.02688993908448898
24.61147921508089 57.62697794838877 0.024020555834186108
28.055256539475533 56.567886696295396 0.013527322372800646
24.634944804454733 57.635328310976035 0.010730701988865318
24.665500474311628 57.6430950267936 0.0019370430118875737
27.441474496312203 56.925008834549814 -0.043464339347949216
29.00835240856222 56.50138708486944 -0.03943912431630902
29.02197229780486 56.496578585883 -0.054064920748252164
28.999450920887128 56.55711462509901 -0.02962866320239423
29.05569773291327 56.54962362823303 -0.04336288327290419
29.88241853499816 56.31592858482924 -0.02117140082344761
29.935563396342857 56.27877536405596 -0.047503110114336486
29.994492567597582 56.248282845604706 -0.08254908184046243
31.187150998783267 56.24865045462733 -0.047892478710588576
26.611384296123276 57.65568336601132 -0.0400086600488878
26.01270316127853 58.13250876221005 0.010440529052540629
26.169262308919176 58.26824284993699 -0.03374234049540065
26.23349397420785 58.30674039957385 -0.026305718656564815
26.220995509558165 58.39647097305276 -0.012606727194295793
26.243146833087568 58.3463652084905 -0.03345802362541658
26.93591602900622 58.902114473055406 -0.006559755526427173
23.134071841493757 60.323176682245304 0.037217385164178746
23.27635600485884 60.256932854682326 0.01747113294888232
23.365322674147798 60.20179680995676 0.015727218756197717
23.004395151943854 60.41015866797245 0.07627796243506106
23.044831943689033 60.39413693908657 0.09276334518045139
23.028192092789393 60.51001601803098 0.09482976571133274
23.79152482573395 60.334345879203006 0.0039056500160578184
23.883074364141393 60.265897987478084 0.04016505555202911
23.983188552493093 60.20617082523743 0.06199056257754644
27.436313292278705 59.32900243980935 -0.013701823870461906
27.436049612308977 59.340259517400305 -0.007860505735259822
27.993565020067855 59.22764220965 -0.05651046231595118
28.059462616709762 59.218591381997456 -0.023057313528383458
28.12891133764034 59.208773721854456 0.012652798451640315
28.25547709192123 59.16288035135282 -0.023666817960720538
29.844133867464002 58.74168370273659 -0.0839090125036937
29.88274726706855 58.74399353765887 -0.04712097073779771
28.0670376380249 56.542178739196956 0.0804621398595199
28.187894957753706 56.52416174786257 0.04058147491068169
28.201163406624357 56.51290423888173 0.0332163876578275
28.060860182260292 56.57110061851886 0.03014921498461476
28.17234534916637 56.5607491162988 0.08241379595222152
28.196532560135104 56.53038070212092 0.05098523408705573
24.644281444146287 57.63273364423962 0.10756185821955631
24.66879941488235 57.6386100321554 0.12712177867286562
30.021361911052 56.21661363380257 0.05217133205902992
28.972612750739398 56.55307671355819 0.05487805825599337
29.063896966246702 56.538938741478724 0.06516703496180039
29.9497348977631 56.27364111438985 0.049658826514486026
30.006710801776222 56.24630140216381 0.07084291238855996
31.076367034034625 56.30032941068302 0.03104749693086402
31.18641874108543 56.27023663292525 0.03308885009330946
26.106333792541943 58.27301206928476 0.07089591284956591
26.230716400950968 58.35535488561111 0.0689171011481552
26.93616195937461 58.906336413677316 0.08428633462880457
23.189909119972143 60.28150874650788 0.12075480863322093
23.275224886235076 60.247603322884096 0.1293044956767358
23.354636322289316 60.22489733055385 0.15375182116128072
23.434954164525063 60.16457494966892 0.15657446629223587
23.035267535618836 60.37760541156267 0.11052874453603333
23.13319772409812 60.398050883502435 0.12046009382793137
23.20568612634652 60.36854607368517 0.15531458151208927
23.263396886059237 60.31425972743321 0.1267308320637513
23.047286156452365 60.494253027408305 0.12952133454786263
23.11337787000346 60.457646123219874 0.16984802827355383
23.216008657812 60.42053958956885 0.17263650129442143
23.801230422150724 60.33537786448389 0.14846456892752458
23.887567932996067 60.27409048472365 0.10802378078010146
23.96711722054608 60.22344326460861 0.09014264589115877
27.31705729201394 59.30910070534621 0.1348667978258109
27.43509862769994 59.315413046331884 0.06367910082102679
29.263704239142093 58.81571081595744 0.07334150442047803
29.69192264524105 58.70053746322293 0.07583791735173383
23.597170012442415 60.43175936797804 0.1840568021944547
23.739356127423616 60.370855186562736 0.17436653841687016
27.4818315821927 59.36056835923587 0.12307091638951724
28.27058980146035 59.18112430683467 0.07692563066689904
29.31087233869785 58.82325663870562 0.07311722783834552
29.39465924967095 58.820700470733705 0.08221680045017037
29.48585167911337 58.80244870946168 0.08469100890412966
29.591142723234416 58.77966637083865 0.08306593620467599
29.681917891070213 58.728040033470066 0.0852663497157609
29.800131472225473 58.72069423647816 0.07577866607243978
29.866885950171003 58.73084842709603 0.04771830321721404
23.317246149420804 57.702762999589865 0.2644359330787309
23.35372519023719 57.71189945018486 0.22080214021107314
28.069348889588717 56.53900721718668 0.16824667802137278
28.155453501413714 56.531149592517345 0.1659191265549455
24.607937851967566 57.621114956346034 0.21886831403585244
28.17516793874542 56.548592561159225 0.17460236332497653
28.196622708313495 56.531010920617256 0.12330054651967524
24.63757867635765 57.62777235481135 0.22055848994415528
28.928717799809597 56.57369593362578 0.19940150785313138
28.976745208595336 56.56751117559237 0.1591354249873999
29.04871115845147 56.55440681322465 0.15340904375722048
30.02926828654797 56.273015206695824 0.11189680735944989
30.15989507041233 56.24794231541263 0.1328814748791936
30.217722727346484 56.24818084592143 0.14473538241513928
29.998439232366398 56.34893399502053 0.10595140179373962
30.191979537861634 56.286839340416705 0.13773897158704462
30.252574979211435 56.27998181434203 0.1461621600567964
30.37028556324777 56.249641707678904 0.16019126357870195
30.43279448345927 56.25108325462491 0.16073274318343123
30.55244102888549 56.229544292547686 0.17202261593078222
30.6342088728165 56.22075499461036 0.17677618612705237
30.77233858503508 56.214089825524404 0.18616506666714694
30.571153525057316 56.31308847821328 0.14987674142083451
30.669848459503612 56.27925962268773 0.16067391919276158
30.789601133990967 56.25360094337478 0.15843383984620302
30.854675444793017 56.261942115205876 0.14963727355161277
30.959678287189334 56.21646591855431 0.15888104711666662
30.73105917661967 56.36996661347634 0.12388314347902264
30.79938758475626 56.35063942375565 0.12361694971577324
30.89816443002162 56.33573930407456 0.11999223006361683
30.979412772486462 56.3047204525719 0.12448742077375642
31.082039297952427 56.29309034171593 0.09817298970269074
31.22794507056507 56.24999248137074 0.08782301123576529
31.272622605345568 56.230319160292666 0.10375658607612277
24.19676774250636 59.7180652607892 0.2742470708147067
24.235103400115328 59.688037597969355 0.2576378203380298
24.342709220403282 59.61509675917205 0.22762603047148733
23.87643057815765 59.98843508611886 0.27860905005609904
23.650140130770872 60.15746283974168 0.2768230834485244
23.808648272133166 60.050855620961755 0.2734551683701422
23.30230865325181 60.37039301795794 0.20005383693033718
23.38061394252053 60.340283432445176 0.20540514385738878
23.468028785882023 60.283666453801246 0.24423709993388115
23.13451092552365 60.47234018070014 0.19497660637634473
23.312064490007966 60.42651272768867 0.26175756803276723
23.39211712547686 60.431956350224105 0.23616556016047419
23.786600834022284 60.331526665767896 0.199204021799251
23.90417150106893 60.266702666250836 0.23876412724480534
23.941984171240183 60.236061881865105 0.23127908562491434
27.32227068153781 59.32284447715533 0.19604045531653225
27.445424902466804 59.31969439480949 0.1725823825463516
27.868261562705438 59.211995096683914 0.19667230730946172
23.266189072745405 60.518835030355305 0.25524837095917474
23.330458361428082 60.540115065073486 0.2512217671488476
23.442311598475083 60.48138255158083 0.2259746731313645
23.55844181117987 60.44835702753709 0.20969762015433074
23.608918247420778 60.42960795708955 0.20601565319145576
27.485523048956363 59.34466210705969 0.18080596177600256
27.885524934785877 59.21398275164962 0.19761968782105765
27.95984697090298 59.20969757037773 0.199230378202728
28.060931723939028 59.18619276184043 0.20067575610945787
28.158455191095506 59.16926179552091 0.20352149620707605
28.24200198922472 59.16835225401138 0.16523701679077513
29.695700501532283 58.73514848994992 0.111974456591543
23.326674493559725 57.706063079963506 0.2828731232748502
23.392146421543156 57.69920828710647 0.3008077852838207
23.438478980667423 57.703648627157776 0.3326036711882424
28.068230769888732 56.53664230003901 0.23442117035002957
28.168862493682987 56.51336903466912 0.2753691052412659
28.206348875012228 56.51715710542415 0.27670799474555885
28.176013349968095 56.54235299590474 0.2453605635279389
24.650302253115246 57.630116821498454 0.29022222440200357
24.68028636494632 57.63575909334347 0.324390403069812
28.988134176592414 56.54373387040179 0.25653672849220044
29.064350420855543 56.535532198727715 0.27505814068441264
29.484715264034794 56.45639399046574 0.30007321881848165
29.542320365625745 56.43800490663205 0.29807321417959715
30.071166470553557 56.26807024664312 0.2961303086732395
30.146257314031967 56.25076886541157 0.2903956982959986
30.232328149177384 56.209867520158646 0.28905464151502985
30.772495929554537 56.11789293800465 0.21054979460187967
30.178773098404893 56.291120905010864 0.2872167119857779
30.752341763329454 56.19353917237627 0.19275444857507307
30.82341665287138 56.17022514855108 0.1937698750466586
23.873015178386098 59.98934823537282 0.29223585047207423
23.594724742437204 60.167688589394466 0.3694287835913648
23.627384825759226 60.14772991993158 0.3507138085102605
23.711819257608564 60.07200360865427 0.3736562777973709
23.966535848234933 60.20989254918824 0.32955808032733264
28.170492167674883 56.50343336855192 0.348572103371998
28.250843802491513 56.5029329607416 0.353321177523436
28.309522761384677 56.46863524953752 0.36298120023104535
24.609075668458633 57.61342969029111 0.4064987517643296
28.244182905363253 56.518266492192126 0.356694428489348
24.646100231160858 57.62393496463585 0.38689155749076837
24.677367890493468 57.63797474452448 0.3737817612261232
29.01361715537562 56.50345295294177 0.3946251896958697
29.39502925474263 56.396247429204045 0.3429514966969395
29.96606742385901 56.235968362355536 0.32379790143051457
30.0133929010263 56.21682052964896 0.32676461363742476
28.999843217909817 56.5259293263902 0.34292507109996223
29.073343113496406 56.523906787166794 0.371688206194649
29.258893290395243 56.46426668787775 0.3692549666064505
29.363087691793872 56.41791051459495 0.34113915852787136
29.468044938649818 56.41576473883567 0.31665329777348666
29.950256659509098 56.259317808501734 0.3074266157680461
30.046028817313122 56.2415676037058 0.3147547257911118
30.282379607087417 56.25208675064669 0.32149292449775474
30.268250553260277 56.26689683906793 0.3353216382190723
30.304796556534335 56.25562585228664 0.3827502735180286
23.583495940501177 60.17069064660304 0.41423021535548965
23.649727151445944 60.12247186563405 0.45326131795371755
23.716467814271223 60.065580101247676 0.40738274136797065
23.93483580945142 60.23782307404568 0.43240229208720626
23.959169283348295 60.223436372327924 0.3959967227590595
24.228997941844902 60.1710488641158 0.47543096431899784
24.276156173675812 60.177950680118684 0.4715828028275309
24.477385716224326 60.114989673888466 0.47221953892277796
24.5586858979312 60.08311118811623 0.46790800911162794
24.668024219562035 60.03991639346274 0.46326544463165303
24.76294477938595 60.015894724556595 0.45344283033243643
24.85133239592136 59.997834862216756 0.4520412515437095
24.953341029168385 59.9847280846881 0.4517688291921185
25.050661120630608 59.955728702743315 0.4549826219499991
29.015051486869577 56.50014874896132 0.44679721015741264
29.03090481295036 56.49143859444675 0.4813662793546288
29.002895821503323 56.54332799526444 0.45939588201891607
29.075314807061865 56.54311702045596 0.4599976030192697
29.182984399410728 56.49754556095169 0.4366166347196578
29.251153891850265 56.45210307416683 0.43362671502369454
29.509342802391934 56.42551144687657 0.49347094110444584
29.54399225752703 56.41746109808519 0.49783351779489976
29.623582238071315 56.40940872522042 0.48627619919677884
30.338944250588053 56.23815880295901 0.40978281818974993
30.31016889099972 56.2541394894784 0.3944177071608113
24.06752369070255 59.824700962787404 0.4901849364236955
23.771560005965647 60.03566651011221 0.5062396297159772
23.66217559290018 60.117332712951644 0.5481746715547324
23.726516186390644 60.06762785624479 0.48796695312983857
24.027347336983368 60.24826851971232 0.5633524163124302
24.08659196197548 60.22458534427558 0.5491619995658036
24.20397616294688 60.19646162496207 0.5180727933168309
24.28605500427736 60.1767909797815 0.5177306805378789
24.386384372041906 60.16157021844576 0.4863131654426594
24.4628440978829 60.13225466426826 0.49170784627899494
24.551239810691843 60.08907208343242 0.48059747589505913
29.01357016364052 56.497584164931 0.5530978189560702
29.029278220385468 56.48558040313061 0.5893175287464472
29.18282058725495 56.454304214134496 0.5763370961670341
30.11078116509404 56.18987580855135 0.5382678766630591
