ply
format ascii 1.0
element vertex 845
property float x
property float y
property float z
end_header
9.465435508413627 49.39721634258174 -0.05878727635401516
9.540857699984018 49.60586259627236 -0.07357247979151159
9.605152138525787 49.73366157533732 -0.05522933726645925
8.45200033615668 46.28973087173761 -0.0070449685819316855
8.464701945360488 46.33416542221346 -0.0422060349770202
8.46851059077869 46.47547906866519 -0.015169833701426
8.487508280359949 46.53516928470484 -0.02887136766853781
8.51195094274729 46.613256158714506 0.003021083351473773
8.55658809729667 46.76416947271417 0.0027513174318254353
8.577029293061363 46.83723553912309 -0.005369421708011229
8.599503707257627 46.91871908090189 -0.03617113593795341
8.66397171002003 47.00555612204366 -0.05077109807538772
8.461839111632075 46.479089319699916 -0.002925788292216511
8.201698503633173 45.97674885155496 -0.041085539296342045
8.068917381310648 45.87638392993989 -0.07866908046392088
8.053469880927064 45.89637545150765 -0.03586466677635919
7.55721263321871 46.20631336334085 -0.029860695245617498
7.520768513901434 46.29198475254268 -0.07292832742838969
7.472672368376398 46.306501806283165 -0.06115686433921295
7.192204857089439 47.10355905006506 -0.049973362530845084
7.551868205355809 48.479762901426305 -0.056191545140833174
7.5454057296982295 48.49395494006568 -0.04971195449045968
7.908807993942428 49.93975318221277 -0.018798891266883562
7.045302976743081 46.7529364490694 -0.0037485658564572425
7.0530241952056505 46.77034625323618 -0.02423172689532794
7.105390475815035 46.98196521478656 -0.04272968031663828
7.71460891161583 49.46208573414413 -0.018133239685031444
7.708532817130107 49.52315701039197 -0.08348936005364462
7.9043896530755084 49.98932574397617 -0.06844501098351058
9.469582216752803 49.40538893574302 0.03323271312813109
9.529519316517193 49.47221257751046 0.0808457228946872
8.560069906554627 46.368506107659094 0.016550027478010963
8.462941921831318 46.37011381224913 0.06845191640646461
8.464533569959807 46.45549530728179 0.09088543453358025
8.525845205148537 46.66492845690491 0.006820145721222027
8.543579754803623 46.74431879953644 0.05593646007769752
8.55549976688315 46.800963322972855 0.09257311805688682
8.607842398431025 46.934807882568236 0.06751060145039084
8.655294201110141 47.00581287301876 0.05381459162849842
8.657662374629018 47.12345380207819 0.07693375433250331
8.458966164458056 46.47069040230837 0.10096958704804693
8.536641803989854 46.765118345021925 0.1035402912846107
8.205718543971662 45.98024911080863 0.016083075624485736
8.054820025430587 45.88013606764979 0.0429182351793218
8.06276155782694 45.88977891446589 0.03282367135994983
7.582893905906762 46.239482593248326 0.062312098185942646
7.463538576585079 46.32876049074976 0.033141181756039195
7.194267442529459 47.10577856403192 0.032805169342343586
7.560642932653193 48.46267860807948 0.04400403891824919
7.9119103370583455 49.92986270465019 -0.004076221231243635
6.51051213439514 44.60876398915071 0.06525346441459985
6.527771534473059 44.63121108622321 0.05226610017673336
7.0372458378636 46.733806240303686 0.013804809522511076
7.10431960539344 46.9834413586014 0.04061628192583195
7.560391670096506 48.62759595403575 0.0022209779862725244
7.708603105925723 49.45019325711737 0.03568118979840633
7.7060371793515 49.51228399691876 0.07999912842650733
7.908521021318896 49.99634807230475 0.03384086821782192
9.485689545648192 49.420238121566726 0.10659335405669021
9.512562751577146 49.464534731303495 0.15188311947927902
9.51452405236903 49.56168151377203 0.14619441685736131
10.010050334508398 51.40326295715416 0.17568605806724308
8.453662026157046 46.37625686107108 0.12189265037257237
8.468397173119426 46.40890851130122 0.1364229234023736
8.49434500265486 46.593997420295764 0.13457958892377245
8.51056768349637 46.65845357999316 0.13481661030060435
8.536643862776277 46.75539071115735 0.12263411559729322
8.56152812011565 46.8421116128896 0.11811860685582574
8.586592345710859 46.92562144539856 0.12195600450530353
8.644241958553655 47.007269483135346 0.13747814674207137
8.661571047130092 47.125487000605844 0.13092909128302183
8.453562662234678 46.48133060869247 0.12492267063144002
8.47634610029797 46.54677431915051 0.13320282541170755
8.504800175510628 46.64817731523153 0.1343944983219632
8.5319492312896 46.751674873750105 0.12703397818648587
8.551977882646241 46.828202951039785 0.12974003918027216
8.578587393151082 46.93421040635864 0.1528720727119932
7.19735803758914 47.09290946158112 0.18425371920618952
7.5536611654416745 48.47094219582097 0.1121898548429342
7.567003485737685 48.6162388899953 0.12031235606926098
6.499049717134224 44.590962435782096 0.15209994099792298
6.5379862014915435 44.655657879003336 0.19180433632536692
7.093472080630638 46.98542377339416 0.2018820940964906
7.551347551970219 48.64483357925131 0.1443004449918765
7.715128810977407 49.35034769955067 0.1587096624755654
9.489745030217238 49.42531233155133 0.27244186782237695
9.509247859316895 49.4726211885844 0.23049918460117033
9.532426670723574 49.5900954992163 0.24963208635594508
10.008095476859427 51.356498444884494 0.22993328143862254
10.023139019266969 51.4087355880786 0.24708902417518844
7.908366828015396 49.90502920850381 0.2540530219353023
7.916882072690302 49.97052748089085 0.25194519723328584
6.524898591224828 44.625863381807704 0.26121277923993536
6.527825136122723 44.650023297081496 0.2611371561586609
7.089410148093784 46.98623123761097 0.20941741389114493
7.711739792435395 49.37073541453518 0.2127396845648319
7.708086474207526 49.40033737493832 0.26665422106629505
7.9043131095792 49.999538409706936 0.24350964955424584
7.510151399661965 48.811750767527855 0.23886063474212332
7.5004435409114825 48.87071085395312 0.260691667890096
7.52866299741655 48.93037884217659 0.2790666051057093
9.493641510649734 49.42375070585952 0.3311748840379596
9.517178531106383 49.45614015889395 0.3415342183493386
9.54101958594089 49.59548097172522 0.3611810992533635
9.56650583819695 49.6454797317411 0.33662863580336594
9.918160965323544 51.15681812277064 0.35747366153162247
10.002505890393582 51.34608636455827 0.31057296517639743
10.019069427578877 51.40940441959311 0.32998143194948903
10.043818037506949 51.47800874109194 0.36884825883207256
7.561787584879504 48.50129091237976 0.3758213327530169
7.565963428636857 48.60706790741786 0.3338334399811508
7.642888586142105 48.907733037101345 0.3170073070335512
7.734092922358854 49.210011196144976 0.3795531896952837
7.904521341100872 49.911718584803545 0.3389089674460004
7.560541823303212 48.624304724905095 0.3508350507925921
7.5415339435066535 48.74835722844786 0.30775646342948515
7.598572676682204 48.86435575731328 0.3130167240627505
7.614887068198243 48.92170145621925 0.31166368069408573
7.663459090758614 49.042817819916365 0.32198806616703257
7.676906944444953 49.13423393182439 0.3275622140677142
7.716485686436197 49.235857377514854 0.34041340627454614
7.723162307156822 49.31697872262107 0.3505517991211082
7.726881763743444 49.41507762224049 0.3255378927014919
7.710751081761325 49.50054433124676 0.3854866470711385
7.78848083948762 49.63176062307052 0.3214408843795224
7.7986361992341395 49.694163463002766 0.3331442223255168
7.833556429952804 49.83578919857889 0.35812875516514714
7.8830667581645715 49.89181113307321 0.35327877388562606
7.902872065186072 49.9766984824843 0.29777709197137897
7.532608283068047 48.95790562733993 0.3010234958816095
9.559830129412566 49.48240384842515 0.43622761962674883
9.990415558149245 51.21732145985974 0.45487905426371844
9.525801481728177 49.49583947341024 0.40098767960383774
9.53229949240792 49.58491359501559 0.4360449753010154
9.5510039099835 49.633333420542684 0.39871523388154473
9.9360876845686 51.11819985439905 0.4707952907576414
9.970319308094806 51.227029321509626 0.4321696759199908
9.992670905819983 51.32812106801852 0.39221800164270554
10.024421208474426 51.442215614078926 0.3807842398778289
7.736990605448364 49.24127766695644 0.4073596623812341
7.751899648062145 49.32331348930161 0.41390076927928077
7.90627364077432 49.934528646726434 0.4137412779345216
7.910540981384846 49.95811605863985 0.45521136477751123
7.556475096790781 48.65649110384815 0.44063405121867577
7.552827014291473 48.738074599295686 0.4718455810822581
7.574725969671649 48.829502271665056 0.47634609613519724
7.60959835347531 48.9214746582741 0.47160618439785656
7.756423325829674 49.36298144548313 0.40518316773064295
7.7416802551744865 49.418947136086125 0.41392697817823054
7.731010767047979 49.52964825341291 0.41848064589569217
7.847610857216282 49.853560598148555 0.4311900867375107
7.850098322145562 49.881665786655596 0.45340838652119814
7.896353004396295 49.97407296166556 0.4424313866367706
9.559896067422724 49.49413638010594 0.5189732247493926
9.592171768269436 49.52703423793099 0.49439513145490127
10.028484645081464 51.34547558683863 0.5433265498329884
9.498956410505883 49.42671659291059 0.560816949238752
9.51737475698194 49.472327090347 0.5555596993496831
9.544622258120102 49.596379564421085 0.5523244077732312
9.570561747041477 49.64408070830406 0.5369995359136117
9.872335631672653 50.99164062191859 0.5763925276722899
9.888036416042183 51.019026521620845 0.5678182353051581
9.954654650251074 51.15433790771864 0.5286619016855136
9.981981168293588 51.22338729407776 0.5458992122489658
10.003156849903123 51.28494464500615 0.4931072503168745
9.930510627344926 51.5886870596029 0.5625696204883793
8.079453732063545 50.58594003482722 0.4866488199580665
7.532227244835234 48.687792408033296 0.4964844695896591
7.532450294670258 48.811691659016205 0.4946813834884103
7.5780319508835134 48.93478137367592 0.49281799737269666
7.638574959756679 49.01341935727671 0.5029568896354185
7.858482597075548 49.93071785116261 0.5401008727727626
7.879981717925574 49.97850070387661 0.5171516741377519
9.499825567087562 49.42601509511044 0.6122507283230886
9.499978652797756 49.47928874366624 0.6115517097799131
9.539319085286214 49.60175128424906 0.6328873682971454
9.558192534651445 49.641385885462505 0.6254770442123385
9.848748572779073 50.95827368660274 0.6210954797567091
9.884520573926203 51.034664212114656 0.6155724357264755
9.923286725034233 51.57591486961881 0.6108490066744535
9.95136334549262 51.61254319762142 0.6435642866315064
7.845017672731473 49.9196612342124 0.6308460142275754
9.495186198289783 49.42133438133662 0.7360976077260782
9.503243718375034 49.53634588475075 0.7323727960692561
9.542753295295093 49.593106572314326 0.6982506737264564
9.80555962733476 50.8746708608725 0.7313684997808219
10.03487734036747 51.7717430235513 0.7398123392806738
10.042672147443609 51.82014356322504 0.7507538131645975
10.065397517658658 51.876770124485375 0.7436390522302937
9.975498999102898 51.67209038363819 0.6815081691166109
10.009444923778897 51.70954481142591 0.7003594217990953
8.185212324453577 50.683351437404355 0.7770765614746393
8.196151703888924 50.72219089739019 0.7728943956672301
8.204212546389034 50.84546406820475 0.7424308521394509
8.219695857380966 50.91972621052652 0.7686962066384843
7.84594239988548 49.86010187545466 0.7724107791285922
7.843962696967496 49.90908097584022 0.7440071465405913
9.568689456323982 49.522084303699685 0.8667358985782644
10.067663057852059 51.50944739437476 0.8650300070694654
9.530116377086596 49.47046954492206 0.8036267558511375
9.823507475744812 50.878523230386 0.8471191947230943
9.855117126101867 50.95724836440168 0.8134107549544508
9.89610214909318 51.052654692335594 0.8318748552519755
10.009303677276922 51.509285904234936 0.8388999997061648
10.024565929228723 51.58569735053356 0.843125062537026
10.043946066181716 51.684038740919135 0.8334430117595999
10.109052535136973 51.90393361726756 0.8132472056128525
7.957396807400992 50.09641876124499 0.8278701426308334
8.06006617171693 50.27095839886365 0.803428848985166
8.068478554818055 50.342541615974596 0.8199863034306715
8.157417394945718 50.68152462970294 0.8121528472621888
8.19804894709368 50.75253700950684 0.7896385851251456
8.2003875435479 50.80965929046449 0.8129803673784459
8.223857997638273 50.96144841263781 0.8041419351284356
8.235637408547522 51.098945473582695 0.8179482463970659
8.255971884520827 51.23852379843521 0.8406090306433086
7.845558943731585 49.85642790775479 0.8380066372602588
7.845438378177799 49.87399408241352 0.845726638670521
7.933188294632313 50.13570460310802 0.8199170797534473
7.961346566183288 50.16493871929804 0.8378342914307648
9.564487544949104 49.50988345340781 0.9359054037374324
9.624319348909522 49.77650984980419 0.9747489595799776
9.643784478809017 49.853751792049955 0.9838600757872742
9.764043095063418 50.31240669802648 0.9807120788311829
9.538448067594077 49.49314749988742 0.8889819328518495
9.603009369854263 49.72831752331845 0.9354499383984652
9.645810248212067 49.90053735310936 0.9731150669897944
9.65572098984343 49.961338192035086 0.9665384319290548
9.6763168374266 50.06900175917356 0.9503038383769908
9.68735133668678 50.16503892326766 0.945533911414601
9.715033765578415 50.233012299211175 0.963268341733746
9.744611517143593 50.354571335748886 0.9590946494219834
9.775229219526643 50.47369685760925 0.9638030666549737
9.803221041213142 50.53092210082283 0.963679131660908
9.816377168097752 50.74882533516022 0.9443767457828706
9.831362696286357 50.81017717177096 0.9633570964674657
9.881270458986835 50.95634775587178 0.9234798064775862
9.908770440725048 51.023448543806914 0.9231408255444715
9.94721781215724 51.15002558441869 0.9063535175465283
10.090161650601203 51.727077648887274 0.8854406521517417
10.114695721818276 51.78219506239115 0.9110129330402098
8.00780804740381 50.29806311915652 0.886918296585858
8.248554318524723 51.258352375066686 0.8946741287796321
8.358129239678343 51.57339880631695 0.9374407267768053
7.9094886095023895 50.09215815477166 0.9210745836952877
8.281491204915422 51.568443524856434 0.9071729946187601
8.300905703814612 51.659571146959316 0.9351632673500095
8.329759346493146 51.79547858321361 0.9644967634747118
9.620295433376405 49.784538894184905 0.9904873568099553
9.654392107383671 49.86905811601852 0.995288387519988
9.881978413626321 50.76985560335571 0.9913163202438339
9.909254849568969 50.79531450463006 1.015486772536547
9.872137823109451 50.7790619546073 0.9882269495318432
9.853103945941918 50.95663656702627 1.000715767076783
9.871508574717577 51.005826267699526 1.00572529078451
10.180903874835645 52.063198225759436 1.0393308056195167
8.357407033591205 51.85576927037516 0.9908028105927238
8.362823624696501 51.9866971803942 1.005741794435436
8.376796382974572 52.118657113529636 1.1038928753348274
9.952719645428513 51.160700279186905 1.2698999593467748
10.018879430587038 51.33147052758532 1.355458202369216
10.066769376202519 51.43283114873921 1.4139970598225364
10.0047183043349 51.639540728366995 1.4008248929118985
10.123781090563083 51.55261928242038 1.4802011936763455
10.152320389504652 51.63987882116587 1.4912048061322438
10.197995760572478 51.73473273817487 1.537086074134736
10.26829178938531 52.253190928756794 1.5333064182880427
10.109004881406532 51.86719666193386 1.4885401529154578
10.201150799128229 52.08760079139711 1.4851803469179612
10.231917855625014 51.914395923150856 1.5898431299079396
10.280941281452375 52.094490329034784 1.650210211263851
10.278354149521459 52.1630657210096 1.6440477405161404
7.270348513101328 49.46098387850857 -0.2823702535613755
7.3369554652968425 49.45481020338123 -0.2787510504203016
8.344857217429027 51.599185334250706 -0.2933227188448003
8.320121602800434 51.48927755289997 -0.2827621934363887
8.02707971326496 50.302567231851775 -0.28772726921171565
8.014730604754567 50.261094558578606 -0.2823108957213941
7.777427628435411 49.52720483247265 -0.27990763044385303
7.7418930786064495 49.51249533532341 -0.27790347637937574
7.822086192104824 49.55796873185545 -0.284592535530849
6.402647124567908 45.79834905601275 -0.28988854068431724
6.668527430292913 45.9614253447223 -0.28046885247260117
6.751986180088668 45.45695655680045 -0.2842420629242079
6.286446408421548 43.605487492285384 -0.2854389422985858
6.27277202893308 43.53459800923209 -0.293466733305342
5.897128274134403 42.0201004667982 -0.28207293854194204
5.8708378282665175 41.907905374327875 -0.29121892474320976
9.946771821569138 51.18578181432481 -0.29047960013333096
9.916300008200158 51.0637326464837 -0.27875319778795055
9.609712336140486 49.923341370447545 -0.28954140061241745
9.594862918063848 49.849201874397004 -0.28011862420193556
9.448382188339203 49.1890750904944 -0.2925953115230351
9.438974590054304 49.14164769461919 -0.2851618891788943
9.319471031719598 48.65369447500309 -0.2866844324039114
9.245671127198573 48.31994491246306 -0.2943972763150229
9.233151006349376 48.2881664020696 -0.2868191542606985
9.232984107426022 48.26510161856075 -0.28275650130107816
9.16041417374015 48.024550181035465 -0.29015606044857106
9.157199445913536 47.99928717268688 -0.28479902204152935
8.403240645630241 45.065720831974616 -0.28526203753916957
11.24871401963542 62.96179173325415 -0.25396814680510904
11.354628080890125 62.92338175778713 -0.25335946949958765
11.438736095574999 62.90741083977943 -0.2532025874970728
11.521059003657777 62.88515790031801 -0.2529772826039836
10.672410533877386 60.506080673220524 -0.1917542551666905
11.627981031663296 62.85069462830416 -0.2525004423176161
11.739653028542513 62.828698285281114 -0.252360731297997
11.84979630053475 62.79905914794255 -0.25204029754645757
11.932585476632523 62.77754677343623 -0.25187007830372493
12.04509183927614 62.75721249553246 -0.2518097554174956
11.988828646088853 62.76750876015569 -0.2517534882205423
12.128114030068147 62.736599616429224 -0.2515911311172603
12.238348746317243 62.70715725664167 -0.2513207630240872
12.322451479260675 62.69350459977808 -0.2512895251653719
8.733984716771106 53.14107519485907 -0.2231425367102884
7.285384205269944 49.45426976585314 -0.19612804984832258
12.402694734691252 62.66899087399429 -0.25107447405432853
8.784316400111456 53.106389665915216 -0.22142545889554566
8.7017719473615 53.05447703212239 -0.21781912616921092
8.657823657268104 52.86067670856047 -0.20598499035571408
8.618347672983683 52.696386634090125 -0.19599739175898112
8.580655841055398 52.53990618517315 -0.1864308458210754
7.403122597976602 49.44644646937958 -0.18340031513948898
7.370870795383731 49.4313517524089 -0.23842183409141948
12.51216423955641 62.637714744520096 -0.25078503562709614
8.878059094939179 53.07867904034755 -0.22045031243923352
7.454719136445693 49.444731602193826 -0.23245970363661428
7.439366596369944 49.41562027035954 -0.2688476169894811
6.145331752255109 45.86629471401664 -0.23386708944856674
9.031295163945591 53.34810864832584 -0.2376124073919455
8.951867233184036 53.06673551763747 -0.2203101341484306
8.297622911657257 51.40315133790497 -0.27442877779361424
8.275435519367493 51.3129086442175 -0.2657562837841235
8.244725374661913 51.19526319332713 -0.2544087576748722
8.215231537971396 51.07344410983907 -0.2426823777528222
8.19688403111492 51.004688980026266 -0.23608557181198073
8.170211494918759 50.90145312836958 -0.22615281018707745
8.145117371960694 50.80402201134943 -0.21678725189084966
8.128749598384337 50.73696652528359 -0.2103752289500944
6.212668469670319 45.84576098859503 -0.24412815177204603
8.112392283520457 50.66193573467425 -0.20317331823961765
8.097673352103856 50.61663916149828 -0.19884029477834078
8.07573642376833 50.52971678023958 -0.19051114294711796
8.054680071423705 50.4347133370633 -0.18142525202371007
8.002507810694334 50.21367272847714 -0.2760910229285105
7.979581947416072 50.12324958986059 -0.2642897808746953
7.952072513875695 50.00757153123867 -0.24919931538654957
7.9308914046182295 49.938977000217356 -0.2402721977998486
7.762774629031193 49.51878813556858 -0.20938816869963262
7.754251307909425 49.50485332285094 -0.22140542508533725
7.624074638083667 49.154698162953224 -0.22103135474544228
6.309521948945623 45.81098789645644 -0.2320830088206285
11.911986270866292 60.13624402286412 -0.18732467781139203
11.861934176860128 60.1364851034656 -0.1871832947438939
7.907022588560215 49.83247454692129 -0.2264286663342516
7.880520209082207 49.71937106922435 -0.21176782444391404
7.8164926482071255 49.544927895930385 -0.20087233808549268
7.729028946776794 49.20205844667001 -0.22677128268600236
7.677016038007835 49.144963380975646 -0.2183026506677978
6.391733657282508 45.788711313470465 -0.22158376134763022
11.955157181201741 60.11279426309847 -0.18702761167636747
11.999351953405093 60.09308643746064 -0.18667641678964159
7.52784819162348 48.37897269539105 -0.23795382196955164
7.509134574048962 48.26171377651018 -0.21761171527569143
7.472500431643009 48.16094137077932 -0.20410005178695118
7.456403268824301 48.12701154417024 -0.19715468679171144
12.071114621885576 60.08341157759857 -0.18681256328258103
7.524786258669874 48.285382385134746 -0.2105323476020886
7.4846615899461195 48.17204039588152 -0.20567529197683412
7.460812272157062 48.085328023748545 -0.1861900550928159
6.734982261044658 46.01046480183577 -0.2011923044321591
6.8160783130829845 46.061235453066296 -0.21834889974974364
6.772329229987501 45.5378626042782 -0.236579107191326
6.748570628058781 45.44863827902282 -0.21544425190875127
6.736017419435317 45.399740848266404 -0.22402278538116505
6.327536539998799 43.77072234622615 -0.26626602136260724
6.31387958063958 43.70291711064966 -0.2739550392103618
6.206625166971465 43.27499352452029 -0.1798192653344975
6.1912672667569035 43.20940718583366 -0.18511144984952202
6.16196110287726 43.09430646025715 -0.19448224851739712
6.140547358224717 42.99543510317606 -0.2024060991374086
6.120518957064686 42.91465816429178 -0.2089835817791064
6.096432692639557 42.82269239511561 -0.21651022172519957
6.068673218127747 42.72146568069802 -0.22485536132963987
6.047931483786334 42.63467935602065 -0.23189895090318455
6.030960775096458 42.554960180923516 -0.23831407154737305
6.005791818669689 42.45500076067547 -0.24648205497011053
5.977888424064389 42.34755548656221 -0.25530807040418674
5.947420279208287 42.23264107705449 -0.26476137144047085
5.923370176426847 42.13017827574392 -0.2731045830822935
10.15202975203806 53.080776791011644 -0.23633186029972067
10.124932834664008 52.93782848335647 -0.22769491884637766
10.095400273844636 52.79350510526204 -0.21901337883662575
10.118087018742303 52.79374355413764 -0.2193855435262556
10.149928922222394 52.75774838509176 -0.21793047746436414
10.215310852792102 52.74852559217774 -0.21860019050269502
10.237333444390883 52.73023779388906 -0.2179512273333967
5.186698694482948 39.38694966557136 -0.21748654354035876
10.189197255481243 52.45189004782179 -0.20140092484691333
10.199912615233291 52.342361344685074 -0.19544474409360327
5.211790563071304 39.373537333021 -0.217626962588439
5.223405064225965 39.3225645627615 -0.2196127735605846
5.159831346525216 39.058864433013355 -0.23184936280876342
10.216177632560536 52.25067996612751 -0.19061415041985652
10.186246374962568 52.13104211866447 -0.18337242399906467
5.229995947391138 39.037994611966326 -0.2316288343459943
9.879455499389572 50.948950202794705 -0.26747337975518604
9.825397279918171 50.783853675866105 -0.2511648460501206
9.797524386310132 50.676755690652755 -0.24085753255113615
9.779254296476449 50.59250855135546 -0.23291962521985568
9.760264321586977 50.508514743420605 -0.22498385229034978
5.328972699592077 39.0112243228878 -0.2312459124093974
9.730684370890916 50.405224778311606 -0.21496836568952538
9.705440530325271 50.29844661737591 -0.2048479808922531
9.687156740774551 50.22155623445917 -0.19755380063063868
9.66623366606891 50.14027534921175 -0.1898144905419908
9.64065454311979 50.03991514161277 -0.18026630658539053
9.583497411080534 49.80551346993438 -0.2744509506806728
9.561659735106277 49.73239541862611 -0.26476040994484545
9.55209426108763 49.68186899541455 -0.2584022808175712
7.980670627363511 45.691104724053574 -0.18054096319458662
7.990200898675477 45.654441650138 -0.19013683738864687
5.402392750697812 39.000810152516856 -0.23059362189475024
5.430538907657786 38.94460398458795 -0.2325984839265999
9.537946181281809 49.62583976351197 -0.25116984052964964
9.514405480159116 49.53454378363167 -0.23936287610565726
9.489364485736354 49.434620209603914 -0.22650782604739422
9.465010368664347 49.34673475564273 -0.21509449909629652
9.45147752967095 49.25318213047237 -0.20380394404904148
9.434731205313211 49.13471214851331 -0.18965166168241532
9.41747986204672 49.06167189653478 -0.24934951810157305
9.407104773978805 49.008531898967746 -0.26393071273471336
9.387419474537914 48.93550102302963 -0.25214760275788334
9.364825271255048 48.84102566044576 -0.23723880588603719
9.339706996049916 48.74101716932183 -0.22144739335080657
9.316654570103774 48.64368285516154 -0.2191514316989108
9.292856432843026 48.55333857270425 -0.22642343455418562
9.271640652974467 48.46541701642177 -0.2246393505728755
9.244846652265318 48.35307928955371 -0.23045914663335723
9.230767066170566 48.27621761950029 -0.2170602545022868
9.218140047304779 48.22668800193356 -0.24083869991043003
9.198318226905519 48.157290126623145 -0.22512070536547357
9.17557335336832 48.07058300733392 -0.2159919031863718
9.14194312757172 47.95850960689203 -0.23874966768763053
9.122774721514965 47.866762718274735 -0.2242299782222192
9.099872702237292 47.77448704350805 -0.217431478052607
9.070966699071684 47.66891871642291 -0.2099591943757618
9.054670143960767 47.577614170347786 -0.19268696694146087
9.040273137244723 47.51417117908252 -0.18050591361119867
8.320675237381487 45.71242526657522 -0.18820565315956922
8.437852850780384 45.20940312145305 -0.22312276262683364
8.421149916369673 45.13974686115183 -0.23335450254749474
8.39646229649823 45.047820935984376 -0.21757380674321855
8.37541539370238 44.96573396119074 -0.23173469088846238
8.110064769863895 43.705502537256315 -0.22760073269693096
6.53018448336111 38.69716071540527 -0.23138851314179007
6.602896938663248 38.6952917564031 -0.2309345711599298
6.990736468442895 39.41000386809092 -0.19630997222167337
6.934207138265569 39.185720490582476 -0.20673245063249632
6.688447569345668 38.67550488579558 -0.23123829055005868
6.874832267342186 38.9578430173554 -0.21736568082399982
6.796322804326675 38.70759171112352 -0.22910682696121784
6.7446121933485506 38.65553595445693 -0.23176259505726518
0.20583470866089026 13.268023947604462 -0.2138969584474849
7.330394730838236 49.47140565079989 -0.09627572273456594
7.279952879845171 49.45101522430452 -0.09547415928446247
8.54515145625143 52.391104658350045 -0.17739311309519573
7.405222422651036 49.44915647524078 -0.09277955745162869
7.35521412840719 49.43769018820561 -0.09266535351677621
8.51215010797798 52.25406105594157 -0.1690200988567689
8.480033808165004 52.120834248061016 -0.1609341305187349
8.450527965427357 52.009393476900044 -0.15411248817072154
8.421854219231706 51.89575727114136 -0.14721695192648274
8.395277711622448 51.793939239759865 -0.1409918452071819
8.369656538282856 51.68992764713326 -0.13469091715261905
8.34417149968233 51.57387307024444 -0.1276287257791135
6.155285771487009 45.88217010798822 -0.12072888515817662
8.321746408886739 51.49152357915167 -0.12263909377354072
8.298292810790288 51.39322376408053 -0.11665097897256738
8.276675765172484 51.310701958100225 -0.11165825062638948
8.255372697236043 51.224145812127674 -0.10638658081431066
8.22591954193784 51.10900228849038 -0.09941307772896027
8.198373706233738 51.007640134282624 -0.09327356179250512
8.171304014920208 50.898153353695264 -0.0866364624508959
8.145889574730298 50.79448020622208 -0.08035747097258177
7.552862976703755 49.45847717660908 -0.09130564947466609
6.224299729718569 45.856370159095384 -0.12861149008223513
8.041589604554375 50.38521052207308 -0.17671076248363884
8.022536992626716 50.30991115877051 -0.16951457165788483
7.997958210507854 50.20868428258618 -0.1598645781070765
7.975052180914385 50.10927294781664 -0.15040246065060006
7.953052424802237 50.03559116372191 -0.14339724753256916
7.93191253575115 49.93985522367444 -0.134309923789638
7.912224820773908 49.86588728946885 -0.1273025643533329
7.760723692334714 49.53166591057501 -0.09616390857759688
7.747238227594826 49.50214019599277 -0.09344903593544349
7.624854444294318 49.15520085027585 -0.1411160682634187
6.31202297938445 45.81444924119346 -0.12603107706999364
7.8986357117401695 49.81383691377039 -0.12237278328856337
7.876463141010924 49.726050924302065 -0.1140896489546592
7.8555533275688605 49.63713375793206 -0.10570970826560765
7.820028081783749 49.555325507269174 -0.0980817493542696
7.689269343841075 49.14284497320554 -0.13849083481082178
6.385935569042866 45.789738055577246 -0.11648289525142146
7.527811454133063 48.3705102552023 -0.12380449003986634
7.508239173062212 48.254970382339096 -0.13315692926196113
7.475623949275148 48.16668641630366 -0.12458888484485021
7.460018761359495 48.12163535077001 -0.10281888412027675
6.579144298012032 45.89540266742774 -0.1181227374919477
6.500200474671476 45.84246119101218 -0.1326545858321735
7.516165130924172 48.26023606609467 -0.1262153785548162
7.485150135337316 48.172924713195954 -0.14206138801016627
7.461420262672636 48.05744646162791 -0.1256107510397684
7.440829668085222 47.977090134327405 -0.12787572967643315
7.410467270021785 47.87813686684677 -0.12225000556990943
7.386862713034352 47.78399897262485 -0.10618035148127389
7.361941353060112 47.73358087965205 -0.11664573499441656
6.739404344398022 46.01834989960074 -0.12476031140492098
6.8482243525863735 46.15041906581661 -0.11172835176846396
6.812590593143295 46.05869787836953 -0.12727062866236277
6.930989283559473 46.14772606198139 -0.1473147170568441
6.770606246055063 45.52460714855527 -0.13469593155928158
6.760560555335324 45.49695856196523 -0.13887231253990928
11.047919562007143 56.52680460637502 -0.0959164266797834
11.151719941613077 56.504778065428866 -0.09587351510228805
6.329438563444606 43.79062006465202 -0.1383513689728433
6.3100065917366654 43.712069191535356 -0.14467327712460343
11.231463427770242 56.46344148738433 -0.09528986336456328
6.284796498281825 43.60526181816062 -0.15323846380049494
6.261294121030276 43.51449439295441 -0.16060464251516823
6.237964261376786 43.419300356230494 -0.16829554413542225
6.224671305605058 43.34371870134575 -0.17421667369098143
11.180835441611276 56.16468865510156 -0.0878657518627391
11.112107771897513 55.866771495996346 -0.08029262354719997
7.3816657829430214 46.17716782257175 -0.10598604103954254
5.970310488321793 42.33440747502528 -0.07992212402749697
5.945246752715383 42.2321025567479 -0.08462707610977593
5.925720975780334 42.14048901255883 -0.0888010715155021
7.484844389529433 46.111252341399826 -0.10515872909927329
7.473302243326802 46.0688448655944 -0.1162411438225728
5.891589472973327 42.011781966124 -0.09477870416803544
5.856775841470626 41.879051455854444 -0.10095492882971885
5.824410764705465 41.749751966616884 -0.10693065347765042
5.796136855502898 41.62743823338247 -0.1125587648663867
5.762999848920675 41.48997504025433 -0.1188959296959116
5.7261113204605945 41.341130619235365 -0.12579791487539327
5.679755173858845 41.16607733667962 -0.13395421139989153
5.640380600745208 41.0054873042253 -0.1414012168394742
5.599243841846952 40.83713441189526 -0.14919106242201913
5.553247010653185 40.65356507360757 -0.15772954800039318
5.499741654868929 40.44732612546611 -0.16733806060021889
5.476329160829708 40.31732700252953 -0.17323701558954396
10.155748965179061 52.01162176051235 -0.1760687118286373
10.125469076886024 51.894162354030925 -0.16894785791312075
10.101445738146522 51.79355642776958 -0.1628309961735875
10.075727572737293 51.69139825776049 -0.15665857119844462
10.056091552266178 51.604000052600526 -0.15137235946441996
10.024530575104666 51.4911969420582 -0.14449469754822036
7.836403166186653 45.7475600988555 -0.12295047639795577
10.001154290147312 51.398780570173464 -0.1388606248879436
9.97226051452624 51.276918321823366 -0.13153020771507629
9.94350260956601 51.15707035989384 -0.12431924502235699
9.920730338314202 51.070719298143445 -0.11904756819375725
9.871670961806318 50.93043572896802 -0.11029522305831514
9.828154568545395 50.787440831927135 -0.10147946007043085
9.814649730494523 50.70965653338354 -0.09690754669906156
9.788422875325406 50.624631150393675 -0.09169690153017404
9.76457816433608 50.53058098457493 -0.08601396168145355
7.911241670102125 45.818598665914905 -0.10547225710375441
7.896232128678958 45.78563581407622 -0.13820450207291718
7.834547822906515 45.728244874111574 -0.14983979918144621
9.738861119759662 50.41943896502893 -0.07937662450758518
9.626393043162 49.97628163895558 -0.1743108494664054
9.611655953138424 49.925342207990774 -0.1693810692677719
9.589084322447814 49.83763388533372 -0.16107241418983598
9.568451635780697 49.742948869767254 -0.1522578450033348
9.550798331804385 49.67847326865374 -0.1461061728727984
8.081571726970868 45.891672220471214 -0.10575788005019046
8.043665912549118 45.84608912546712 -0.12947195057306649
7.976543559703809 45.73730362174518 -0.12807075385583291
9.538040116491711 49.62483405624726 -0.14109603954907474
9.514418430503005 49.53355071256914 -0.13248913213383912
9.493734479012348 49.4406143198511 -0.12388746723529083
9.460742160276771 49.33893190128464 -0.11404745732548913
9.451722575599858 49.244067148624616 -0.10591761665628782
9.436767186546755 49.13678389075095 -0.09657685654959929
9.410790684123008 49.03815338105129 -0.11720196730801002
8.141048002312495 45.89583993497417 -0.11341946272935872
9.401986812452533 48.99278927358491 -0.17197172823587897
9.39189473221979 48.952170139363105 -0.11695806794921784
9.362876534381925 48.844724563926036 -0.1533247644740076
9.341511634943954 48.7491264886285 -0.1416556179708932
9.315074683236467 48.65316246342139 -0.12965838768337498
9.289684288721622 48.5514245375534 -0.11723415820301368
9.262680968872852 48.44854155861345 -0.122234747999877
9.243878860277238 48.358150231994976 -0.1301783757536061
9.22170421130223 48.2678018057713 -0.11302368494864712
8.188496077652498 45.81427059258672 -0.15412323131397276
9.218924471513997 48.23230606012568 -0.11841933660507879
9.197000334868275 48.15767773543994 -0.13268463557922885
9.172450262323933 48.053134680841644 -0.1343521425302361
9.146383128289855 47.96215166148404 -0.13379900529737143
9.119119248136736 47.86524051260535 -0.11399524389484292
9.096849183256088 47.76700325210749 -0.12792698904975988
9.071968729867677 47.670859576572454 -0.13700072706712615
9.050560646345781 47.57516987256228 -0.12228458038678065
9.024038437555504 47.46480674223549 -0.13391297119647194
8.997440463217831 47.38813841717957 -0.15462964266791562
8.504920562768094 46.13779344577203 -0.10704009523356012
8.411094656259726 46.08027495271858 -0.10740153937168652
8.390509335185747 46.00225411458143 -0.10771410727211989
8.364319175537165 45.910948538386194 -0.12070672765674645
8.335204924048387 45.80359366728801 -0.1303087932783289
8.314979160984855 45.753582346988395 -0.1187495488274821
9.0332721391797 47.463206853970135 -0.08464400533402597
8.999469018555299 47.36768078044175 -0.15286129325945105
8.97359528544364 47.279504581829336 -0.11820881578162565
8.949579801767042 47.18158333358297 -0.10492031586345943
8.933359514506307 47.10181900897728 -0.10346047955867965
8.4336257429251 45.211122595269416 -0.1246721028160656
8.415490140805368 45.139873592024486 -0.13440125069938572
8.386824163363663 45.031820991988035 -0.12107007506975745
8.371204459954104 44.97039521043656 -0.14356153137102995
7.247837651023388 41.16778004029879 -0.11554044146284526
7.277543543471656 41.16012400912399 -0.11573165783183212
2.2329484091485474 24.904325834930948 -0.08999437089275503
2.3239074880301427 24.9386803677837 -0.08933799851373858
2.3176769793963192 24.583230924166248 -0.09301227109441779
2.9987121272039055 25.899083271647232 -0.07778853210018437
-0.05112560766393237 17.391507931020822 -0.17265815737132373
0.030883893572025478 17.284460654982883 -0.1735188336749591
2.150357736599477 20.879955834628152 -0.1312581956099653
2.241477579664231 20.859804885761964 -0.13120002450974885
1.1828746750325303 17.0327499899024 -0.17292112224940287
9.464377519367428 55.72871671681179 -0.07039252144402879
9.554766003660369 55.712833885890376 -0.07026258901799078
9.630306331942316 55.69919158092801 -0.07013598543474012
8.708063566399836 53.091086582040774 -0.0033458823250913615
7.30036552494445 49.483328576018444 -0.005672849614535333
7.277342146924205 49.47248287004664 -0.0053311954078429785
8.776586509537111 53.116658594742105 -0.004102864240550247
8.667180876158163 52.92482246294212 0.0008872375150577811
8.623819366930686 52.72853697712567 0.005811296697036952
8.583291451469696 52.5479997839767 0.010394655224632864
8.547444220162319 52.39700510926029 0.014181458618422264
7.3774828456188954 49.45564166052899 -0.0031592037217958177
7.377593545463394 49.43258738401823 -0.0017944962689682873
6.035625545217658 45.841842204536846 -0.03507463058775323
8.870157531173533 53.08651901497644 -0.00356689995866821
8.51456878070796 52.26175721237904 0.017622552107810406
8.483450609046756 52.13828180815264 0.020716749493150673
7.459540375637347 49.45675467681543 -0.002378144601755213
6.146977070695041 45.87268149152465 -0.02570454162822052
8.943294685509933 53.06825959952026 -0.0032974858552986515
8.12225748746799 50.71057285371988 -0.07528869439522352
7.586738037428943 49.3025822195649 -0.07621876487349018
6.219826235810781 45.844637985762034 -0.021510283563859915
8.098654288044267 50.610586440519114 -0.06926171007305275
8.076694416743226 50.52343275453471 -0.0639952818365061
8.049173184666506 50.406354438556335 -0.056942383876511724
8.023476893816449 50.30004896714154 -0.05054513533421015
8.004628559887765 50.207493122088515 -0.04497663254228169
7.981765974064322 50.13444995921802 -0.040598074585076624
7.954181925415372 50.008038327112786 -0.03301660137441538
7.927889651620636 49.92396496034563 -0.02798334747322455
7.761851507638341 49.528843845767746 -0.004666725467396611
7.625304007094559 49.16087220793743 -0.022991339392218577
6.317037167752812 45.81121889902444 -0.0159827867836004
7.904318177362627 49.81773880265118 -0.021638313883629988
7.882058922870781 49.73327770922723 -0.016606250991735336
7.864841945739375 49.66481004452928 -0.01252309530342944
7.821713991596738 49.56423655101714 -0.00660268499402839
7.721675147556145 49.21220012762788 -0.06620399261035942
7.6839883766471395 49.14845765044912 -0.019675175127837723
6.408424848997863 45.79904504854729 -0.027033250556458478
7.527011161243743 48.376009268009646 -0.012405316827902895
7.510491687160073 48.2585295629493 -0.03178231016225491
7.473478779484682 48.173379677614584 -0.053148669689346624
7.4555394879825165 48.12190249624904 -0.057871977894633435
6.581548179690079 45.89824578522062 -0.055432721901615946
6.512434672398913 45.853954928853405 -0.0005473309189131682
7.514899220290141 48.25384844932914 -0.03143803362792924
7.486864256446841 48.177908215544555 -0.03280464981091905
7.462590152397649 48.06468431995375 -0.028113047651096033
7.435789194631086 47.969403260204714 -0.026105564639474686
7.4094899683267865 47.876378481579046 -0.025908390982656973
7.3853920462271265 47.79033065079306 -0.020572822449457816
6.737329838776509 46.01537497393863 -0.004584234716060116
6.908494143718459 46.12557599573983 -0.05668512992115953
6.8178659688281815 46.062110845671164 -0.04234759369931721
7.354282086574164 46.1738015381042 -0.03785888707663358
6.2789644274395275 43.59667786978697 -0.022142573207545813
6.254927359755753 43.48921028386494 -0.026979371938332476
6.2357633692340935 43.40179693642047 -0.030908745500664005
6.212229807824035 43.30551293208931 -0.03530184883759838
6.186810165803287 43.203591475432205 -0.03996841956875206
6.167148849848521 43.10905509418215 -0.04421512571954234
6.13595107087039 42.989147617537064 -0.04973833414089156
7.360356440154767 46.1669939608118 -0.07453529790368603
6.111636849701026 42.89914148562815 -0.053915191170221054
6.088317654142566 42.80878961817308 -0.05807630972725543
6.068679656245148 42.72555872255467 -0.06188694822399076
6.046203292020797 42.634954714272055 -0.06604711520535753
6.0227030944140445 42.54044838167861 -0.07040469092531604
5.994277909023324 42.43294109448878 -0.07538358777516113
10.159493738218064 53.09672881502651 -0.008795187011828964
10.119297971611566 52.917885767023186 -0.004254266112862359
10.094391744118694 52.78654015221213 -0.0010055726257452947
7.495259022223031 46.09165987065127 -0.059613152272262236
7.493114059726054 46.073447333340695 -0.057124542204407845
10.138327049561981 52.783152712692505 -0.0011281202912973905
10.152920564854103 52.76167152436849 -0.0007292464359248316
10.272488487475439 52.74123549506183 -0.0009040065101352684
10.21512582742808 52.744039471748536 -0.0006338794497299932
10.301715183414899 52.726300612821795 -0.0007387847490056164
10.315847740592462 52.7033334289327 -0.00024144386504296915
10.242547739421486 52.44162231931634 0.006391126013917923
10.229457110562691 52.3301099709551 0.009096460670753242
10.204187880073247 52.21927479390716 0.011909320829975405
10.174053943455203 52.099522927141855 0.01489623121723958
10.146559360980905 51.987318285775075 0.017751291440837095
10.123310551555836 51.88622753946126 0.020252540469199748
7.850602123475893 45.79819145618201 -0.010411190447830926
7.919196956100745 45.828477359114075 -0.012908148018241543
7.896413419363357 45.801880557582834 -0.05150573004985833
9.707542338829054 50.300862000564955 -0.0722161989650956
9.686876673568399 50.21934602270861 -0.06730811229504079
9.666004093500213 50.12495242295474 -0.06173436507710466
9.637283822769444 50.01952865274617 -0.05535690500743202
9.618161147441405 49.93590388041082 -0.050419735201142256
9.588745385166426 49.823950251749345 -0.04370586699910295
9.567840753061539 49.740556557595184 -0.03874246940323462
8.08213885659243 45.894185268357994 -0.031066106478557926
8.021763010388911 45.84044742847226 -0.015420841993757895
7.981382123650921 45.75377978944864 -0.03249995617089686
9.562564353426769 49.69754526029652 -0.03631656125262745
9.54020427753375 49.62738067738172 -0.032039091573659965
9.519391367990604 49.54071822053569 -0.0269300213228955
9.493747100609006 49.43959888519644 -0.02093856173462231
9.475790315498925 49.36192851760838 -0.016403364806329077
9.456319889273818 49.25883058102642 -0.010535883052388872
9.439285928871197 49.14791975889211 -0.004389213564677243
9.418914826738522 49.06169807970474 0.0005675077273234346
8.147525396726362 45.89642198387138 -0.02557437413382655
9.408499839457024 49.008239430678984 0.003565860306049104
9.38293320908727 48.92303992724746 -0.008382486666677782
9.365364456497977 48.84306958840785 -0.02381746627432771
9.341229159771338 48.74800122020472 -0.02153103366498877
9.318331036351678 48.66471191427783 -0.04068868137062816
9.291824488133766 48.56482094890417 -0.04465668160396516
9.264966189209607 48.4509132948664 -0.03469412321324451
9.241801469292135 48.348374026150225 -0.025887894692854685
9.224964511009713 48.27354160194821 -0.019544529842824822
9.20056394410026 48.19918583279701 -0.0751613886468965
8.38124012326263 46.051797603025165 -0.01370041424613914
9.219741689606902 48.22707609211423 -0.015960860578248914
9.198019726319627 48.15603723172943 -0.038517165712992074
9.170258481951306 48.059416916536854 -0.033632922048805636
9.14347998940262 47.96630251612434 -0.022528099977120776
9.11908777825629 47.87271125544113 -0.007760930594299529
9.091060500895377 47.77326493464303 -0.02526586139400569
9.067381795326094 47.67441793097738 -0.040297438684544266
9.045050460630632 47.59900083934655 -0.03078715888273359
9.019207624998307 47.44546229972406 0.0032590147096779446
9.001271567130487 47.39956758709701 -0.018513847639152016
8.401979793460978 46.06982930207298 -0.06707589858305316
8.378454661921984 46.01103372822965 -0.03141443786344931
8.351849070348418 45.90910740030611 -0.024081635512237035
8.325405183197505 45.81851722581631 -0.02001707665764598
8.310621036656745 45.73327255858113 -0.02789132846322115
9.02580225178877 47.43069939023649 -0.03824441317789676
8.9998861306275 47.36771454332819 -0.03715794014272124
8.975744859124076 47.27980907963244 -0.021261859697557527
8.952213741865163 47.18339234833888 -0.02735083142915814
8.941096124379243 47.11506186993211 -0.034431862898554946
3.7239439091423314 33.23167160359083 -0.001709154659238191
3.7379935327067706 33.105973224104005 -0.002920558537936377
8.427774996457307 45.21327381799706 -0.04429047523621315
8.416974292826698 45.13400522489582 -0.04077737352486418
8.396065459176045 45.05681635317595 -0.035280395716108685
8.379710562028405 44.990350831603195 -0.012870719566936367
3.755236129420047 32.89914749097761 -0.004893716566234753
3.8520736755789997 32.864215088775154 -0.004892286649838325
3.922740897273461 32.82605709413599 -0.005013401743736547
2.4796064200094294 27.396136469442055 -0.06414883499054595
2.4291593662124047 26.818538491438588 -0.07011288369376689
5.0210108299122185 32.57706376461056 -0.004566373765608545
5.614357456588479 33.85372554893281 0.009732787438141214
5.098877036588233 32.57457657497517 -0.004451217547220893
5.450237097094795 33.214833675769306 0.0028451042409379573
5.194071379186552 32.52737859734072 -0.004756866908671163
2.834328466386747 26.3113877273872 -0.07398742978480877
5.276052864364638 32.54741070488444 -0.004414497252991215
2.904600908313615 26.283707289374924 -0.07412618310278565
3.5615012187266952 26.53862275999047 -0.06992334753662856
3.666428980985101 26.506069638368906 -0.07000893180585573
7.3145888037189 49.468302018678806 0.08670362367858381
7.2752047384295135 49.46307378842874 0.08668741089119074
7.391247097006666 49.45528926230097 0.08726151934082409
7.347778741443979 49.44776826801071 0.08730968049374924
8.451322388595225 52.00081925400124 0.02420958117416125
8.424459871983547 51.906928294662045 0.026562057403351103
8.397977520576774 51.8069617198776 0.02911051215941523
8.372033455544525 51.70082032099745 0.03176458909193529
8.348613867630363 51.61050495278142 0.034064613494004796
8.324360607872363 51.50611921442679 0.0366721957284608
7.45995751335601 49.47068597872132 0.08707912682294813
6.150266929748715 45.8758989507392 0.04892357364340259
8.300051940096797 51.397715270034354 0.0394218796972761
8.278250274329135 51.313083617592085 0.04153498109440154
8.247672256314711 51.19895126791283 0.044421990016755404
8.218778471809504 51.08861154057612 0.04720982020742275
8.199568717008283 51.00560384178286 0.04927810131718056
8.17282387679089 50.902948809764496 0.051869951472286804
8.148165130406646 50.816105478449586 0.054063876404616934
8.123963040037609 50.72109726960393 0.056442100781136574
7.565229088813007 49.39432445555262 0.08921797937745056
6.2303586813638505 45.86454308901165 0.05212982687952085
8.092939978358269 50.595228497882154 0.05960138867314989
8.07135104697146 50.5148988457698 0.061609584539437
8.05089647433475 50.42844760565797 0.06378348776190775
8.024768948117773 50.31000349425197 0.06674822382078163
8.000235765957028 50.21636388881905 0.06909211840299771
7.97722066425149 50.115553964491866 0.07161171897562772
7.95516779778472 50.03857687440659 0.0735355223990255
7.928901271455521 49.92972905520932 0.07625373145487571
7.75379154436556 49.52772050500923 0.08618887574141923
7.718562247366886 49.52091462887246 0.0863161878417818
7.620249087466301 49.17680223297681 0.09471329302025029
6.305021689692905 45.81744798672375 0.05423648999712505
7.900381890666493 49.82123677050009 0.0789526334114033
7.8784071755343845 49.72331328555554 0.08139117577918793
7.860964366940455 49.66868650647564 0.0827475364073954
7.818277345741152 49.556847180556616 0.08551152621922431
7.724241081038876 49.20399899364706 0.09421213103876158
7.682804476969894 49.15086533587667 0.09546597740895627
6.387388214579442 45.79866866309871 0.05718596848673269
7.527689708247288 48.36674617863473 0.08448489714062728
7.511664392282997 48.2633460664495 0.09082491943773002
7.472288213491673 48.17153320606647 0.08831198588478102
7.4584644614165745 48.12440992095089 0.053350050960669256
6.533438855218859 45.878927991041564 0.06506212322272815
7.506406929151589 48.23151106853787 0.05693968157912054
7.485319818530731 48.175658849174525 0.06313665656158245
