ply
format ascii 1.0
element vertex 840
property float x
property float y
property float z
end_header
3.0070570960505245 30.64585792954655 0.3427456096576085
4.795724389753799 28.997224268187246 0.44753150231733607
4.8119481452300334 29.060247897778513 0.4355553134121756
4.730267017409898 28.803659502789955 0.45417416955069106
4.745146250398279 28.921717002451032 0.472082033932454
4.777113824469334 28.992845017544006 0.4553451895910735
4.79844698351881 29.049819486916356 0.4493820768883071
4.840846117370134 29.535498133923703 0.4256258736425476
4.858415643095819 29.56671096241319 0.4602837751271202
4.675346801738857 29.727892104727346 0.4407022719476419
4.92991129271086 30.72094364130453 0.4196672557591245
4.946063012029314 30.76130616359423 0.44315662929441696
4.986203577611961 31.02640895682934 0.44343124212054214
5.001295244817888 31.061017563881325 0.45936565551857583
5.030911357845865 31.182783864388497 0.4531468654011088
5.061712626579018 31.300810826618243 0.450877115612108
5.0777714455613845 31.379387441853854 0.4493144633405358
5.097096396691157 31.45323387740638 0.4395723386217659
4.611309059009187 29.673398450193922 0.4228492972313956
4.655289001872482 29.75125510099635 0.43321898242917684
4.675527253991243 29.80014863535745 0.4842753458029893
4.863777826003747 30.70543327178891 0.375628050788827
4.896746033078116 30.816078677109306 0.4444315858999452
5.012301046391354 31.30443744178651 0.44495581213084423
5.046089101434843 31.378111742205753 0.4444690221449174
1.4495585638939792 23.45063864820445 0.6132333279026169
1.480012300330788 23.515170093429052 0.5753869102956084
1.5190873034383792 23.606202452287196 0.5287843895700819
3.1367168714736433 30.61046664749069 0.42537664887230225
2.793837865183785 29.365007195004427 0.4918277392546284
2.7983504207189642 29.47559669211264 0.49959115972690893
2.8412425685587106 29.591018040660646 0.49587743705406395
2.8708865087616506 29.675453000072054 0.489281590964069
2.8969330759737804 29.77139030569883 0.4854136463652402
2.9038318350430874 29.813436431500538 0.48719461688408805
2.9359857243760787 29.919244970552175 0.4842612540944085
2.9624982215482563 30.063106904407515 0.40874737501291597
2.965337040583532 30.154962340512625 0.4551664109865634
2.9656814176251576 30.28272119944848 0.4695530554426653
2.9755359611859484 30.374650545328752 0.42894284701608437
2.987976273890644 30.412413216621058 0.4114695620265394
3.0262540774932236 30.588856615236992 0.39526866646901854
3.089055055341658 30.661517192552587 0.4376551342361948
3.139731215082541 30.732159516760237 0.40390396237027404
1.4026920791132156 24.18448873835242 0.5508342235671185
1.4267243143506745 24.24310487285744 0.528612377427324
2.952964112473531 30.391939318119814 0.4325108290907182
2.947165600410033 30.447855899099466 0.39489774094046537
3.023946743382564 30.6596856434207 0.42805003715552686
4.8012684337445055 29.01597951111606 0.5494692502956049
4.8137687329182075 29.051554907171102 0.5727637565661233
4.708554228668141 28.782854081440455 0.5248822747637085
4.75215715368135 28.922918272919635 0.5582934362439466
4.778663475174342 29.014386578546357 0.555892154216322
4.802694949804966 29.06005391398714 0.5930269350206364
4.835124926586686 29.526262920756636 0.5589522586528853
4.878669279223668 29.58876553706027 0.5421857411568728
4.9123546290841835 29.64153480153936 0.5269933054688503
4.688729895504833 29.75478162900915 0.5346628310152505
4.6889882946122965 29.818136402694687 0.5398091937845068
4.9439326024806745 30.73294370750918 0.5045011608268877
4.9504914470200365 30.759070049317675 0.5064511142618502
4.9614953248700795 30.956691768773577 0.48503397319457886
4.971212682307196 30.994649324097715 0.4994026289544435
5.005934565391447 31.087845325071534 0.4886570165909192
5.037263614290503 31.19925093788725 0.46734625068746877
5.045641934223207 31.281823867120384 0.46821632441817435
4.622324950937684 29.703242048660638 0.54064860437738
4.650857179168313 29.74667547437158 0.5413465766204044
4.675850614565899 29.80755133160579 0.5354198366686016
4.909830765108344 30.935547034430613 0.5241450201874296
4.933849068625514 31.012962535501938 0.5361819953896269
4.9123428412183685 31.10800109015236 0.5137043535776252
4.952579486897515 31.19005403822292 0.5163785805584375
4.969543837105483 31.323884370106033 0.4752018745636401
5.022345450163705 31.398604764762656 0.4622526957579662
5.029019291111717 31.52906337939465 0.5053106364841338
4.8795401210864195 31.058934978286295 0.5059313170912437
4.91510183943913 31.21387333296818 0.4862161090122674
1.3851608384055678 23.349444514192946 0.6780597579656803
1.4312120198218208 23.443294353410618 0.6896689891770157
1.4678691666875154 23.482747398439145 0.6234826684773086
3.1254104169766306 30.56398489766621 0.5141581918892404
1.313990891728297 23.433296452395382 0.6903558703321153
1.3620573883696074 23.524382525815735 0.7135161120691385
2.7835444609336664 29.31379853348784 0.552099751102671
2.7783862577859697 29.365321041086922 0.5118779000659051
2.792674210638981 29.48053762064727 0.5045613246587778
2.810441621123164 29.56669496791357 0.5050069710623786
2.860504699159927 29.6997310636265 0.4986333429398269
2.888476400149589 29.81283651707136 0.4988655298351095
2.9009822824110074 29.904531125429962 0.4998249991954818
2.9245374112488456 29.94616062621907 0.496060467950503
2.941531734821475 30.049199807637372 0.49921130100435834
2.94800564033242 30.183123445801524 0.5054780970484639
2.943231441420102 30.222742437231606 0.5296243341016885
2.9617826800022486 30.34262633724809 0.5027668568418194
2.9949742929397902 30.425826650642776 0.5346441927288471
3.0703736399303927 30.568678978224227 0.5371157730731277
3.0569362668538247 30.605640422202786 0.5615411574710524
2.939448010144119 30.36235259191497 0.5393974416185334
3.0085858513679535 30.5649777534169 0.5462297088370335
3.020659159840735 30.67899774202724 0.5103088326099483
4.817970513155213 29.07038667407631 0.6570589376351924
4.74918494844885 28.92904420497222 0.6292649374526638
4.773407422457263 29.03059150065538 0.6287853346198363
4.799924286491377 29.05970463674915 0.6436075759321213
4.843618199852058 29.544760078466396 0.6006484731647143
4.8637937698109015 29.571302373190605 0.6462156356232949
4.6827686101958905 29.747841384676548 0.6319085389340745
4.609599850727999 29.69092681753712 0.6218319069368575
4.646071129274718 29.73204695707335 0.6216534277092324
4.675903310179669 29.816773464979907 0.5940230894480922
1.3402470763950585 23.23897212685787 0.8191255237223654
1.389295494403592 23.342875231693778 0.7782467559108971
1.456627505808178 23.549188120599315 0.808989758870984
1.4872092693952734 23.615270429798763 0.7994806908562264
1.4685449714548675 23.721215118236465 0.8031916140424715
1.5047554162664079 23.813245956343017 0.7825821638398506
1.2911856862083928 23.184821222839044 0.8231862561938833
1.2836305648986643 23.417397913596268 0.7507275090346297
1.305406424815621 23.47771336200958 0.800672418831938
1.3489935677934177 23.53849012164327 0.7794885700079163
1.3921798318763352 23.62390767725649 0.7908921018344006
2.9907919869439263 30.35112230863119 0.6379453875229817
3.030967326500268 30.628343120385498 0.6281349301089659
1.2595127303757483 23.36822375869535 0.8077313197063724
2.9281405040896407 30.412522675793095 0.6335286943359557
2.923848581728191 30.45851285390281 0.6355440715192774
3.023154825710977 30.71260011578391 0.6129524293329586
3.024993752399265 30.743954005751824 0.6412191200394621
4.904238967631404 29.61648216099139 0.7304576286816017
4.911082556670532 29.642070073399772 0.7424937050550574
4.656870547102453 29.697266477353654 0.7519726199253195
4.665539523984418 29.722578704374786 0.7376599312404731
4.718139662763482 29.950238999725393 0.7679905065707235
4.751228547091811 30.033840504146852 0.7703349008534779
4.7787306177071756 30.136568734012844 0.7716828475082048
4.827293973135164 30.330274704844527 0.765139608849542
4.903783300087689 30.579450579804348 0.7684164514909028
4.641504237257623 29.68206382344581 0.7492588344289907
4.63813864235028 29.747856124059716 0.7534205246737045
4.664448079452358 29.876152565137065 0.7692539120800798
4.8857836120157465 30.713939942407716 0.7596113803265284
4.883629746840229 30.9610544088503 0.7513708669828625
4.908528522082207 31.052246455903433 0.7195361910639909
4.936666653689351 31.089607970292803 0.7390805981623856
4.8440863137189565 31.06338921012144 0.7450244806154961
4.883447121732464 31.107258919230706 0.7533080579491427
1.4159002933689262 23.44164611028547 0.8322241316515436
1.4049031430527685 23.515849048685116 0.8482293856259112
1.4832203575232885 23.609669831223243 0.8249220344133782
1.2608434487046645 23.08612327709067 0.8760659805765088
1.3109291396287155 23.216759862926136 0.849096837731944
1.334411407560797 23.457577472233147 0.8486668765828959
1.3924291063743781 23.557181884596044 0.8405677488297798
3.063388286910097 30.492219409929405 0.7586515921540224
3.046298706155657 30.563024007247954 0.7207780943945779
3.044864539633082 30.643609281330203 0.7229571721274202
1.2664073198276933 23.43768893249449 0.8409983408530681
2.9292153613348084 30.406331478929843 0.7193485103265895
2.932100858163006 30.471311575833766 0.7352513049642136
3.0380051645555293 30.690972565253013 0.7213840630843165
3.026060227307276 30.763752344121542 0.6982146211968003
4.897951242486793 29.610436597307 0.8572969253592562
4.928176164844418 29.657195755952273 0.8359554519472511
4.681460204310005 29.739418963625248 0.8077580864845413
4.769916909575322 30.071568656565315 0.7873695296705534
4.8027527899512 30.1588552566164 0.797425794703987
4.815310822314164 30.233253508408254 0.7960055636119965
4.85083777915502 30.344359797366828 0.7953433769373246
4.8550072435061775 30.41885816978767 0.7825753983681039
4.890370745683777 30.520590432217336 0.7846111029538899
4.9155743239773475 30.604725250005735 0.7841100293033645
4.91145310134754 30.73008360503741 0.7801024837903561
4.937997454171564 30.78934352159591 0.8002489589159331
4.655109731856179 29.72061433820474 0.7878148907050857
4.664636432852653 29.845998257171402 0.8021651618212347
4.693770193840238 29.950660105478967 0.8387119477682172
4.715249465060879 30.073012285449302 0.8235127244249935
4.739639951626469 30.1770344337212 0.8735485169266489
4.7925712150910265 30.43139410921 0.8480394228561942
4.929560395886957 30.907828122960048 0.7759377870835736
4.909426471939834 31.03463595067681 0.7717931288035283
4.958124783692265 31.115448366902964 0.8087891845334421
3.063405523281381 30.487063940472616 0.848074981253988
3.050825782561191 30.533184107811632 0.8381325432782295
2.930450417579628 30.396913031364 0.8380408304144137
2.915432199480451 30.477920329633474 0.8120275560977457
2.9077643112653675 30.543272812819218 0.8306723005688044
1.1378637849889528 23.696179759532402 0.9625458009164758
1.2200538208671716 23.828960963915655 0.9391739420898687
1.2684682802042695 23.91083970758414 0.9294055172614624
2.902387440823393 30.55897430551224 0.8263226010765768
1.074027029314279 23.604783554853718 0.9665520011836307
4.902046181081551 29.62398226191405 0.8938549343512739
4.933078499806596 29.646544702867097 0.9201843242293238
4.8210741120582625 30.337311600703604 0.9588841285773881
4.9659472845525485 30.859133881788754 0.9325436849111198
5.02232625404959 31.047474934473488 0.9385775856580612
4.726915216507344 30.143463256283237 0.8958246846713517
4.778535645643102 30.252476747547476 0.9103765261869231
4.873353174968387 30.647764227064147 0.8778492653252534
4.944227486090796 30.990735185345102 0.8826279976497992
5.017803494055512 31.212898944307646 0.9499920231291719
5.034234858107194 31.2765371525378 0.9500050639940107
5.025728665076008 31.60342562398816 0.8922053981758321
5.092253718293309 31.828786855454773 0.8850433395983376
4.937403533743995 31.328533393097956 0.8595596957583392
3.7815542565665177 32.63971080971754 0.9369828135688688
3.8011003362066296 32.696405561060686 0.9347088477218145
3.6948708690387932 32.75181383114836 0.9131983225122968
3.0701099818676054 30.48520672627417 0.8839827953400128
3.053026986696611 30.531642682801223 0.9295655059786598
2.931059406645022 30.399490020136337 0.9387067994515008
2.9233044859926323 30.438092947964495 0.9552935397893876
5.048041853425761 31.085420744015934 0.9661768284083049
5.074544360170722 31.18599833356535 0.9754852123486722
5.07916434503508 31.41687620468055 1.0194433978268704
5.1037876497084635 31.475745431797268 1.0519304980330717
4.965120787643083 31.242313693829846 0.9910496753284723
5.001872526183996 31.316017148425832 1.0022905251235104
5.02706610734716 31.396194023044384 0.9971572489710628
5.035401900945587 31.5147201711301 1.010572440826797
5.198571857683203 32.09167942419668 0.9520096504258626
5.241663190247669 32.23581301139943 0.9614917986103354
5.230451997581378 32.28355143410256 0.9672639636621991
5.258229895694683 32.365549469255534 0.9893323590817693
5.2536264626421305 32.48677815800005 0.9944926992585502
5.275954308607513 32.637693399374655 1.0111957645695342
5.150560249060284 32.51638724312453 0.9881775145851731
5.2162719729156 32.60864705346513 1.0130163561988539
5.2512521202939 32.669643195105465 1.0193890313713325
5.104522815620593 32.46020059543491 0.9785175748649988
5.090171297452041 32.50520762569717 0.9825348031355604
3.988282265488171 32.83839244122401 0.986086420217701
3.929119761924752 32.75884841102449 0.9714462448188741
3.908546022008066 32.838191741238646 0.9730812057693287
3.9743986710078834 32.88418210774819 0.9841405260731598
3.775312500162972 32.68965419059417 0.9409050424311053
3.8413976320575083 32.77067727808938 0.9531042909513121
3.8616992322074903 32.786964855273766 0.9738289799039677
3.2406755163098104 31.075472725714835 1.0118830091004485
3.626826238907198 32.45152136786815 0.9672721700015465
3.710535677130631 32.78180780582776 0.9698556371087294
3.0490365638405668 30.57278897279697 1.0258833131497904
3.1833116674582307 30.88088382141177 1.016729842149446
3.190898084329206 30.901654750335513 1.010495026784932
3.2215409725242057 31.01869460721226 1.002892225217796
3.247952543164819 31.127955388915257 1.018263685488907
3.2669992713342935 31.249993529399216 1.0228139493272557
3.384167999906738 31.75169655217865 1.0230093440611667
3.4487525877835594 31.99468305000407 1.033820647090784
2.9315509130824395 30.42619236871144 0.9955529988293793
2.919862224900447 30.46232961591842 1.0241605271664325
2.90083256605755 30.538164496859675 1.0712416729550802
5.005919923498625 31.3366925179103 1.06840890745866
5.035263009168006 31.40594025728143 1.0987913114807615
5.094771812169514 31.54380124744886 1.1492886278977599
2.89525642727675 30.58462707581168 1.1039985606712692
2.8692675665956306 30.687621684314024 1.1699007318831574
5.144636988997627 31.624604579520913 1.1843908973576776
2.857610175400613 30.769477216214042 1.2216285301840148
2.848782540164736 30.833420821512483 1.2631007588317242
2.838899221861677 30.897739095404226 1.3009855227615832
3.37714281819614 31.426593161187206 -0.25833758945021024
3.3549274198868417 31.331267889907963 -0.24834617753957816
3.340313158474456 31.283601977486494 -0.24333128315968106
3.1181597935615275 30.335186925139023 -0.2561560498387675
3.0511864332830836 30.230447892424 -0.24200518900455092
3.026275499958931 30.211777766165206 -0.2396128927853436
3.0895632755364266 30.212560112816753 -0.23927147972310803
3.074721994864296 30.201381473475074 -0.23781332120350507
2.792062982440024 28.933930138700518 -0.26087410228809776
2.768615437071617 28.883253674720997 -0.252260278563841
2.7505848934894197 28.817146084888332 -0.24209887006237557
2.709528497373542 28.667401935270814 -0.26123054870965223
2.6868165829619555 28.60208051466646 -0.24662788213286324
2.2541037009025158 25.931933494540225 -0.2449045793617453
2.246234912204994 25.880031642719075 -0.25606615518148895
0.975736177589579 21.79572384194335 -0.24022104809600525
0.9394387390035255 21.65926250036618 -0.2500732290590004
0.907175455187152 21.529766623261658 -0.2593734430776323
5.01416109037743 31.127108788473606 -0.2637845014428641
4.996258989067172 31.048178184346984 -0.25547632385387
4.97106158909337 30.935517216478992 -0.24362739837665076
4.753858689608136 30.032074213928244 -0.2608023582531745
4.728718383901915 29.936060371224126 -0.24721725946188677
4.8367488319521295 29.248909220907187 -0.2622810172530631
4.825316606314505 29.204295914973795 -0.2547436561523621
4.81627832412715 29.15736433222569 -0.24712594515673825
4.798359777145934 29.11286234368002 -0.23898943828094849
4.719033733323414 28.776800255469517 -0.26003345864904315
4.700578445733751 28.707600572289152 -0.24637777990388426
4.6292358478092535 28.42758162277783 -0.2583685575393171
3.4723664490415764 24.865232136804597 -0.24240618262075342
3.451585155382703 24.777452226180536 -0.25771932221826255
3.3863560826839976 23.293069083385443 -0.2415244917772857
3.34302070728235 23.19476315287235 -0.25178151002539884
3.323390368119608 23.139731092692518 -0.25756053015728403
5.12920666268925 38.49640259779733 -0.20816983197877154
5.036498211638063 38.28126352217079 -0.200389516665054
5.204150255478581 38.47209253605335 -0.20785606798551873
5.300855668033662 38.45121448560978 -0.20781315645017573
4.747310564158858 37.10163939228769 -0.1591192494177744
4.651510138090632 36.66697882674637 -0.14400326857021828
5.38149753221775 38.448372578567664 -0.20828545808854107
3.6867787390929543 32.50789575074474 -0.1855209853093589
3.6181257096466677 32.441486694267915 -0.18048462772085688
3.5945529371088853 32.33285816999778 -0.17287740716233171
3.5719848702210406 32.234051641422894 -0.16596683814418256
3.5510547290649597 32.16112744542065 -0.1608298704281822
3.519269500233355 32.015637597893424 -0.15066656413519247
3.48955132726888 31.889911128880147 -0.1418767838451086
3.786283755536319 32.47969608959472 -0.18437370752785995
3.326037291477864 31.213948694840518 -0.23605308273000752
3.3055808744706834 31.128324998009845 -0.22709235147055995
3.286241790604011 31.04460219353441 -0.21834095592973723
3.969003510827621 32.615643414562925 -0.19534453676134197
3.9409456981374023 32.54258365940101 -0.1900728697230547
3.8765530234179453 32.45715655051778 -0.18363199500298122
3.2737028718134358 31.002620357774962 -0.2139562015753544
3.261697897543926 30.946727627241284 -0.20812186143649397
3.2378515946078097 30.842688844161504 -0.19728478966268978
3.2097166581058967 30.73635675992516 -0.1862166835093492
3.1889704339870475 30.640997531158586 -0.1763137295946263
3.1645656091566923 30.54262073368328 -0.1661144174373082
3.1407128051157294 30.44734870590314 -0.15625867122192336
3.1178446185384536 30.362488200333072 -0.14750392991869102
2.9891916967413383 30.165533685153477 -0.23355587730593547
2.9626985781119863 29.932004467917118 -0.20156057256761734
2.9153408439698407 29.88015140689024 -0.19506080179584995
2.972301531459753 29.931307851583878 -0.201342905449366
2.9477636195698356 29.867920617232222 -0.192906214738504
2.7839584531744688 29.040630594261152 -0.15233881586034115
2.7944609660455164 28.95483892795331 -0.194153855403592
2.7692185425421507 28.885154871154654 -0.1881233032003229
2.7415362987701157 28.789359959046482 -0.1969235720565323
2.709976362799426 28.694562998334334 -0.16288954706057512
6.500474801688117 38.47718367906549 -0.21791828588863216
2.7407758671809095 28.768965408855447 -0.19726855555095418
2.715351199017728 28.68226333256388 -0.1800387667556569
2.6875726504894857 28.589800123407947 -0.18734891120316324
2.67037118791804 28.48446048417483 -0.19200833031837353
2.6433747314012126 28.394046562342695 -0.17493373626801687
2.6175699555337886 28.298784542892033 -0.17457683036913518
2.5884565233491412 28.200105963798396 -0.16111571784874726
2.566673992651498 28.111670969231252 -0.1449831194811592
6.482680612436225 38.188218244845125 -0.20826042088184138
6.572598229804456 38.13946540787846 -0.20744408737394834
6.669921601147113 38.124528932304905 -0.2078126817552715
6.631186301583188 37.80499930565104 -0.196972263425815
6.509578884778082 37.29011355617601 -0.17900408375291488
6.400184541015899 36.82579188808672 -0.1627780230576974
6.40739546364393 36.73320501991029 -0.15982569404301955
2.2410601890345996 25.868654880419143 -0.19489151379203362
2.2342183378101437 25.80343834073822 -0.18206888433915114
6.430250819105504 36.692213379243846 -0.15868126946928401
1.219011461513579 22.842151430690716 -0.165872124470413
1.206769117280571 22.756118611697957 -0.17172697642550638
1.18021311747667 22.660514470758777 -0.17861275621578845
1.1534433000126225 22.53968935406106 -0.18715123061016775
1.1223709265218047 22.407803741200844 -0.19653871220180164
1.1069077904767979 22.331508644632915 -0.20187546678539453
1.0710581587467698 22.20749755914109 -0.21092610199805747
1.0543512811703524 22.123139801198704 -0.21682695059796803
5.0318367180451125 32.35697164493919 -0.19406280195744463
5.00623562710976 32.2204642667025 -0.1845360721216157
1.030097274314432 22.020311815132764 -0.22417381790084362
1.0081621728926704 21.92096020785613 -0.23120429782937668
5.058159746496603 32.1714848766994 -0.18240031738370302
5.156580318566263 32.14918471638901 -0.18305669201020475
5.234475855245386 32.12427516903121 -0.1831730448230882
5.2313184937593435 31.990098075048238 -0.17437777418891184
5.190780857041319 31.84300772732861 -0.1639018987455525
5.1663613769252645 31.73675032044977 -0.15643820431368272
5.1410528501432795 31.62856971825086 -0.14884671881062606
5.113853687065305 31.518998007736684 -0.14111074789645722
0.24326446601656304 18.781905469266583 -0.14245679766059335
0.19235267714945126 18.54936608234506 -0.15088727925742895
4.949595039683228 30.834140860785546 -0.23302063891338687
4.921473066227658 30.722504019323527 -0.2211807629008553
4.897629025739857 30.62192695996897 -0.21058138779720825
4.875855361156169 30.529064564902527 -0.20080813885712165
4.848967710756048 30.427509359364784 -0.1900037181569116
4.827286054267719 30.338750046284105 -0.1806496074657899
0.1228198217922789 18.259988311600623 -0.16144230385028158
0.048570109167267006 17.951125375370054 -0.17273118499508017
-0.02883155323298814 17.626610540262988 -0.18457485160602632
4.807049876277367 30.241474895199257 -0.17055257064909377
4.775819284045046 30.125030533383864 -0.15818675836402923
4.755462182725056 30.034103878460957 -0.1487143927487618
4.735889284168026 29.9604351406713 -0.14091833520989927
4.706548430579081 29.84726288468062 -0.2347350890726183
4.68377737918208 29.75973602538192 -0.22239311726420435
4.66068717784172 29.664707757400976 -0.20911749399585539
4.614137885661173 29.529606982286676 -0.1894181529334691
4.610084907103816 29.484333522884768 -0.18355735687341918
-0.10697067377023561 17.233691458443353 -0.19876264806387287
4.659661248420143 29.451584069393625 -0.18277748912937697
3.3079326425119993 25.955205015300358 -0.13923722257536855
-0.026096473470335724 17.186095560529093 -0.19949343337633638
4.752948836772745 29.42053071087165 -0.1853755284800096
4.265133744728774 28.06613301513811 -0.17991096595686462
4.2460309904089995 27.996927273359688 -0.16245348141623694
4.233849341489297 27.925047546801537 -0.14624507625662503
0.05339093725354305 17.193377471314022 -0.19839479303359472
4.8408506947418415 29.38712307165691 -0.18772872467398158
4.841799510407231 29.278298738037297 -0.17509682840222895
4.250867630130287 27.95437338004797 -0.15531808664175092
4.231311327973415 27.900476643138575 -0.14119131351533737
4.84941615813074 29.236321067264246 -0.1708412964623811
4.837373100668086 29.170635426086545 -0.16239007367961725
4.803716097718399 29.07437702151595 -0.18659289510102176
4.776698510403916 28.98439986117259 -0.19100721792854092
4.742832220374267 28.872636012592384 -0.1996298610663382
4.718539601672883 28.776286551599114 -0.18386466690064396
4.694167930234329 28.670849669496526 -0.1931935187631294
4.679799899959918 28.585142055521242 -0.18458230445149543
4.651095362417708 28.48459265604212 -0.19774373794268393
4.622380930800336 28.412807949409498 -0.18955190266257618
4.690366109200653 28.54924550235385 -0.15072997764828797
4.675827305560342 28.498492723890575 -0.14256532454607243
3.537228428731591 25.124728598310604 -0.19755679572402404
3.5213967463178912 25.051694006268182 -0.2101710426914951
3.4975967661645653 24.967291219622098 -0.1843672374839646
3.4737832176330725 24.879247609210502 -0.17257934280889595
3.439543572838975 24.75685516952662 -0.17293863450145558
3.4112993097080526 24.71368078161197 -0.1787837163813984
3.4149944425761167 23.52619610503127 -0.21680741139343412
3.4048535182092676 23.38283534355536 -0.23205975882255864
4.57441575188846 36.3366146991414 -0.13246786930897586
4.499116654639879 36.009884646825824 -0.12109029075397257
4.429620590115093 35.720635002103776 -0.11097990104783378
4.365819586165531 35.454675236962196 -0.10170733841549404
4.303722934694153 35.18039584764468 -0.09214722062868827
4.250276226679981 34.967329871224266 -0.08470927190350465
3.470916203811596 31.818656706926483 -0.13688072062062584
3.4530882543548604 31.751261448141847 -0.13216862572685237
3.427168711112564 31.63611971043529 -0.1241351024378099
3.4018560122557235 31.516865931754687 -0.11582837025825055
3.3790347483477365 31.43732789423728 -0.11027010730958015
3.356877504640321 31.351698387804582 -0.10430178055448161
3.3349322382394297 31.238037040985766 -0.09641226920235252
3.3072664317515796 31.136186712610453 -0.08932026950100871
3.287894308650229 31.048226108798083 -0.0832162760005251
3.2754172073490517 31.00013673810126 -0.07988198936234564
3.2572883637957384 30.92298735992375 -0.07453283162715613
3.233436785776108 30.824615757809212 -0.06772073423817884
3.2115306219378064 30.730111461885215 -0.06118806445145217
3.1902441110549034 30.6484325711885 -0.05554517706800434
3.17071567992302 30.567658653679498 -0.04997571838451263
3.1474117072206553 30.4578620067311 -0.04242190124096591
3.1286906293603876 30.389420901979115 -0.037719092038252994
3.0526507678514907 30.230187245531198 -0.13400539184015411
2.9894266635674516 30.177329733718135 -0.1288641287218008
2.9627999974321253 29.941781411799873 -0.10474999894521075
2.9187872038099623 29.880836940476556 -0.09885986630036539
3.0906418310990653 30.21752586106821 -0.13255961925413118
2.9750410139137973 29.921357433879415 -0.10255011464538458
2.795890301915404 28.943563164491884 -0.09444124872721277
2.7736484434900883 28.88436258779183 -0.09048231217770045
2.747574627184295 28.796601627599873 -0.07401831132406798
2.7065614172151644 28.689059756752545 -0.0932911123445723
2.783875765109306 28.881782334490797 -0.10177143016817533
2.748708118385099 28.777970827749563 -0.08877189323432327
2.7220351542082453 28.698204561279876 -0.07196052377186364
2.687941775675248 28.589397887618325 -0.10272247717845134
2.6727904661587294 28.484423228345293 -0.08822281416155592
2.6453675147860247 28.39045245954418 -0.07383020070879698
2.619614801478029 28.29823685721376 -0.09252340681674787
2.5958372137704826 28.194774091090043 -0.09086544582937475
2.566995452013418 28.098208971201124 -0.08328182827007917
2.540900456838595 28.00333121600731 -0.08595330714650067
2.514832564698512 27.91920195556337 -0.08779437012371274
2.4894877505746296 27.84202787857862 -0.10679704941138807
2.446743089297946 27.724877929780405 -0.09752495468915101
2.518500824387884 27.89511249870235 -0.08477885099518069
2.4910797681402634 27.807694273983593 -0.08094174336967326
2.463090585934907 27.713555737047884 -0.07376963324613595
2.4373461972008847 27.61939347044792 -0.07188374344209983
2.4093452571745573 27.522527872936816 -0.07510144135251798
2.382100287131659 27.419298177795774 -0.07608253479901987
2.3518688796678497 27.32062165327406 -0.06528527387512065
2.344874880701374 27.2571249085885 -0.06098205598605039
2.3444813233287927 26.64883864627641 -0.09178572559866258
2.4802460936748405 26.755546474281182 -0.07004458090132316
2.4041708508357993 26.630456440224414 -0.08172685124366028
2.467012906322737 26.609507342966488 -0.07286053247413736
2.4528361558429435 26.54536696865686 -0.08138852916634373
2.428776119020402 26.490539116974468 -0.11648637245661023
2.2449255993347226 25.84984313752382 -0.11007219697815879
2.758712664450242 26.439776273621813 -0.0661647929716585
0.9395050684264543 21.664390152014747 -0.0377917660667763
0.8976832052638528 21.512618696023697 -0.04334691053726619
0.8654739750636171 21.38080372421451 -0.04810623099800089
2.8704730397056246 26.34733577189193 -0.07025914856092656
0.8300253417915289 21.23735480845176 -0.053305654889894555
0.8161485448064956 21.052204784606648 -0.05957033170585345
0.8955045666810126 21.001475792658546 -0.06016781674932384
3.035474506738368 26.17968801639109 -0.05330425931480785
3.0114231606187545 26.14205457407631 -0.08519989214825882
0.9722257210952541 20.974633795931442 -0.06006410645092629
1.0044278085623408 20.927609869062866 -0.061234739628349286
5.082468844093838 31.402406486432078 -0.13283619989096085
5.053407219022138 31.293496351336454 -0.12510380480232916
5.04158605320317 31.22700138499855 -0.12053785355304816
5.021635842456377 31.142286954615308 -0.1145916870817133
5.003667403625274 31.063118378156297 -0.10906538269021471
3.0838622339714403 26.165692477513684 -0.07328778584094343
3.02850217467497 26.15445347647445 -0.09978658786873043
4.983736921159669 30.98045642619119 -0.10325750378302473
4.96339677528301 30.89785495615004 -0.09745702306702436
4.947052408661918 30.826579760666792 -0.09247478773711185
4.926547967440575 30.731918128804423 -0.08590206267397169
4.900525801758446 30.626511087225303 -0.07850679715926258
4.874395188597061 30.52435037229732 -0.07131728147030698
4.851602637538975 30.431546348681103 -0.06481489492636745
4.834517928448153 30.3524466392508 -0.05934366105720221
3.1406239990609826 26.12812659310095 -0.07650715297380263
3.177427440097654 26.047090486837543 -0.09598952231925112
3.1579997901962713 26.002592802708328 -0.13016683525717543
4.806381169169154 30.238716880014934 -0.051387157464439295
4.784238330797664 30.14074667499705 -0.044596995577806234
4.763014132277679 30.059958537887805 -0.038925495459643064
4.723441970798964 29.91323684813689 -0.13592537836646482
4.704097891469084 29.841526395773773 -0.12833627551889243
4.6838902537439555 29.75896190952916 -0.11969693607279133
4.663246075778809 29.678719959265877 -0.11126788695650652
4.623926660437261 29.556379948156195 -0.0980802391051249
4.61438928897611 29.491236484875383 -0.09159405854054703
3.2514559608136455 26.083109897537767 -0.06571561680862141
3.2507400614580386 26.052850010579043 -0.10501700045826753
4.662510504331248 29.455637116955135 -0.09061463892848251
3.304326059468002 25.995215351901262 -0.08850342842969008
4.760971547222905 29.432661945585593 -0.0934227343742309
4.264086958541201 28.062641349341703 -0.09159047809543366
4.247553064815244 27.9953093333668 -0.09486515969563794
4.230399930630153 27.916372705660923 -0.09380348121756593
3.5298048980396177 26.223261687375043 -0.06364137317546532
3.505193121229003 26.13676389742203 -0.07669478985781551
3.473099504002856 26.03348599086594 -0.09044247623401266
4.84354403092744 29.390692631133106 -0.09400614172968699
4.84172925173584 29.27034729978511 -0.0833590846876079
4.251713254840138 27.957905061383006 -0.06787068827645192
4.22633564050081 27.87923275364473 -0.08438952104430998
4.207618454464552 27.798680056286358 -0.083256792424024
4.191508929303188 27.68447590036413 -0.08517319992239818
3.683530696577478 26.293100478882593 -0.06623322306600846
4.853312435416157 29.233980736001968 -0.08085473063633795
4.831430365641672 29.15553420790041 -0.07287176532837847
4.802010933976321 29.049912815499656 -0.06217749772357503
4.783191147772121 28.958232073098944 -0.08351977550280996
4.75987809924296 28.87479495034507 -0.08406480270499596
4.718359913329538 28.77586920703149 -0.10869176693303956
4.693854188229557 28.67987049489044 -0.09625895755949157
4.683918953012541 28.574109627385816 -0.08424670813003866
4.672473234884441 28.50886569625032 -0.07647545741601187
4.640888180171664 28.43027587358959 -0.06559451296304848
3.853302723584079 26.39378339106874 -0.07049542693932112
3.8372399254222755 26.337389699663305 -0.06270200125289165
3.770511131714418 26.27417185742334 -0.06772977569704193
4.662718838165681 28.466862269068375 -0.0993524397403007
3.8335168356161424 26.29964593731109 -0.06506019863995212
3.825957732735954 26.268326991493826 -0.07427889689245946
3.5354034623615775 25.12908331829606 -0.07200818949270522
3.5180539978791265 25.064161430756506 -0.08771402069397638
3.494047969677699 24.96111641202187 -0.06435114051010155
3.4715410731509273 24.871414526404422 -0.07363993249134772
3.4375063863635575 24.75994780186064 -0.08517771857483082
3.415389259413389 24.712789426408907 -0.09000521341373033
3.41753407065728 23.39298478420974 -0.09635237861666679
3.379158165763807 23.306668624940848 -0.10229711569976771
3.679432076718509 32.50407303169823 0.0009972085479722365
3.5981481084549563 32.361910934187556 0.006174947494596815
3.5755792838712166 32.264931978102005 0.009532121307712534
3.552967332382294 32.157943682898335 0.013236913949390448
3.5214128053283185 32.01918879933664 0.01803985222270812
3.4925143953953164 31.918217134855375 0.02156010211037373
3.473186517664831 31.82886382650028 0.024652868903628826
3.788531632629878 32.481831008324065 0.0011745956941595845
3.4464355742712782 31.718594239492063 0.02847209156947508
3.420789802007196 31.610193492381235 0.03222193894216216
3.396409167052626 31.51865236364061 0.03540292723426717
3.3733877743824845 31.406996364789883 0.03925171335485507
3.3586551153116178 31.347112509059063 0.04131904112739089
3.336732491432105 31.257240439549186 0.04442874252944411
3.3089333499106326 31.151221204905312 0.04809967179316889
3.2894375714490236 31.063107956788958 0.051136404984663056
3.946602033870848 32.573795494972515 -0.0027948373821156045
3.87887761748185 32.46043392517951 0.0013882179362333519
3.2769481834949477 31.010942090823146 0.05293194406138772
3.2586636106012685 30.939654133783648 0.05539575846697402
3.234823782529867 30.83511885612416 0.05899301355527105
3.21822612741112 30.761649910724557 0.06152024969605209
3.115874360668457 30.33158424371404 -0.03374894724359205
3.0490042978830054 30.2276508840917 -0.02665384679438472
2.9904734241864466 30.180425320096514 -0.02350815111306547
2.9669614371800783 29.957746296869736 -0.008369049213554802
2.9183307463804122 29.892500727488716 -0.004093248562934186
3.091562240128672 30.22472014240343 -0.026429497809620714
2.9598307787473987 29.905456570096693 -0.004824717400689071
2.79313094216374 28.94947090736054 0.029360697825660174
2.7725900748454535 28.894716882111727 0.021927044128423855
2.7453849475297503 28.802194100094066 0.008404658059211808
2.7251320247940325 28.73590162388406 0.01496116953411477
2.7392021173423844 28.76044442188452 0.01233188959413789
2.712961173917216 28.67219196583961 -0.0012462856679666331
2.6879218827652402 28.59642840504564 -0.00047094961493895915
2.677470816407885 28.485250188600624 0.012632060307874234
2.6499694667770806 28.39122360234794 0.020833898071246793
2.6198671017747532 28.28662636071966 0.01883499813222633
2.597436471905911 28.197381186645462 0.012132337313088885
2.5684941489427593 28.098947638115124 0.005104711706113811
2.540359104838647 28.003292815882833 0.014722040510230752
2.5119192854343746 27.912894884736037 0.005737714178860334
2.4821418885474147 27.820896432195923 0.012155941887463946
2.450373549796701 27.741580350967094 0.012974196261104316
2.4158511494901407 27.648007943176427 0.016642741887355938
2.515658096838691 27.88281721267489 0.011053017216833685
2.489629412757639 27.804279055575737 0.010860375761440826
2.4589012376916046 27.717481885773886 0.010843447870385037
2.4320053872339518 27.6374740348688 0.005416565598081437
2.3946087427488605 27.537943012614296 0.01283782145502321
2.364769689028746 27.398633254427256 -0.010499302598381652
2.3477413881729268 27.315594551930506 -0.0026586708381251614
2.3432975548779247 27.257677885126135 -0.009301965867929245
2.345494596351803 26.644336219597317 -0.008468690007514351
2.473191943715721 26.73429146859829 0.007784306172501289
2.405227757023715 26.630240886424513 0.015158830198884313
2.46412183735734 26.60696042286213 0.011696755279806247
2.4495749614059843 26.5415077412125 0.01661890755197121
2.431111295298965 26.490399183274953 0.03195494379317194
1.0719779010600012 22.236483488998807 -0.017263684464400436
1.0475966800798036 22.11259847176535 -0.021639380345948422
5.032420523119168 32.35443587093111 -0.0038133656279634442
5.002956426254934 32.20630852970894 0.001310251085744861
2.734432081337256 26.43734048844769 0.002089919222216942
1.0232779320597745 22.009579036385816 -0.025361325183298963
0.993248354184983 21.891745502043797 -0.029619479220639136
0.9679776728077729 21.78274428888073 -0.03353264881756372
5.062455383018885 32.18001257807506 0.0015975443134360404
5.15961306898264 32.153911120993826 0.001497885377656244
5.234273053502269 32.120587536953465 0.001829771090975263
5.220223114714484 31.959291555719666 0.00719681081676006
5.1898700154673705 31.837967816559704 0.011426596683747913
3.0226079704562374 26.171961289080937 0.014564455250356597
3.002515989182472 26.152929989292684 0.009777007702479652
5.163174552912125 31.725949806302957 0.015328319230160307
5.130145762496085 31.599112673729827 0.01976170709679058
5.10496277084476 31.494973702733947 0.023390196020486254
5.0818528324116565 31.39851345011733 0.02673784022099954
5.06120991231435 31.309694367185564 0.029822977556247535
5.035292820032545 31.209965454357867 0.033304126043508936
5.014435167741076 31.12329062913834 0.03631988268504514
4.993934636501799 31.038525122991846 0.03926005813698681
3.083205709272623 26.165277420157757 0.004738273260681082
4.971254902250083 30.931787081824307 0.042934329119763186
4.940047529589675 30.80903789586525 0.047213462493082406
4.926888876205172 30.747030137144737 0.04934039941710096
4.9041780360769 30.648737741327366 0.05273905894165332
4.884738673454982 30.55984136269383 0.055799155664658484
4.855222608666885 30.45232953372538 0.05956093014795787
4.837042293847269 30.370316478884593 0.06237951031675093
3.162112082796792 26.122228827190586 0.02706616964726287
3.1761354929906354 26.073351641083264 0.008049188659848387
4.749355787474939 30.008816742297004 -0.03532632939033942
4.733414152089237 29.943079505663093 -0.030754886752804647
4.713738816752185 29.85898907692527 -0.024931274715668555
4.687889005544563 29.765577651145996 -0.018357838523676943
4.66384057760729 29.668755133598246 -0.011632764062561328
4.613567776645528 29.52692572000652 -0.001359783176925311
4.613714184108472 29.489232106511324 0.000970522526726629
3.261674740425614 26.0843587183287 0.021807610878615807
3.2629230467876122 26.06181340067597 -0.023560103023847853
4.657488705694169 29.446672467461816 0.0022665625388776506
3.3145257153791756 26.02216621589022 0.01644819998089252
4.7545491039049645 29.41355437924651 0.0012275383999418923
4.265000304302203 28.0641464945142 0.021363662561944708
4.2462827013571145 27.9982929703546 0.016151355233630982
4.236599111031238 27.930947461288905 0.004063058397752159
3.5324168744320223 26.226960367430415 0.004208267129402983
3.5065003908358823 26.131683768608777 0.015766084103922783
3.477048964079233 26.04292540336238 0.014818131926379614
4.8491710717274 29.389998678896806 -0.0004902678852322928
4.848068844660264 29.27864590042699 0.0060996183942292476
4.255710114744554 27.967971518763534 -0.0005028978364971862
4.228427110258814 27.881803066140677 0.00707237750694361
4.202777411444293 27.788102808351233 0.006339241263676444
4.202230479578793 27.718956791870443 -0.010744882606570444
3.690075463940137 26.289900459065464 -0.0022166388470448717
4.847787791752066 29.226383730002745 0.00915519423903182
4.835506101996699 29.160650539040066 0.013394750361626656
4.814203072149639 29.062441398315368 0.019799868404753465
4.7877937073196914 28.964257899502453 0.026349943085449933
4.764079282796962 28.873595910880073 0.032339256328707426
4.713697734024135 28.76740814191303 -0.0005460558403694443
4.69699722365577 28.678691336412403 0.014797849867693617
4.685603827740065 28.5784602170452 0.013794107588840063
4.675438904250517 28.516336924290353 0.055282756884977094
3.8409586531273474 26.341303002803453 0.006656345388906797
3.774762188291358 26.27095304195793 0.01409429022944909
4.690420196987279 28.549408621658237 0.052917402435470086
4.668303495646437 28.480479341205264 0.022315186328779792
3.869569687538738 26.381822337601665 0.03274338975914146
3.844583872258587 26.314886254168464 0.02427047210105123
3.8267476745348397 26.2732640392309 0.010293183862938031
3.53699819170819 25.12383649486436 0.026452724326896902
3.5203769877337883 25.059314232002585 0.02205342312611403
3.4973053241401364 24.966548975640432 0.01568812885598589
3.471518198691337 24.86902225981738 0.008977119556135733
3.439320904568088 24.75388590334565 0.0010244303541491612
3.411049111924816 24.70781481305249 -0.002049972432574418
3.4162213611192915 23.437668475620875 0.03933210359255276
3.391951058928445 23.3203970704333 0.035171698970997964
3.2069665091460746 30.731236844180092 0.0625766886378691
3.191305580749722 30.66162403048463 0.06496874161355194
3.1670077233687723 30.556134557125297 0.06859008154432392
3.1429597286927127 30.46208438007593 0.07182136333959636
3.1206883603720907 30.365200136581382 0.07513848962974967
3.0613496788812578 30.23989632083473 0.07950131064893354
2.9929438886452586 30.18837533887 0.08138505648632657
2.963818725325171 29.955213611632956 0.0892490548184898
2.919322649099732 29.895784700081645 0.0913066082459278
3.0889045940339694 30.20983904013336 0.08043996067949497
2.7925485931825573 28.963436830557715 0.12156955648298079
2.7647878539850135 28.874882485954796 0.10411040740223726
2.7452961781125396 28.798826798967934 0.09878676080569843
2.7058565144740285 28.691235577539583 0.1137978327879822
2.684176827595312 28.624895580187253 0.13177220751630955
2.7416060831057223 28.765235029616623 0.09305445833392612
2.7168627986276594 28.68823562989162 0.10082976760520926
2.690272057301044 28.584633797310097 0.10180943193589598
2.6750966895252954 28.483522711400624 0.11359493891439613
2.6466541875352787 28.393823971154777 0.11563985213450796
2.6244389934755477 28.293770373909123 0.11860220483038
2.5965838340737006 28.19317847688397 0.11786454038065623
2.5699149755820065 28.098433993015938 0.10772674361166709
2.5425097416685896 28.00419920592402 0.1126324426235695
2.5131175513313844 27.9151895344541 0.12261813075033844
2.4822719490870155 27.82691832971409 0.12868349710347615
2.4421101175859725 27.72183211500436 0.15759270685094762
2.4176184265197453 27.643715898709498 0.15933006171931297
2.5419157876952494 27.968417395873583 0.0949699183672186
2.5163208371907526 27.88991377383551 0.1002859400778565
2.4895577679463288 27.807482997472132 0.11836045098843276
2.4603959292098883 27.726919032542295 0.11503260504400363
2.425914518488701 27.650786031420434 0.13821451859341624
2.338764276695583 27.292039703090875 0.13108199422828315
2.4649744866522014 26.715926189741467 0.06820624916961199
2.4103020996192215 26.63578043664993 0.1131526811918345
2.4682983803376706 26.61344279670721 0.10236448066721061
2.4501878100829044 26.54124121222863 0.11609810582972933
2.427306992699232 26.479585543919907 0.12065452337232038
2.549236503860292 26.57235856758672 0.1401371338217024
3.021064310048514 26.18716361910566 0.10464042275831696
2.992665737260364 26.16194403845515 0.1385216101127983
3.0878829542766013 26.175639516859356 0.10166901381403103
4.822167783549032 30.311023610046092 0.0644406397407958
3.1748208728791125 26.125851132626227 0.11276620631074784
3.1737864681124632 26.095259522984435 0.12208980345022773
4.805194523670423 30.234890750178014 0.06705490045496115
4.7775949568551255 30.126035173126812 0.07083145160030749
4.759206582083184 30.039207857692453 0.07379929020758469
4.7290634617191465 29.933519605135213 0.07749954553113264
4.709258913684917 29.849315256641017 0.08039513738622368
4.688837213250828 29.766403955623176 0.08325472830871829
4.668028776586006 29.685795787557794 0.08604351323114433
4.6266658325186 29.559695212679106 0.09051028799418695
4.608015267902509 29.47830061400805 0.0932909648612804
3.2698103518448596 26.1010117912016 0.11887019851889415
4.662215209893456 29.453900421017316 0.09336153287874197
3.3196621994416815 26.054038048241885 0.11547655056617355
3.3296097041309403 26.01508664672408 0.09217995330986847
4.757022470798262 29.425288486871896 0.0930012872300662
4.26823990430609 28.062203812826716 0.1257542805930628
4.250947790419346 28.001947106676084 0.11697570973606092
4.230954239339397 27.915418036588438 0.08098642893862842
3.5257032923973264 26.217991999256768 0.10062521523076115
3.5063922480502208 26.14474184294268 0.11200183416178237
3.47425696231884 26.04020999629952 0.11253589531379146
4.847274930969944 29.387170128583268 0.09293190856399508
4.841078598068914 29.261024706605212 0.09683458315766924
4.256606135465698 27.96780514659322 0.13141792066056485
4.231652631615692 27.88474502964468 0.1149989837057301
4.20833718238035 27.80159056507491 0.10762779661447307
3.7047188184897797 26.28459788566844 0.09973328853348941
4.854165467719244 29.234643325833435 0.09743920864168373
4.834309601030564 29.16575361080667 0.09978834903336643
4.8101992187992595 29.072952020873498 0.10290591328423213
4.784122933188026 28.976058409263032 0.10616151308956331
4.7626913429752475 28.889473785852047 0.1090313571724928
4.711481094951111 28.77327222307835 0.1132106008363691
4.690818209884647 28.672589429854035 0.11644522611388201
4.688957797415787 28.59014803163168 0.11883060408270713
3.834455850534447 26.327195257449233 0.10126202981636469
3.76785672480871 26.275850421871404 0.10514133977538015
4.690715980398115 28.54053343380971 0.12020532457684785
4.671934052633779 28.48151904400261 0.12217156710085825
3.8356286008605496 26.304013223622636 0.1101288184249145
3.8249320247332075 26.275835203396266 0.12643211616906652
3.535815761768301 25.134732074472673 0.10058803003924024
3.519921231035174 25.063640491390807 0.09814137884897431
3.4967907977499526 24.97220852391607 0.09500331220730372
3.471525649374716 24.86553261459257 0.09130496270638667
3.438501330003892 24.767979213080032 0.08797520788215138
3.420832851382263 24.70933598233187 0.08594889061084222
11.16419261274067 62.757995617120855 0.2129651904609483
11.283041274163894 62.72134851430987 0.2128782451346072
11.402612540326759 62.68826607838798 0.21290461965245588
11.526510393706568 62.65985444987514 0.21283880483054038
11.651989960223293 62.63888236110445 0.21289220582103585
11.772463982880309 62.5959778468723 0.21282885871509852
11.894820616424335 62.56250120053555 0.21288580566185517
9.708890334847402 56.64164681110038 0.20739414019312005
12.01757431470722 62.5428384841742 0.2128591120760425
12.138961508370139 62.516952722301795 0.21293732372855212
12.267786751983463 62.49488274790903 0.21292372469856757
8.622200286142665 52.92601429401614 0.2041316595854259
8.71406532117432 52.91715686093552 0.2040612730733386
8.802508432928377 52.89239959593968 0.20405508915481385
11.750446790167207 59.96015692946929 0.21072293982458434
7.175389021060738 46.93955563907902 0.1987560341583873
7.245411377200158 46.93195435878634 0.1987433988501858
10.928559763737251 56.340622969170745 0.20742896478295964
7.312323899444935 46.90835120072634 0.198665713711563
6.751293216642972 45.43235504160306 0.19745547200900326
10.043563258062996 52.58427903307582 0.20408367721140439
5.107846680324462 38.492300878719846 0.1914220820493216
5.001201064916308 38.18598199195138 0.19119630673101218
5.201507844530218 38.46265444352514 0.1912931129812023
5.362585341872846 38.46259279703217 0.19114147152747063
5.298030164395726 38.441532131244315 0.1911784288563645
4.773363390548544 37.1623095719894 0.1903232083005328
4.696236663738036 36.87433480913295 0.19011033932589916
4.612093130662004 36.50234752834958 0.1897875058702425
8.540748403426253 46.628428353991616 0.1986270483931681
4.536914520096439 36.177527281578016 0.1895314451589772
4.466956306134596 35.8922022440732 0.1892944716614645
8.64001100095525 46.59947595077901 0.1986947603021954
