ply
format ascii 1.0
element vertex 866
property float x
property float y
property float z
end_header
43.72692428173343 50.05886267031455 0.41413667690089345
43.61318193929264 49.93180639305199 0.41398574492501256
43.59779407989938 49.86433912463332 0.41778493031568936
43.576370441098234 49.768687126201044 0.42341686522576755
43.54345704779159 49.67853625455456 0.4280274150480155
43.517250162688 49.580844331337566 0.4340043265830657
43.46878035900785 49.35430522717565 0.4497027789228348
43.451005470102174 49.28457808007919 0.454603926421641
43.42702358353003 49.20167925097329 0.4603958182784587
43.400585770474635 49.128033809259904 0.4653680524546145
43.316931557701665 48.97890804450192 0.4741091870490413
43.31452423372004 48.94848245852742 0.4768352550162777
44.656886394210666 52.32063397569561 0.43712736861345286
43.91708508599217 50.26150827573357 0.41715738731771174
43.88992992406352 50.188113790602806 0.4193415551182657
43.86237130542844 50.09163068122084 0.4231929927420685
43.78368593165826 50.043514439970615 0.41984150442771545
43.42390671234276 49.14391755525096 0.46539048444486314
43.404283646757705 49.0860082561605 0.4694338157268972
43.37994707684895 48.991984704782105 0.47662924836759374
44.77198917026162 52.291430723670196 0.4487395266333289
44.002859730357144 50.25714298802148 0.42489530751416155
44.85872776223919 52.266987299023434 0.45751023870655133
44.22382917330713 50.56592368513942 0.42823601532103145
44.17359847546432 50.501358709438406 0.42679955801718866
44.15542066425756 50.40024469971891 0.4304108969394577
44.136221792512664 50.305206981861645 0.4339089232592552
44.1044053471481 50.23122911823392 0.43533041031461767
44.975823348334195 52.24199606441141 0.469408029927932
44.30681432112626 50.56627533664636 0.4359478696966311
45.08149507815814 52.215022929101096 0.4801666956121235
45.16761126227958 52.193858884742305 0.4889323553813513
44.49175598438127 50.503051746897206 0.4562201805981569
45.27948863574909 52.1725406019643 0.5003719093596704
45.30755003021891 52.157717349002375 0.5032293785414279
44.58351665403587 50.48019357832743 0.4658794202211682
44.67186573659316 50.45949756463074 0.47513008014499186
44.76954774724644 50.435604976425026 0.4854056909392373
44.86750370386608 50.412395557329376 0.4956879721707687
46.69634007854895 51.96848635051556 0.4354763132033767
46.669457836587824 51.8972036328103 0.43366381632430645
46.62970328456145 51.84756577712867 0.4310395431083324
46.003810353319565 50.12082262736352 0.41722820387919907
46.806092289155956 52.03002209887169 0.44306040783969886
46.761921733295615 52.00992733308115 0.44004321707728405
46.17161277569187 50.079884642126956 0.4289412703399427
46.34353749846003 50.038653950932314 0.4409358860642652
46.53047044070344 49.99233321282428 0.4540186050810064
46.7440561985274 49.93763404990047 0.46903370314097176
46.932049252116286 49.90667936232041 0.4817628647988615
51.553215322825196 48.71848356206295 0.4098079235258702
51.63722470021949 48.73311855049891 0.41217110576460675
53.39221881776246 48.28673389068758 0.4726910623552763
33.86925017910571 49.16817775782181 0.5417542497814121
36.04705302660732 54.434099770787824 0.5603778169628115
36.02722161286747 54.36259643128012 0.559649908201667
36.00006160290357 54.264819256090675 0.5587901684900995
35.97228531072034 54.1679737825635 0.5581974920062456
35.94643522998304 54.070918424973584 0.5575725682026043
35.9182283318262 53.97534083917915 0.5573978352716351
35.89330614677216 53.879102562931365 0.5570414195868172
35.8589172773269 53.7866698299653 0.5579042109113632
35.82760136920084 53.68611045937054 0.558417323364923
35.79286404192644 53.591192252111036 0.5595905578250504
36.19692461324621 54.570679955597555 0.5514934143939683
36.199871616839886 54.50810258358487 0.5487330061723374
36.17847884424558 54.42828574312414 0.5476579756213553
35.83725050248844 53.677145546323665 0.5572219144434372
35.80245686042595 53.588245637586994 0.5585579875981477
35.7852656956482 53.49044971610534 0.5580711415237141
35.78287166705839 53.42587632272989 0.5569200298648336
35.72796012971925 53.154673943690284 0.5574881963167122
35.706475487775 53.09531137076603 0.5587663503613711
35.689543485778515 53.043690082647586 0.5597388770656024
35.65117048056941 52.941230325711864 0.5623264546447599
35.68451609822849 52.99093839692278 0.5595347631613092
35.64382537740285 52.88787323012423 0.5624510920230867
35.62229302946944 52.80159914028607 0.5637452876180091
35.59381809279577 52.70520848259116 0.5658121019053728
35.56564736969801 52.63598871480575 0.5681941587874331
35.995546584852576 53.35106909621008 0.5337540940470387
35.789804131953055 52.97283952130304 0.5484135150147598
36.201035113024105 53.27980813016928 0.5113880751050566
36.19094488011509 53.23200155109773 0.5114798384030861
36.14003922677266 53.0933890404005 0.5141646589504945
36.19813468112805 53.21780184592365 0.5104644232286997
36.176285671275075 53.13510233695291 0.511173471160902
36.28633339955202 50.2211268761908 0.5291340434450336
36.42881259404492 50.33436375169733 0.5111157738263987
36.39326513307541 50.266491378879735 0.5170476419365686
36.39190036808937 50.2005526452697 0.5196025172627898
39.68369564914579 58.51551296443995 0.6072382886876813
39.66295079636692 58.442370396522115 0.6016282695184578
39.65043414090003 58.381617658891486 0.596807197306209
36.4496295249862 50.17488598207785 0.5149610003314724
39.63796381724262 58.32077482698805 0.5920240682297557
39.6165238163444 58.257211996312634 0.5872697686091974
39.590805474711004 58.15618664272512 0.5794889484010879
39.566909592739364 58.05215594079433 0.5714198982706753
39.54230475218972 57.96393194419595 0.5647418044348531
39.51994563777751 57.865702993650416 0.5571658488343865
39.492795866680495 57.75523078882794 0.5487429603797516
39.46570137683824 57.6487761263072 0.5406994265774787
39.43815313754435 57.5499252200364 0.5333542331869743
39.417261950029534 57.470435908150726 0.527410964215167
36.836109142858206 50.74354705570001 0.6029024414246873
39.40956475614865 57.42132276292892 0.5235838896996854
36.94495341168338 50.963804916251 0.5794227328642689
36.95656019050425 50.887891718911035 0.5808112843270936
36.91351123862998 50.82241964587203 0.5892457992067299
37.09199589707925 50.98734617466511 0.5586979453548575
39.26436604364835 56.3413046949041 0.5983354985070106
39.20666435546062 56.16076756981589 0.5809528866676483
39.16224222567361 56.008265823133 0.566316351121321
39.077638742953326 55.80421244449955 0.5488142545320407
39.4454147368979 56.47202337808299 0.6038243601081745
39.41881092557291 56.396114163427235 0.5963299103032618
39.36136991983687 56.32083456628386 0.5906245231784899
39.25749517860233 56.1320310602776 0.5746865324268373
39.210748586080946 56.00404494584206 0.5628540475010448
39.1840126884136 55.94139148785254 0.557409038952702
39.18365852518781 55.80545931456376 0.5420863451680826
39.1421569438374 55.77679956497834 0.5415336711868495
38.2923910913937 53.455307781897524 0.6090390713660971
38.30147433551385 53.43943639169502 0.6058623606699927
37.11638178000962 50.43030844271194 0.5812635354868798
38.442029726411945 53.52289149401989 0.5879464081500365
38.40132713275066 53.46176662256123 0.5894007736167555
37.209162431825064 50.4132690483308 0.570271982741503
38.49428954128495 53.5096370572346 0.5770976775396239
38.42349247733034 53.44513224838343 0.5836856273426474
37.298461700197834 50.389686925642636 0.5601928026599334
39.212117810445356 55.241009421315326 0.6018674066290779
39.21789057882488 55.161399877507606 0.5901021626058913
39.2173284978855 55.05835261633388 0.5756466226284109
39.21644682660213 54.997918214364205 0.5672569277096211
39.096975772366015 54.72734137083528 0.541535368662917
38.59185997765029 53.49325104360715 0.5577301745431753
37.402153843565394 50.36838027934287 0.5482795362433837
39.21665467421392 54.948158318202445 0.5603141356628081
39.20973649283466 54.85679597486914 0.5482945230911729
39.207968518808386 54.73916444180304 0.5323147805067894
39.13800857990212 54.660561244195854 0.5285269845466547
39.095838277043185 54.628464153972374 0.528493630269083
38.69570828905498 53.46630651517569 0.5362505786292298
37.49370381704991 50.33641885793571 0.5386789191102912
39.21644571598028 54.641506844218 0.5182244566173475
38.80006390590708 53.43648978234438 0.5574624522928484
37.57990619093262 50.31231042737111 0.529412252701702
37.57596944824544 50.23607402051022 0.5347595378547356
37.558437497016236 50.13482549180058 0.5435590560039354
37.53047112094679 50.031453854990865 0.5539513012007853
37.49980697253396 49.93933081688255 0.5640382600394644
37.47084351581091 49.84527387741118 0.5741751498039158
38.88930364135263 53.40945139912093 0.5785472168696604
37.49773888528276 49.89713979806892 0.5672714800643341
37.52679557527509 49.82238649187937 0.569241037484179
39.02794583269633 53.420874680190956 0.5520262729656598
38.96345446999646 53.39430681020373 0.5613476944804763
37.606535148485776 49.77437973634525 0.5634768160650976
39.110466357467246 53.44372018965454 0.5475966798929917
39.03999786757988 53.37031777598983 0.5425488825229376
37.70340134720766 49.74680666292157 0.5544159443216077
39.217391778344066 53.41872394651043 0.5560185665969319
39.185411228305064 53.42184642729795 0.5718750644139334
37.855284649582714 49.78364569477556 0.534226181335747
39.312631584737055 53.39257356996548 0.5640785497460339
37.99592051865422 49.83381510119237 0.5143835677379098
37.93628475422294 49.816922702604124 0.522445240134604
39.411532544153125 53.36261865208095 0.5375399450446401
37.999311944285246 49.80499481929287 0.5163264252595146
39.49295089640188 53.343854596802785 0.5170473805016615
38.19973394972259 49.988502247652214 0.5966470372394455
38.22433541600145 49.87229249567954 0.6054866705511459
38.12393377321451 49.658484055642475 0.5148938090029198
38.12969184648962 49.637891335928934 0.5160498585513391
38.29096705475766 49.88600897565254 0.5949795047917823
38.30046958538583 49.78366920756157 0.6049296751543227
38.351758106184505 49.89604098365395 0.5856974330951807
38.36258145956691 49.87480135811948 0.5865912813846588
38.534019437949425 49.57398615737074 0.5995850456854628
38.61753944277163 49.576910115208406 0.5891476062500411
38.57889335864393 49.5736309735109 0.5941989463141957
38.72369626838732 49.55663459003722 0.5791530913140337
38.661162082845074 49.55589651223892 0.5865569469525973
38.9473524183728 49.87084843547898 0.5135960489393006
38.77649694159091 49.53017628243783 0.5764332068996123
38.805234475687385 49.492837941001845 0.5779700616613799
38.9102975509292 49.54452771004728 0.5596127841593481
39.00693001118782 49.51309631963821 0.5533275695214426
39.095332294499684 49.502458729375746 0.5455239023352974
39.102073028750986 49.46244896103068 0.5502993962045803
39.16629267185547 49.380186181363804 0.555203210798161
39.26674263218718 49.36012502788514 0.5483868412964872
39.36800245340003 49.34607182563175 0.5411203007862877
39.45707663903487 49.29561904088145 0.5406491656607335
39.54718585520566 49.24616099936108 0.54046582820955
39.63655787656784 49.2094363214273 0.5389695324008348
39.735630744203135 49.184267355920916 0.5355236763842501
39.83496979095162 49.160113754280744 0.532423026828031
39.93727796688214 49.15180114448526 0.5272447918904519
40.0381411152168 49.14162389841442 0.5229694739211581
40.03402776570217 49.123831101875645 0.5259259005405246
40.14556126449037 49.108698821121926 0.5224228079325464
40.12465160975824 49.091885284908635 0.5260622847076413
40.236568534476575 49.07149122204939 0.5238847560477551
40.201531538153205 49.07006946816271 0.5257022280807906
40.32241228503008 49.04939023444505 0.5236709379332276
40.422645689269395 49.0290374869702 0.5230629402169753
40.58938280928062 49.04026925392158 0.5160281845027659
40.52946199100804 49.02897455493934 0.5195560666414225
40.63755726283917 49.03220641910948 0.516069880158557
40.65711828035903 49.005487538164466 0.5198154461591824
40.73308512665012 48.98783579062141 0.5209815696410476
40.732991821210334 48.976186680554086 0.5228130670389168
40.839446198352924 48.98863019076175 0.5190193707862716
40.78238704555507 48.94908873273188 0.5261988805681175
40.935401879839134 48.95259598762101 0.5235641098979509
41.069953030466685 49.02750905753602 0.5108363633524291
41.032187717521516 48.91930228287554 0.5280931234103259
41.143789975578905 48.88012441663598 0.5339610511290034
41.221501623659144 48.85631441333219 0.5378339324009855
41.31829108049718 48.83658500553351 0.5414552774033079
41.41676932789565 48.81601572544908 0.5456211630202574
41.514988411493874 48.79258122960681 0.5506322274630742
41.5098016108856 48.786345503353026 0.5515132114062535
41.611544813657915 48.7633880176825 0.5569109872588349
41.705692199306256 48.74022012360569 0.5625386331149422
43.38389970590898 52.80442818084679 0.5148956416761619
43.371557389203176 52.75137175837559 0.5471985371516221
43.327161785980394 52.67311391672642 0.5963923937834961
41.80252723282598 48.71779161448235 0.5684655054924908
43.609190732467205 53.04930285311288 0.5665774350307824
43.55129632255202 52.981428949379804 0.5528285468186296
43.48740121810483 52.90399463233945 0.5376684576509538
43.444963442484145 52.85615832413399 0.5279040498885768
43.37580569655081 52.64035697733024 0.6047413570886524
41.90113724107857 48.695251407775935 0.5747752221066509
43.7432973494145 53.22866971082301 0.6005063181339436
43.683705950693316 53.142264813714 0.5848681982028241
43.63756417445057 53.0865998762641 0.5736319648960448
43.57920445207112 52.667286474883525 0.5416929765475751
41.99252282873361 48.6654028204105 0.5822544410173149
43.91697723856197 53.4624774180825 0.5206985260976993
43.89311095205208 53.40675881879963 0.514150377320366
42.09024347699794 48.642320520432314 0.5892250424653662
43.707812051735644 52.67684797019272 0.5640852643343959
42.1976986317526 48.61929260350038 0.5968763945387701
43.835986058576104 52.65595913455899 0.5852587331466221
42.29687383432424 48.58991590392564 0.6054110480984549
43.92684520431364 52.615601391551635 0.5994553705004269
43.776349459868 51.784578266681386 0.566066007534046
43.74265096324961 51.73546040368512 0.5612284911888172
43.68455489206925 51.647970647028025 0.5533447069367514
43.65694023777459 51.55254063067803 0.5515487241182928
44.16321332372618 52.56288206647817 0.513586258746642
43.88634289244134 51.96215125285076 0.5830009191411216
43.88429158801345 51.89541165184592 0.5832531354331758
43.86566120910035 51.81986738748453 0.5809962818682843
43.66953243265338 51.44880560021693 0.5575530641026865
43.641310317935265 51.37515294326928 0.5559115315280532
43.91180609761088 51.81553760878982 0.5890741597239106
44.463781798034475 52.61609461226541 0.5562019548069406
44.438572442433035 52.54113988543363 0.5509984504440524
44.487438615926045 52.48761061202168 0.5566594539659175
44.52806374852054 52.36493834582693 0.5602347508237362
43.59617118000756 50.06652233560736 0.5283136672801678
43.62010208729955 49.98888196820545 0.5380242191519664
43.42057484812517 49.582084742720184 0.5583920648702374
43.41484200003973 49.50781547797066 0.565907942516094
42.974535131486434 48.42255903659312 0.5120122527553093
44.78179141963857 52.83948011390388 0.605945820908067
44.76091908798184 52.75726708200799 0.6006429407938145
44.71680403798167 52.643941802813195 0.5916516762768231
44.68411097854015 52.558665967028 0.585217948154922
44.618997966353504 52.480730604330006 0.574694361683834
44.57501568304352 52.38617663231767 0.567062379134682
43.7271298345512 50.05898392578521 0.5434444167276198
43.61842536738426 49.9437959838781 0.542049202357201
43.598690025985455 49.86416215273724 0.5475397080283948
43.57667819311973 49.769020061259845 0.5545752408880145
43.550546461733795 49.67313607050867 0.5616080609340361
43.52237990858752 49.57697893442194 0.5688171269068927
43.46440435339112 49.36884425362753 0.5858629057955937
43.45254777903342 49.28401063811293 0.5943115141544693
43.42478983398869 49.19710656962384 0.6017801679754662
43.07285246765431 48.39555079024394 0.5192425320410177
44.6629943847263 52.31949147912993 0.5783407691057758
43.9205220075352 50.2596116613003 0.5489215715202114
43.89137734448565 50.17990048170829 0.5518808580920072
43.86094055738435 50.09286337907943 0.5555913683454579
43.78868434612987 50.04053709933458 0.5519295029744764
43.42087925080224 49.158607752029944 0.6058969474065108
43.40655991940481 49.12267069387656 0.6088488487717831
43.202631625872556 48.36443289765849 0.5285218093666748
43.14991941121798 48.374497888965564 0.5249915412884238
44.76143874333994 52.29653976966035 0.5917298581971928
44.006053181368145 50.255462029846065 0.5593335527932315
43.86756718741769 50.03416715174115 0.5613417717640738
43.27320319349653 48.34431445150198 0.533994214686327
44.858747654139094 52.27253193835263 0.6049802251165382
44.19873912857862 50.56951114809382 0.5609443233247444
44.173350181428695 50.50129200678331 0.562170515942777
44.15029108247666 50.402684271228836 0.565972550717901
44.14184100476766 50.302253621246145 0.5720801591607738
44.104905549227695 50.230982930190976 0.572933223335899
43.52687298947832 48.66749966552995 0.515779750686655
43.368773105579244 48.31919574860084 0.5412834006827338
44.286044381749974 50.56761522393054 0.5720279399331081
43.58031586342865 48.564877840874495 0.5286100272366683
43.57257976035256 48.4858814106621 0.5357425255197343
43.47870131099943 48.299914791834475 0.5488550786263036
44.460949561201815 50.515801365176166 0.5972404761372812
43.558302630480654 48.3730598605868 0.5458905883551368
43.537991758278345 48.2769453909662 0.5542290581131308
45.38336801263439 52.14292668287734 0.5109753634805103
45.44714496374063 52.126943605235994 0.5175363740716221
45.557679407315355 52.102109844473034 0.5288691717898024
45.66803810573113 52.06756386930266 0.5401887761000297
44.99688384490724 50.376958922219224 0.5094864656898621
45.10993442381777 50.34891536166275 0.5214240304618147
45.21771998794435 50.32406089902138 0.5327226977486441
45.329544341797366 50.29862890526816 0.5444426787446892
45.4265766046333 50.279365043586324 0.5544907861350268
45.52566794882875 50.2599380655118 0.5647549592914476
45.705126990450324 50.21150803406266 0.5839152589815626
45.922412870109774 50.15068078199383 0.6072232961805668
47.86608599037468 51.71762739411953 0.5155949414393337
47.859840094909195 51.644594688419026 0.5154419087532824
47.857380457338195 51.56944143721537 0.515621925912894
47.91266062714587 51.51556714952963 0.5196631096170634
48.01594878217158 51.48148600903746 0.5268774149996491
47.67301577973455 49.68643733605316 0.5347476285576374
48.19482316981289 49.5348561538699 0.5719802573976456
48.33478530805005 49.53139769650097 0.5809528669655823
48.40472948817464 49.551944132277484 0.5848462935949872
56.6793256609929 47.54179956361958 0.5848722517600669
56.66717490042007 47.484875998302506 0.5852718635131169
35.99679938163278 53.05686957490908 0.6991693645831936
35.00409813075796 50.56181447672714 0.6469237872634139
36.21885703930273 53.32004895702794 0.6757772200488252
36.197400839410754 53.25011019932142 0.6766335798163821
36.09790272665038 53.061738619665206 0.6853797088704472
35.08943561225172 50.521201262143094 0.639305852790937
36.22183502781856 53.285184669535866 0.6743283480044748
36.202883146006236 53.217974391270744 0.6749946836913363
36.178736358666285 53.1285257708179 0.6759192739977189
36.140887979195455 53.07842136102025 0.6798684763705725
35.19084336442267 50.49782238255713 0.6296596303942739
35.27204625053595 50.4799167924778 0.6219201092093802
40.00691594046338 59.78129430204262 0.7071876209139334
39.98833743996308 59.701410531862685 0.7007793891655323
39.96970142213679 59.61744003049022 0.6939828099611776
39.94114336372386 59.50824150138614 0.6853091367826922
39.91447311991172 59.403074484017694 0.6769489934787005
39.89760343598123 59.32694571485402 0.6708151816976256
39.880381705789134 59.25668753009093 0.6652474153408772
36.49517119290621 50.39716329735431 0.6637914040991475
36.44386900914704 50.341002638783905 0.6732373521060995
36.38614814037795 50.28179166286448 0.6837167802723696
36.37904217198046 50.20751602681992 0.688388857258212
39.86464379846715 59.17850950648626 0.6589228961875417
39.83672759869806 59.10468432600202 0.6533441263765927
39.812961292445806 59.00913118782488 0.6457996282790566
39.798506389487486 58.93278244826254 0.6396278716232502
39.77446234722095 58.84087132201765 0.6324341147878103
39.741798872469325 58.7404372801541 0.6247641633238932
39.71443148268841 58.620334201652504 0.6152827577441329
36.65520914524955 50.559440031765774 0.6350801106924397
36.6026638530316 50.50642155769516 0.6444604274983501
36.53701356097528 50.439385482595156 0.6562652660752799
36.48175336526295 50.180857366091956 0.6764719624059752
36.437445686165276 50.18777925091888 0.681834969635722
36.75276308971843 50.659438404549576 0.6176459589558563
36.70200303560676 50.601178365501774 0.6269834357849124
39.05754414164006 55.80547355720907 0.6952908080349114
38.78557795525937 55.05258118414283 0.6163129862024348
39.534919163335054 56.864774076170804 0.6456858803379035
39.52279134680833 56.7769670112333 0.6358890295820112
39.49508052486494 56.685435708190745 0.6264109293110416
39.470520268702124 56.588730505959816 0.6162459474051158
39.4540144400827 56.528309198721956 0.6099696089536635
39.1599957846189 55.926706817405545 0.7047467113179433
39.18366122633539 55.814717129540924 0.6866357126137557
39.145802840667066 55.777442811092165 0.6841859497902483
38.388804049741125 53.403564390109565 0.6844312943136353
37.228811810222666 50.40790249251412 0.7068531528322248
39.23409688482893 55.338817653089016 0.6139409146626265
39.2076085882843 55.32199607700037 0.613755931002884
38.474755692071334 53.510117835500694 0.678221723790505
38.42849956316338 53.446044850842824 0.6806204089145607
37.34033133634425 50.38879149623425 0.6904399614669583
37.277494243318934 50.39421312520003 0.700052281258108
39.21264945890077 55.04869606273449 0.6943783841281752
39.207810923456115 54.98306479154601 0.6836326249709035
38.59983426293335 53.48471414371406 0.648553381965232
37.40204544232241 50.36854584492656 0.6821703701928434
39.20589543220771 54.926466009584395 0.6741633419101924
39.19595947138227 54.8758038274094 0.666659557684778
39.19035876515423 54.77486393886573 0.6502659416980365
39.16211710934314 54.65237136017144 0.6331846449128338
39.11410624228328 54.61493755069526 0.6327512268116351
38.695299784233384 53.458357572129124 0.6251616104329947
37.49513415191308 50.337358494999336 0.6699102115350335
39.20194041735463 54.63053137793459 0.6248548083256387
38.79701402915076 53.410621727186864 0.6686894715534879
37.582872751725844 50.31412941300529 0.658052223961092
37.5772798682529 50.236915354188696 0.6652212303650269
37.558655767588675 50.13496934065479 0.6766524549939514
37.544330742292466 50.05106052551789 0.6860940549493859
37.51604809804551 49.97408252757131 0.6971621783639712
38.89367352997793 53.4082532193104 0.6615629214303851
37.54916630171009 50.043497812577584 0.6860180053381972
37.50803842946454 49.92862718686496 0.702451455788228
37.51814881288751 49.84901049597825 0.7083022705257553
39.0371719139225 53.421335490367596 0.6303174125575612
38.98019321650119 53.388532852651686 0.6381847516053405
37.600630125514265 49.7698147352352 0.7037270128264592
39.10059409499234 53.44646066883296 0.6201143290267046
37.71190152062158 49.744614289741534 0.6902015434194153
37.79743231773261 49.71959099270878 0.6805956247558445
37.93477698883949 49.741695354050094 0.659110346412034
38.010572460979574 49.74793533786871 0.6479833132771493
38.293188078273396 50.06647918100847 0.6901087756699782
38.092948035166835 49.770946726373445 0.6342461146231384
38.170966981981366 49.64245320573812 0.637790461344302
38.20269641264868 49.6216824221917 0.6359484195255884
38.28379105358592 49.599441221640376 0.6279492294045512
38.29862874143822 49.5842205635632 0.627812890274223
38.386747031468936 49.56898274385082 0.6184192080865298
38.45939418579965 49.54202206580465 0.6125891271007617
38.69833111364991 49.508427484579954 0.7069766486145366
38.771101266548705 49.47457426342145 0.7023468185664914
38.870623873515676 49.44814708506393 0.6934011177924138
39.00379325899864 49.47763979674268 0.6716105921075695
38.93739769085946 49.44692028593615 0.6849920836765409
39.102876381958424 49.50278356154208 0.6552240885471954
39.088777462361946 49.45746940489906 0.6645040389360148
39.16848576834068 49.3930829873722 0.6658973953962153
39.27130085492093 49.36688166612609 0.658713362975315
39.37348606873571 49.3552552574775 0.6496996868427893
39.46072173715872 49.3014995113982 0.6502664067096475
39.551349413130765 49.25384116945109 0.6500492387859433
39.641016328031945 49.218613913786726 0.6482951704912139
39.74022480436183 49.1947293891509 0.6442456478882577
39.83836734409006 49.16762839930278 0.6415138501665498
39.93472812160337 49.1586234774626 0.6361489270799978
40.03257188000113 49.144305397907395 0.632277272957775
40.03171607357443 49.12899900934634 0.6352424868920337
40.128468916518386 49.10644868586048 0.6336276798512801
40.12665479540267 49.09604226531175 0.6357207574053523
40.230538557040525 49.07491925814698 0.6340918559763993
40.202632597003905 49.069646027000886 0.6365594711397038
40.32411698647042 49.05380439837784 0.6336236251341576
40.42459837266824 49.037480232047635 0.6325366705717357
40.58015880910554 49.04721008056957 0.6252765545476444
40.5200385763073 49.032457878032226 0.6300449301089275
40.63889665141046 49.03876960255683 0.6253161716122573
40.65830863572113 49.0049155204573 0.6313934472634743
40.745091857311536 48.98699419765505 0.6329982308597863
40.7017993667353 48.99055231705615 0.633183021832368
40.82682679877728 48.96424562510716 0.6360795561232417
40.92131780515051 48.93610233971015 0.6404786527261053
41.01780147451941 48.908008858725815 0.6453909841329528
41.121368524190466 48.8891382970203 0.6490626717089856
41.22094675858509 48.86833937893096 0.6536607877729239
41.318794999640815 48.84100623328727 0.6600270329203142
41.435187077452085 48.82035966496272 0.6659582086324174
41.40796224394428 48.81665297481087 0.6661348668766873
41.52669864766112 48.7880824268527 0.6741710114931996
41.502318591466455 48.788991274816894 0.6734092280244119
41.611715069946115 48.767718626266756 0.6803603241246341
41.71121354954724 48.74777092838168 0.687284959427072
43.38731409452013 52.81401949844289 0.6167457053647458
43.36488179172559 52.75192060971676 0.6586034146392215
43.32404690876603 52.66920532781118 0.6942820650111035
41.80214676856646 48.72304867591623 0.695209493699813
43.63070443495418 53.15051009661137 0.6896130705169701
43.58045058059638 53.082213599763904 0.6742834675139828
43.55333366914852 53.00219977303318 0.6629068807089695
43.47837002307406 52.90512642714357 0.641065347095481
43.438748385679574 52.85784154968153 0.6299278902080754
43.370816630614705 52.6380383005568 0.7037751515582744
41.90320410039478 48.69352719862352 0.7048103895786262
43.8087489338244 53.30843387746144 0.6168058060140098
43.91585518344452 53.45747969393681 0.64525744779581
43.89474654544785 53.39905315929689 0.6373882341664476
43.858208320452626 53.35290008789051 0.6280622344481699
43.66950383515604 52.683623743067685 0.6674270472042207
43.75048672411187 52.66300206758053 0.6832428071300862
42.41137325846227 48.56543414247869 0.6142330359978456
42.36524800279542 48.57060355913081 0.6113047608402324
44.002386673128285 52.598232466372075 0.6118957637404185
43.84753057102708 51.98451559247869 0.6901006581831612
43.81243294317169 51.93173039287961 0.6831855850187032
43.73370885896609 51.69857534893987 0.671245818513633
43.69670610443397 51.645432104526975 0.6652009377828163
43.65307683485593 51.55794477121668 0.6593511279215736
43.64002293574574 51.46527270757641 0.660721555180849
43.628918641002635 51.39903532969428 0.6617198114283069
42.4809156751292 48.54790117372369 0.6201460272389101
44.09063420253698 52.58754003618306 0.6268053097174799
43.849369472571134 51.871241942563444 0.6917228692945339
43.847261522840626 51.8040830702463 0.6924710079942409
43.79196328799288 51.734170824934495 0.6824660286145945
43.647610952917844 51.43696186187173 0.6636430920157541
43.649762791326914 51.37283893303657 0.6673703406217777
42.57238676870768 48.52022235237579 0.628753897053286
43.91328739449707 51.85905198102355 0.7053320431463772
42.673987642262745 48.49420655126366 0.6378741360479474
44.39410872744047 52.5792939037889 0.6790144500264659
42.77403117667607 48.47663821202357 0.6459622401075269
42.87580577028117 48.446425496697415 0.6561214915255915
44.54262317086251 52.49842972669906 0.7026734033512381
44.5420924479043 52.39800035892458 0.7004923494426791
43.60160464609812 50.07056569356674 0.6552035610483093
43.59414379089166 49.977484826781506 0.6646811878101095
43.41056920551331 49.59224231317091 0.6884942191068233
43.40954684075745 49.51381266476864 0.6988158176074577
42.97531278002828 48.423701406095404 0.6653190032712002
44.55446085238778 52.37471746687903 0.7022654992935462
43.71293582429558 50.06887659308614 0.6709573118378305
43.61652018467741 49.94575419166861 0.671362673003572
43.59284024627883 49.869253114693926 0.6771225942796595
43.56099635781495 49.77407944794541 0.6843888858028462
43.538603383878694 49.67563781837023 0.6937263179156175
43.52060929402097 49.57940447414911 0.7037613324103775
43.330099120321435 48.97566262957063 0.6199748844302873
43.320046173749546 48.943270483091645 0.6230907800557315
43.06957414757274 48.402931352183174 0.6741137475571133
43.91297272808554 50.27144155325315 0.6793201195006404
43.88393607911627 50.18455461962555 0.6835300761255665
43.85802553200587 50.087218575596985 0.6896848978761787
43.771743793682646 50.05223815091749 0.6810557653259319
43.3985776378996 49.079004501324306 0.613306745049252
43.390828581825495 48.99163267671335 0.623056646561355
43.19265445786204 48.367468187115115 0.686953294350412
43.141154347656176 48.37662101300229 0.6823006017574149
43.28576735695306 48.34190941386768 0.6966648477580462
43.24784114315501 48.34167020846889 0.6940794136628325
44.226095729529675 50.57177374916684 0.7016494056037763
44.17748247234225 50.49928566058571 0.6997010718013073
44.15602683805108 50.399809271837526 0.7046015051308074
44.13640923398421 50.34300666822419 0.7064826363858729
43.370314920079934 48.31905719807171 0.7055571497021191
44.959869890296225 52.247417805448656 0.6187796343978764
43.5948727292052 48.56119990274827 0.6919097802922438
43.57606994909236 48.50880052906934 0.6968751287933412
43.55135466116951 48.42402798720132 0.7055158937423216
45.072733382152016 52.220812541000434 0.6342277234893454
43.580842124250815 48.45197741033977 0.7043047181279476
43.579052370174225 48.42797869556001 0.7071452128857085
45.18146659354186 52.19258536974827 0.649124387871773
44.55412355443844 50.49220966568497 0.6104342775141107
45.26216940345613 52.170751559877914 0.6601801072642772
44.65305707914608 50.466997502556126 0.6244661647831107
45.36747375518644 52.148977598401984 0.6747000230689635
45.478691707960586 52.117128344106995 0.6900060219153166
44.77048008281035 50.434919923807044 0.6412532055394216
45.59959033800546 52.09199083685911 0.7067239321809511
44.89373954005932 50.40143102484243 0.6588771633880468
45.01861327453854 50.470688856736686 0.6708991621352058
44.99384998708177 50.41200665068668 0.6710231367427564
46.704461286394945 51.9770555226331 0.6472370670515635
46.6761204161332 51.90525451083641 0.6443588659039188
46.61787463461031 51.84628437956227 0.6385107184961192
46.79179374636008 52.0282235565293 0.6563055466128531
46.75371731708283 52.00811124108655 0.6523754606406089
46.07284193203668 50.11585553933913 0.6230542442527798
46.79447731279351 50.0139688585592 0.6965527562646736
49.15577439328099 49.351371173417334 0.6380107540212825
49.18711962464757 49.39004321492557 0.6390111661567888
50.04419336440893 49.22263253461786 0.6981709040029223
36.04969301968747 54.42603379144277 0.7447783984646223
36.020567780795886 54.35912126780903 0.7450022497122539
36.0037778841567 54.26644722822116 0.7424766714465385
35.97853977174868 54.16853207013931 0.7410001683044649
35.9540002590713 54.070899885468954 0.7396747795016279
35.93024450326332 53.98330895681247 0.7389183146880356
35.897091519331994 53.88067602192951 0.738984335260088
35.8620402507893 53.779160686631656 0.7396192252678053
36.222478531318714 54.560334241204195 0.7303989057634668
36.20689425393624 54.50796146146643 0.7293932028648673
36.182526659804765 54.42971924996282 0.7281395997510163
35.926353287156864 53.92734096799712 0.7370419521781189
35.88478791870076 53.789902821237135 0.7370176524629952
35.844754100158184 53.68049485481149 0.7382638644577397
35.81675769250292 53.58670717637109 0.7387411798695127
35.79444526549936 53.5089477976395 0.7391893601293764
35.77431437605561 53.03934663389755 0.7294337582083341
35.70110128869495 52.99037227738218 0.7385463394525826
35.66042141525078 52.89660524637286 0.7424435780562522
35.627383937244154 52.80315377906603 0.745512266942403
35.5969936422482 52.72513535696226 0.7486388659555958
35.864620460116996 53.0576157360311 0.7173836211838611
40.325296500937824 61.02803666016534 0.8078319377584879
40.29921229486429 60.923033028395665 0.7993046516831765
36.17367753040132 50.17388222694716 0.7168257309889698
40.26194388123826 60.77639903588463 0.787381396202806
40.22489392939229 60.64154369623694 0.7764908806881599
40.200202560250275 60.55814733766607 0.7698385184977434
40.176930972531224 60.46277462521774 0.7620796837765682
40.15496668303005 60.35738886365728 0.7534846602447469
40.1323123338816 60.2718410425404 0.7465788921488035
40.10852243932924 60.20807242154346 0.7416364471072252
40.088249428438445 60.10652144878327 0.7333125502832183
40.06896960872046 60.000945050734806 0.7246736947373005
40.03735339131256 59.88916112186554 0.715767325545521
36.665315648181526 50.55567072945076 0.7891767026970657
36.60273543854134 50.49873390327739 0.8028958177843795
39.615038119531285 58.23622291528249 0.8058187390699088
39.58856634014092 58.13903460288026 0.7951828984904958
39.55618198189763 58.02587980003244 0.7829234484256773
39.5354097785708 57.920386420498325 0.7711589135277555
39.50915001363993 57.84284880309563 0.7629925891101852
39.49035406740281 57.744303523032755 0.7520422551441135
39.460764209309026 57.64841334246171 0.7419154120483535
39.44283005304086 57.55116276701076 0.7311429580696602
39.414033754061066 57.46350297695297 0.7220582717125221
36.828328689498946 50.73372693049599 0.7519693324623031
36.76265194525667 50.66357422401442 0.7668120949885737
36.70081038163646 50.60130346319939 0.7806396759752714
39.4339976241349 57.504137949469445 0.7259790699058777
36.95268385474622 50.88729444626503 0.7230041348582921
36.90969943915763 50.81441513161798 0.7340080535529176
39.103131425510824 56.1656773247994 0.7439427283286577
39.11040410900919 56.106891425391815 0.7347888849259661
39.25873967218368 56.34520727683657 0.7592999853061644
39.201801582737886 56.16251426341129 0.736213397472758
39.1827441129712 56.07266814920558 0.7243895347472826
38.7949439276375 55.04328633273514 0.7412853057873674
39.51797148019533 56.745274127078304 0.8034932150589096
39.50236482248164 56.674337169253675 0.7935719373845709
39.46890623071861 56.57984060592983 0.7811772477812515
39.4451366212984 56.45902216747313 0.7643219972749862
39.41968603813191 56.37981205995953 0.7539431737495079
39.36737490839252 56.314838345704416 0.7475323627440771
39.26461825679596 56.123419760261775 0.7259693150788118
39.19990878850056 56.00239188682236 0.7128159709385373
38.25518110128132 53.46703149540709 0.7207827502542161
37.15296853812458 50.43231392205535 0.7173240190159296
39.078904105530626 55.34920734395747 0.7601873746155285
38.40680181268654 53.51558853275458 0.7948913462931086
37.18421512312155 50.41672080916797 0.7133839354035836
38.49264392862856 53.48985169574494 0.770187379378314
38.56566121007309 53.482226115430144 0.751261014937816
37.50332933153536 50.305138632596055 0.8045337297695014
37.52879285396526 50.261321965410254 0.8040673914374787
37.50860377819067 49.82969981701 0.7114751451036418
37.84258446898532 49.739158926057215 0.8069155275820259
38.01423705414179 50.05646782423791 0.738858014748337
37.93224796460715 49.79647254355599 0.7846531912535821
38.099088498379004 49.89586692037489 0.744165171018845
38.08908973334826 49.820893544490524 0.7554106993047889
38.05429065278807 49.75257588556749 0.7700059719457384
38.036907586552644 49.679070268398405 0.7824566720494932
38.19993632148892 49.9735611654584 0.7174599490791167
38.093942070823296 49.78739063806089 0.7589433454785695
38.097661577435005 49.65838964322941 0.7754054424865828
38.218819044666695 49.62825968152652 0.760272736735232
38.17825274206949 49.624838032734296 0.7671337015555832
38.37219763885981 49.722524816421604 0.7232651565989254
38.3047174864633 49.60275311768113 0.7505223573803335
38.242492090621155 49.60852275951412 0.7593200014529509
38.38410530396995 49.574058638799585 0.7425651705509766
38.56141375942355 49.80562385145043 0.7980773403840848
38.543004638093166 49.60970538659764 0.713751103363889
38.48931823574733 49.561370386668365 0.7287788404940376
38.71945855370985 49.890465404103836 0.7558746488474029
38.58017471788362 49.529224316008175 0.7204134346343074
38.80679607664887 49.83322415511809 0.7509939989834447
38.655667105267085 49.50250543834136 0.713816419868696
38.904639368013754 49.807253828428316 0.7395172216705344
38.98965487086983 49.79379547740447 0.7284016797277173
39.00637647055698 49.713712186874716 0.7408082464179846
39.048240114769335 49.66577508384807 0.743589898500554
39.05647214461903 49.57610792071057 0.7596573883073561
39.09513840600958 49.5389611455172 0.7613310863905671
39.1151739729984 49.45001614715501 0.7760744076505348
39.17397673316653 49.40078823656953 0.7779217124322608
39.267895757969896 49.35859980928632 0.7741539385998735
39.37533941834079 49.35703535578417 0.761066898497166
39.46092960608733 49.312554558841306 0.7602634772450072
39.55013907145461 49.2624895632354 0.7609613239612945
39.64401781190904 49.223712273905164 0.7594911995155562
39.74279724055026 49.1992598885479 0.7551980122719917
39.84269669419777 49.17847207741476 0.750750526543762
39.95655068707982 49.174841386217444 0.7421181063312021
39.94118812227696 49.16849855518442 0.7447848188381432
40.03884326195512 49.14693338921365 0.7421932589925255
40.05919338313632 49.127649351594265 0.7450558966115521
40.12593330191188 49.11412815795299 0.7436287774492094
40.13993374742637 49.093832213557654 0.7472961086542196
40.23257478533491 49.07995317780712 0.7448298855160829
40.325519659544454 49.05503479985353 0.7455258554424149
40.426205132175475 49.041455850228374 0.7439646873545194
40.57616924333425 49.05181573114733 0.7359530878958407
40.5163772442098 49.03902397896547 0.7409472795718637
40.644731811650125 49.042100044364425 0.7362222718499245
40.74093671738255 48.98646853479198 0.7468681513099624
40.69772817749388 48.99122550942425 0.7466657326607882
40.82818025538615 48.96190389007651 0.7511460878677665
40.92755874191829 48.94393122721703 0.7543542633008997
41.02278795401414 48.92780842291449 0.7578236905485443
41.12124483291484 48.90032351438584 0.7645616911898032
41.22227801463678 48.868519049831555 0.7729384860041342
41.31873011006704 48.84865325642868 0.7791464725487527
41.435765190955635 48.823993738425884 0.7875621420808545
41.39968581506868 48.824360736222616 0.7865176578234159
41.51828357907958 48.80341804351635 0.7947452349828394
41.62225294718761 48.779668348308334 0.8038697162777055
41.680262881551926 48.772447373459244 0.8078515698425397
43.396134801170156 52.8265424392877 0.7220330010595817
43.37649000280928 52.7673034152339 0.7131681611687266
43.63646922667158 53.13936478686466 0.804471695956845
43.594178078291705 53.08518372771295 0.7897257786360483
43.5531003066983 53.00043463559305 0.7728018449926064
43.48574308904419 52.91084435644148 0.7496574108558969
43.805983110808825 53.30522816514235 0.7369275110896369
43.72843981318728 53.245417564260705 0.7166578701536592
42.01078575850717 48.6751322255118 0.7130820668235445
43.90753483140064 53.460677134076555 0.7705202188589939
43.881001373681144 53.391423599077186 0.7590875760669233
43.84601661132487 53.33967809792771 0.7477133288262587
42.10484468868454 48.64347566764346 0.7235095418628505
43.75317000521094 52.654822728208124 0.7974931849351099
43.758790914453314 52.62340042422704 0.7973213217036668
42.19353645125331 48.615730328251715 0.733249686085484
42.29035663055932 48.591387067200536 0.7431197493992532
43.944013052713785 52.61657256256715 0.7214362441217701
42.389749772618956 48.568209544607384 0.7532575026613009
44.00265056769747 52.596650589006465 0.732875598054513
43.7818694124987 51.90843984425929 0.7904343447118045
43.77146360194945 51.86894645774982 0.7885146284068987
42.48565887010937 48.54137887958359 0.7641162792991691
44.14261066273416 52.46177630962328 0.7577349943321512
43.7538873938469 51.62530650528813 0.7912824273775552
43.710281007976334 51.536097958888966 0.7845535294660149
43.68752720779286 51.44909326637551 0.7835354896523552
42.58318113783444 48.51749458214587 0.7748575067085601
44.196076361914756 52.44899050548873 0.768613067131819
42.68264356719064 48.5107402726082 0.7830891665991242
44.33909351512543 52.444476887439045 0.7985036219784978
42.790342124064814 48.479757158127356 0.7963669269463522
42.869369866479346 48.45997923932986 0.8057906703498248
44.60003552853501 52.55201597495607 0.713945171558583
43.58829262796324 50.07282105918433 0.7808926288541225
43.60992764522835 49.958730379591366 0.7998371270503044
43.58149225149504 49.90992249470783 0.801883724920615
44.763885778811634 52.849053019409126 0.7516701429505279
44.73950129389553 52.751753148636446 0.743997554512535
44.71079951723964 52.64819997035228 0.735741151807332
44.68004045649951 52.56936994911467 0.728255476775586
44.61502334215894 52.46746652334763 0.7145690954073145
44.609718070696765 52.33539653224038 0.7112624854926428
43.69343151126896 50.08236784375564 0.7974736611332527
43.59094691501364 49.882935750113234 0.8072119062090484
43.46442641516419 49.36987835928524 0.7248251550289451
43.44999990430017 49.287788404600576 0.7344622418968596
43.42386408044856 49.20233150669908 0.7434737567024932
43.32179434039254 48.98696805342068 0.7636859519447232
43.320982026888 48.943638888285115 0.7700588736585179
44.683726920460295 52.319123176648816 0.7239160232899422
43.42710160643084 49.14287401239117 0.7522936095250441
43.40890232656028 49.08976033775621 0.7579324307819051
43.384258913296875 49.00063188385726 0.7682623719063499
44.76097927705924 52.29503386326251 0.737068384778141
44.857758142457946 52.27099778099601 0.7536637891619957
44.142954029949614 50.286509084804884 0.7125127106932996
44.11414876393314 50.23365404495183 0.7129762004208644
44.96423621874832 52.24603475284536 0.7719788598284707
43.45217719269138 48.29994633200887 0.7138765099930955
45.06269793503455 52.218967750165895 0.7889142205901951
44.462008888961826 50.51511597803584 0.7433803325389139
43.55387091582301 48.36737762732869 0.7128250695919642
43.53772198604721 48.29320899038346 0.7210123743961934
45.151963417152814 52.19821156872851 0.8043138741457159
44.61754963883352 50.47352762206316 0.771253336830988
44.758433290281154 50.46411618950205 0.7944722421439476
44.748055124853536 50.443820938239135 0.7942757805772505
44.807012113410075 50.46881029240486 0.8019340037652376
45.67288876027797 52.074563626690406 0.7168233397658257
45.744080214247724 52.05660753825532 0.7267024209971467
45.85897980818446 50.253744810883695 0.7909281296205819
45.82660352251336 50.2264513142769 0.7881927734579961
47.874364535869084 51.71506882307393 0.7687959386916527
47.833897308700045 51.66865848861468 0.764877315498071
47.84817135464148 51.555565773023524 0.7671348711593013
47.880646274416925 51.590733327136576 0.7702152505659996
47.9900205778415 51.49436515132143 0.7822520695744988
61.04431651467711 46.525517494899894 0.7343700409609113
61.006185562666104 46.42161832688672 0.734527799508875
36.22325839508044 54.48248129700747 0.9080321840913368
36.20146668663914 54.43358806642562 0.9079680247603563
35.03173831521864 50.548769631611265 0.8534147827205367
35.1252514717014 50.51149334224352 0.8420527263882513
35.211539725880776 50.49433022838073 0.8310044002513226
35.25512736266577 50.4758671195946 0.825790636980263
40.406901218771495 61.36844278957575 0.8357040607073625
40.37975161147205 61.2338212628076 0.8245544248373884
40.35197463638296 61.1349440483436 0.8165723966314444
36.454409771951056 50.34581501612107 0.8366579985928875
36.38842299391756 50.27428285799277 0.8519828356162034
36.374373782524614 50.20597126586127 0.8586907588698871
39.84146561108372 59.1169480079217 0.9040381103830817
39.81981144115393 59.004008996987665 0.8910872297629804
39.79291189102901 58.928209944661546 0.8827993632164071
39.77045358564604 58.82680653929399 0.8712940118801138
39.748374298970816 58.73626974067477 0.8611330720875794
39.71907536133342 58.6283636467893 0.849141792626237
39.6884860182675 58.52194145577142 0.8374154121445254
39.66240259188283 58.411917445928715 0.8251306477477447
36.53494203940523 50.43057173761166 0.8181934453714972
36.444908784720006 50.18257646113803 0.8487861246653072
39.64140176635929 58.333734881718755 0.8165256714571651
39.6282617549174 58.283017251546205 0.8109109378700983
36.82842865734372 50.71886775803092 0.9023769006837568
38.02462859893598 53.60886766387585 0.902665106412684
36.95246094111322 50.875708112982444 0.8671774870018085
36.90467636721671 50.80595373980128 0.8812623313661052
36.8627494438963 50.75414245297052 0.8931110159911264
39.095461856314685 56.15383953707043 0.9004638160255294
39.09323348107599 56.119054616815205 0.8944079930241491
38.98075345390165 55.79341198754418 0.8473682497831045
38.969733276341834 55.75041422541456 0.8409729003440622
38.096055202673284 53.593244579795524 0.8826758828711536
39.49759789895253 57.0316021444844 0.8483002011920071
39.20305276815285 56.14135669710331 0.8888308994098775
39.17072096663336 56.08679593248337 0.8817582162798494
39.05606648566556 55.782694646069224 0.8381037798548474
38.96130018332519 55.68838683317946 0.8310382016971805
38.94790813546703 55.63676220156923 0.8234643528464975
38.86096649102266 55.27514576427223 0.906417116342469
38.84761740839412 55.21112053697079 0.8955774176534443
38.820496664158426 55.112531598718235 0.8800425507385568
38.802686591903715 55.03693978462781 0.8679459115555779
38.18808266376001 53.57130361400017 0.8567375981320362
39.53085143104186 56.83021354049646 0.8157307838038228
39.52189088922753 56.797329424669 0.8111931985292746
39.3667958162412 56.314388290356526 0.9072260840902406
39.262259606256706 56.18430809501748 0.8916787781627202
39.26449618787744 56.113084623658054 0.8785293067892153
39.19134840073139 55.8052086342672 0.8293891034620082
39.15489713149372 55.76513313743773 0.8256072902029905
38.81349868493296 55.04173252435344 0.8673093293592509
38.33942823877556 53.5343927310183 0.8141200703838967
38.28414605779479 53.54431561540132 0.8291869377981496
39.400632044056685 56.299845762122644 0.9019591367019404
37.193894040921954 50.37603260915729 0.8568754311267164
37.284354467263434 50.35304313578109 0.8415624995216
37.37898900753959 50.3266948259066 0.8259585071286384
37.455792954317054 50.31581066865922 0.8124521143688335
37.521486356585505 50.2114221205792 0.8103966655637211
37.51742280559445 50.132545059565345 0.8192458445199573
37.537400740779276 50.051914084611504 0.8240685820599853
37.566785328241515 50.00767546712098 0.8235523626554733
37.5777895309208 49.95155715427107 0.8277716669002557
37.51951705824221 49.820431108185495 0.8529684625270282
37.5848045433602 49.7745797704846 0.8468241571482793
37.740376514893434 49.82474128226339 0.81387640669156
37.71308967345088 49.753613354148555 0.8271587018463631
37.77605174828332 49.72730889965845 0.8196435174357748
37.97603854364129 49.84036438995916 0.9023001168116715
38.05007380983171 49.81405390591845 0.8918020682361674
38.14800158961795 49.78697866290819 0.8771548609567057
38.13923197154569 49.67994019933728 0.8956852165658662
