ply
format ascii 1.0
element vertex 859
property float x
property float y
property float z
end_header
10.031264734356991 58.95808377046185 0.5220636479059634
10.000558091650316 58.850636309310126 0.5358671266535596
9.981732133511434 58.77261671330602 0.5455848305386335
9.95755757820459 58.676550134886234 0.502957967428678
9.933877147162566 58.57790490128259 0.4586402352701531
9.912315672130255 58.480201149467774 0.46748554758739475
11.734218343142125 63.041303968359124 0.5015249313210217
11.824620705853116 63.01480120570123 0.5178728011613828
11.943784564496182 63.00058045706172 0.4790778144722368
11.919322581444522 62.98824486588115 0.5160184069323077
12.029725467731653 62.97338584900878 0.509693910232326
12.006865487798567 62.9666275579975 0.49861741174762403
12.117187836814363 62.944956697246226 0.49810652148457685
12.14043584518362 62.91718107929704 0.528574962263188
12.216416870431448 62.91600141457367 0.4975691373088887
11.172046635635379 60.08195908211339 0.47281379994942013
11.158975941579346 60.071686745160115 0.4772850871989602
12.311563185157445 62.888876339784225 0.49644546956268304
11.2075460420622 60.073938139986566 0.4695639300495916
11.206106782137857 60.04797873910957 0.47606893437521214
12.409950309769632 62.86308583168103 0.49819828047356124
12.50877124999038 62.8425934167872 0.49866487470239657
12.60257783877488 62.810824164954084 0.4989688877601804
12.696882414247682 62.77972832679555 0.49940803503774905
12.81114186083262 62.79709824283899 0.509840510409225
12.78074301437802 62.782483547822196 0.543542161399388
12.907646201560976 62.77938334558462 0.492366861012513
11.813383960382286 59.8794270274677 0.47373435982337453
11.793249380360677 59.758277290143134 0.5065233276462048
11.773456172896156 59.68459189817773 0.49918006685429345
11.759037070120629 59.62899904473129 0.5229637426816477
13.006200966752782 62.76740479056069 0.48968799146906433
11.744102516591225 59.57107148103357 0.49869128902331666
11.720992913314735 59.47956031074281 0.4938284829097263
13.152612079086643 62.811299247463296 0.5100257632992032
13.086057114729034 62.75223236648295 0.49501685803462386
13.224494317708405 62.76041678823097 0.5101211274251166
13.288863457416793 62.76452306670953 0.5174241398166338
13.599615325706448 63.08374995110375 0.49712855112960047
13.52046087923301 63.02887923369689 0.4846452148278357
13.644302799216948 63.023010841920765 0.4942927845455343
13.711132925580962 62.969482729752286 0.49440630002542413
13.718322145096773 62.928323364374066 0.4908535872661626
13.66908219214278 62.68210816811558 0.4918041843896465
13.64539028018615 62.634431770074634 0.5097971375549877
13.762888415814428 62.85986353146414 0.48804387400412513
13.776514428669692 62.81099590411323 0.48456889465092917
13.725434058278191 62.741582928242785 0.4731081081633713
13.697391215194651 62.58830823069913 0.5000317833162681
12.868647242752772 60.39950666811687 0.4664146962217441
12.829521331038206 60.40812495750476 0.4576070369328504
13.786588089842338 62.529472651007104 0.5074689827464477
12.95252829793091 60.38113287406319 0.4853978135834441
13.875058121738288 62.50455054425663 0.4672320430407656
13.071218270333087 60.350382786389034 0.49847413829917003
13.976504491982615 62.481693903429424 0.47618345360118913
13.156487653862056 60.33135664568448 0.5023751048325432
14.080758355797515 62.46050160570233 0.4858298960833705
13.243622092374192 60.30840181950413 0.5019242569701485
14.17014070893883 62.4330377613354 0.4936492875361737
13.346925440583526 60.284911693850894 0.5095069639831906
14.268582998471825 62.41147823125503 0.5031257287764086
13.45303467154959 60.25494028264569 0.4958114491706654
14.414976977643999 62.37419240594506 0.5172782412903162
14.362665148284538 62.38967440196816 0.5123103392442785
13.542186949311871 60.25575918950854 0.5150130081279728
13.529582827008872 60.23634278411038 0.5020675667482792
14.462342297818568 62.36163673579265 0.5219414891389343
14.450929414737505 62.356884844099056 0.5203302498666551
13.667423329609004 60.21547996356594 0.49440149070503686
14.564642050092015 62.34155083244242 0.5325723348093024
13.748181180420046 60.19380130994826 0.5079520185337583
14.66503295746392 62.31756516400206 0.5429261642833874
13.840261682819316 60.17247652499191 0.523148807380065
14.737309771201316 62.29756511292974 0.5503392952122785
13.933251474017542 60.149618130342404 0.5093331454737596
14.009071218984259 60.130824196712034 0.4911594525648026
14.989017931930952 62.234173090338345 0.45502076820095416
14.120126405933288 60.10222588285824 0.47592189562867565
15.06945748456601 62.21504081374627 0.46134935468694266
14.21217089224707 60.08261419332091 0.4877905961573313
15.165324647987962 62.18626356308593 0.4687655761025113
14.362424179373079 60.04567260684701 0.5075059046832825
14.298173771214234 60.06177645855319 0.49905877657133185
15.25768755975285 62.17394847439626 0.476497032996705
14.504988551636938 60.108694218298176 0.5205049773985181
14.428552632716471 60.02902323461529 0.5162280101211169
11.858274555291743 53.173070047464655 0.5508387901104573
15.350817232993172 62.15233406434254 0.4840644374782835
14.539178510126254 60.033994148378966 0.5288608250761364
15.464760313990993 62.1276863995306 0.49345242642567705
15.556513355743528 62.108894891080475 0.5011103963408188
15.655535144714062 62.082798438817996 0.5092759849691073
15.763364355025349 62.0558788391011 0.5182801019298697
14.89762056412505 59.90983082406487 0.45708088966957594
15.851456756059488 62.025388368994726 0.5254927385155106
14.985382651689815 59.88824188207515 0.4654844046413036
15.896364825465728 62.024827359400554 0.5295394396235819
15.922396261890711 61.991849161319585 0.5311430745888129
15.12817876727517 59.86015506880005 0.4788706605257934
15.082726565367867 59.86396555354424 0.4748470999072597
16.06060269426261 61.99596276297543 0.5437737733606842
15.363571633479488 59.81905983177078 0.5007711120813497
15.378152568439535 59.81832240632153 0.5020475668655291
15.771163856080694 59.75857764449191 0.5383544505001815
17.575687924233364 61.56337577118846 0.4706293539655237
17.91049689020459 61.499003736672194 0.48968279717015734
17.88478085496763 61.45528882941925 0.48805940340472503
17.965537034883084 61.43785285465293 0.4926888182844574
18.04829443607659 61.41940251708434 0.49741638734167876
18.089113246997982 61.39768604249728 0.4997417004929437
18.21168654496237 61.37858611439215 0.5067841203365081
18.25630356712215 61.35781297725007 0.5093442274753885
18.33681211715922 61.33749251704063 0.5139647946749074
18.421216347851512 61.316937326461 0.5188402431708273
18.54750754667093 61.29630935593157 0.5261225083349234
18.66492881567425 61.26206898974387 0.532915481490598
17.8692515623141 59.22517782984175 0.5148228251734269
17.946692605091528 59.225319417136745 0.5189827357165337
18.802169174329812 61.22623977833115 0.5408710369340205
18.930169680932984 61.2016761408469 0.5482818391534291
19.002148886806683 61.17731227392789 0.5524822916517952
18.379190081584422 59.11702271368257 0.545266728962099
25.61441167208644 59.641528747473295 0.45503099991661716
25.984510307924428 59.55021328242319 0.4639977032212386
26.43560429759927 59.4473128217674 0.47494035816340363
26.592281064397376 59.37591489703524 0.4789627697831286
26.560874784770427 59.30058564370336 0.4788332920693034
26.541796249510046 59.199211226063696 0.4791908874585555
26.504992994902146 59.09895661328176 0.47917802264129217
26.493153475640803 58.99480352231376 0.47979479869921776
26.47567071041031 58.9180836996024 0.4800921116295546
10.940022744535655 62.798393036977956 0.6358020017447557
11.151587395963944 63.19908463097032 0.5977604478728403
11.13238117070405 63.167633262718155 0.6058287785834798
11.096555835441215 63.056884125154774 0.6058642905754291
11.072802512084445 62.94113420364171 0.6062157311371693
11.053687674190048 62.856505843699374 0.6005494873250026
10.981405511489408 62.798170038620235 0.5957100390693031
10.927111963540211 62.69461967878577 0.5999364609698512
10.902591632886452 62.58746198427369 0.5915951878524651
10.874223218576795 62.49921437202341 0.5762255263044169
10.853901304277867 62.41301739456813 0.5606438756308845
11.245804459843734 63.16297780280725 0.6153960158018098
11.21581926000907 63.16200678530471 0.6177642677494505
11.340241278367202 63.13939629275513 0.6024558426976755
11.330092522769142 63.033199435269694 0.6494898676624423
11.435710205125668 63.11545968462845 0.5902581112906065
11.372989176410423 63.037263975732316 0.6469455006076205
9.288334388961225 57.41728578683032 0.594283440302457
9.231778867434631 57.359224362595945 0.6029251380174107
11.536268568744308 63.08429577155631 0.6071298220841449
10.10449737192601 59.262595178845594 0.5742549238447706
10.080331051481677 59.163747041137476 0.5895422913801829
9.358685630949086 57.396326285832366 0.5905004325083483
11.628113344214881 63.05512123777598 0.6032243186865646
10.068879444062066 59.112067562823924 0.5974253530548432
10.056172805919502 59.05853313066997 0.6057469101125768
10.036258559775927 58.97031267238832 0.6193887126585719
10.012309618974967 58.87222655904688 0.6348768578035353
9.988244825198873 58.78768035213739 0.6487127996757102
9.958595657286523 58.66726643688043 0.558536663776292
9.934715017699595 58.566342333579726 0.5711790678787536
9.912213543960911 58.463030531686606 0.5839830789191115
9.549267404864395 57.504250038668516 0.5681077186385177
9.439140274739394 57.37893566991041 0.5857764270321255
11.719057324070945 63.03081851152438 0.5949178193977046
9.599331385717575 57.50193181228557 0.5646179948268517
9.623154133519147 57.43875288920446 0.5677474710759666
11.819903307462177 63.00358568223094 0.6155257234337507
9.621190837916615 57.372147145016726 0.573042968828339
9.603319389842929 57.3070166768333 0.5793546423989913
9.591421428144528 57.25224236264807 0.5844663259812555
11.916203282606725 62.980029114306795 0.6081791018032259
12.052537318094226 62.9658318050532 0.6052418065973817
12.008156611840121 62.96208334546678 0.6036882531988872
12.11971271790441 62.941933329293285 0.600432660924109
12.214706268056265 62.90848105086466 0.5949277939140837
12.30937265912581 62.87948887071052 0.5943019965213596
12.404669398606735 62.853806485037374 0.5963008558113959
12.507845550797253 62.84017862338154 0.6010573141585371
12.603890813438877 62.80622985681769 0.6017923424028533
12.698155269078748 62.77869860105967 0.6052129710860817
12.814704729047007 62.79632357108401 0.6162710571183994
12.912218053474767 62.78217252250683 0.5990844364045522
13.059346926777556 62.809535788154776 0.5782733358389087
13.004826494618959 62.767440828236474 0.6166594335105133
11.751056464401508 59.568580243616545 0.5583917756111219
11.737801173998623 59.537229857962295 0.567175085407426
13.1209123745589 62.78139037066796 0.5807216730312564
13.104781252967056 62.737979916403276 0.6226992830573672
13.268383702449027 62.76630160751231 0.5967421922409956
13.182639046496723 62.70505452058574 0.6148362492914987
13.378749702369088 62.79513386694501 0.6159992887349194
13.29775334490091 62.73767330364349 0.5959986035321324
13.538399811750265 62.99886491365933 0.575767314935602
13.655375711200096 63.0299958096984 0.5926733770294522
13.714093636545243 62.971698479418855 0.5917023124926233
13.738571093574071 62.93494814960697 0.5898957693015928
13.677226036601713 62.68751666476854 0.642868797767565
13.636103612702424 62.61846566150523 0.627086963105701
13.805538035284119 62.873583365912616 0.5903154173960865
13.758070154214634 62.764338245541694 0.5715435402649511
13.691686753236352 62.58039063086505 0.6306281905497241
13.690230008392186 62.5233927336209 0.6229639425354825
13.781945705517115 62.5225192015448 0.6376498107257704
13.75167422752872 62.51863687128276 0.632237006077087
13.873998627321027 62.50296201900621 0.6010959511744969
13.979075142797402 62.48623604006882 0.5708487415087491
13.946118451336904 62.392631354367374 0.6499114635551805
14.069899856605044 62.45772672135991 0.5807910890116144
13.277996175974325 60.301144557022305 0.5614218593092796
14.167138317428693 62.43476745736251 0.5924415990827739
13.356325409321922 60.28407888539856 0.5796373035416305
14.269584789343751 62.4153335877744 0.6054468640655016
13.451138313843174 60.26060582937941 0.6021204186199746
14.384847723402824 62.38656964584642 0.6198304406234898
14.364082267385616 62.3847004644269 0.6166627887104363
13.536396477228582 60.25991907832917 0.6199524814115513
13.520369769422642 60.24425538350322 0.6184883051987454
14.472673579603155 62.36410000960851 0.6310089151343402
13.645913847065735 60.22935640327393 0.593619853365446
14.563708797663091 62.339148175769665 0.64268164858396
13.758654826113183 60.19802871170454 0.5909426346293478
14.627883584018752 62.31877057561385 0.650830554937687
14.624765344177305 62.230320471268236 0.6443770772501156
13.863057507751616 60.17146001686424 0.6122043609721078
14.795824417727324 62.289305827053205 0.5568278620896434
13.93968520605622 60.155221040321614 0.6275222621415906
14.861435133756693 62.269384432053705 0.563609932829831
14.041848291624026 60.12609000177083 0.5867169415895318
14.946284935205938 62.24291510620722 0.57245240570431
14.159419752457692 60.09570420707866 0.5762643826102902
15.05248138671252 62.22056482305748 0.5841959603621028
14.250193105784094 60.07197101040274 0.5915579909254971
15.150736389140903 62.192972862294084 0.5948651535742218
14.354297954260062 60.04958581697895 0.6087542018470015
14.306716730246594 60.05865517221602 0.6009891327368581
15.251255484395397 62.17669480383515 0.6064162906921658
14.441411866628412 60.13300373606478 0.6158173191871453
14.42974173516914 60.07252457231729 0.6183662753280592
15.335732262896322 62.15996718982985 0.6160670184271666
15.439476747869051 62.1399546242362 0.6280232494353759
15.54618722858841 62.1113661568285 0.640116088628591
15.633081881621308 62.09017949023143 0.6501167578019789
15.587827689628565 61.99418036027743 0.6412828777992537
15.65713476344206 61.973545369619124 0.6492961167010879
16.16330056971872 61.99978276901463 0.5531758033425278
15.365157477599777 59.82157815800342 0.6385028708515762
16.240615691025074 61.99804352961021 0.5601736498211203
16.25924707827237 61.98496042160861 0.5615924223684923
15.465018051790686 59.83543381253872 0.6496522679348239
16.34209920250629 61.96651187299015 0.5687776896437108
16.460076915469728 61.927700890181384 0.5788179543208226
16.547731501584384 61.88977288700623 0.586172916823443
16.65026265311159 61.87043277859369 0.5952540936399078
16.757493086304535 61.85912535974124 0.6049126428712072
15.966239134374323 59.70744427343963 0.557281530540035
16.840903411986922 61.84442852181445 0.6123575101979181
16.926662292334115 61.81837283949605 0.6198698517294757
16.159942498387082 59.658665243586924 0.5760260592274707
17.00930154187332 61.791064526154436 0.6271094130116115
17.098285049545076 61.74472125399336 0.6347385423052586
16.3521542322164 59.611829110549344 0.5945447220542255
17.18176578920414 61.6773806856725 0.6417065636282339
17.194050858403358 61.6307770159443 0.6423920449021785
16.48068361116585 59.588233875302265 0.6066499432227154
19.371501020740276 61.12590224707946 0.5739280385151987
19.38507629883639 61.07178223088086 0.5748192627744253
18.713064261950898 59.041455889573555 0.5653191846772614
19.737088144187872 60.98285579621924 0.5954147937641778
20.009616107345998 61.034908949286454 0.6110357667421885
20.33638164309363 60.910376241557806 0.6303538466728633
20.337376912920462 60.82071114288802 0.6307746897638193
20.309581908542434 60.72180698283042 0.6296798821418728
20.274728652142777 60.628255964411004 0.6282355303046657
20.309947863247043 60.7017177618826 0.6298202747715131
20.266861990560308 60.58365891443379 0.6280924824547914
20.248002150866853 60.524829073415304 0.6274277422360511
20.253946298524593 60.451366977151906 0.6283573278643391
19.91224506783015 59.15377998470504 0.6284598656959898
19.883848744321924 59.05496827840104 0.6290813721972421
20.467974411848612 60.38799792887195 0.641229794576817
19.86412105371699 58.95308831422351 0.6303581230784504
19.839148209592345 58.854213299537435 0.6313759282638708
19.814861014186782 58.78558109879613 0.631772907027693
19.770952504887077 58.55184352685444 0.6356085826230948
19.740611492110595 58.482096941635426 0.6359571278989937
19.720639245414237 58.395205853267086 0.6373966984623655
31.173913509791234 58.134811801633404 0.5919882053720041
31.15335924262496 58.06848265801058 0.59217991824401
31.127898182455443 57.96753032119656 0.5925433303389157
31.10201331362356 57.866961797768795 0.5929168643978957
31.07492804335432 57.80373859008948 0.5929815564453462
11.157407209994144 63.19428501762056 0.7081678060889374
11.122707179954915 63.15833362935838 0.702606917211448
11.096178599386672 63.05506102230832 0.6791336587429972
11.078288319829941 62.9822856517504 0.6627533729646242
11.236562783189838 63.05917860729131 0.6650237910493882
11.24600172691814 63.04045366165772 0.659204957693816
11.281528225717798 63.05048759429411 0.6584358155576984
11.440599963438045 63.10108721380631 0.6587583849930245
11.393779366193964 63.09134146296065 0.6595990623560245
11.492627029468418 63.098991410856115 0.6546461616045979
10.107211329376867 59.26384339121302 0.6641628038937915
10.082301730103342 59.16407475067952 0.6830093138711657
10.229315671808681 59.385096796600365 0.7125272016885483
10.209212663360244 59.34282272329673 0.7236806675232786
10.073820673852865 59.11605978698714 0.6915952078927613
10.074734394177453 59.04932149548961 0.7017499283028894
10.069785726139148 58.98001835484147 0.7132176330691372
9.982439143938965 58.744396322962345 0.6550223079970734
9.958358123004144 58.6639373008113 0.6684125959639555
9.938588308426274 58.57836335336762 0.6819917204081567
9.911340832778627 58.472094765706814 0.6992506069269814
9.527410379702761 57.477021835195394 0.7238189060640433
9.443473959433723 57.365651900174434 0.7434161979213175
9.402522149830363 57.327944583601976 0.7511986561980046
10.148939633103405 58.99898427032122 0.6987058036947654
10.131085303868746 58.92498691303339 0.7130273891631443
10.062274484779497 58.791465658757495 0.7441483984012254
9.592752300497382 57.51489468544892 0.7138017439869251
9.6114503102753 57.44320973038408 0.7198089365778686
9.628419817188936 57.37980165564707 0.7251492805127241
13.138422206223703 62.77010775161583 0.6602561768310508
13.132982590147165 62.742931782969805 0.6540787708440478
13.216952729142967 62.7549924794962 0.6690962984576123
13.354257925347364 62.801816815522024 0.6993382706472849
13.321309889834792 62.70997865297221 0.6771045012132095
13.327879068406299 62.6718377677545 0.671253995115796
13.416260706694995 62.73806868143917 0.6977685217448042
13.674024836911151 63.030909457227324 0.6931999116471493
13.586961195629486 62.985613096311965 0.6742296800689127
13.737538644037176 62.98041722230777 0.6943145351715302
13.771035205656894 62.927693422393546 0.691190093862661
13.654253407374503 62.68840127287739 0.7304432722387977
13.63024142434613 62.62715566848722 0.7162330637852202
13.821393732965625 62.895635595566105 0.6939397772337955
13.747513621012466 62.76874141944606 0.711814237911282
13.689660970463825 62.5754787476648 0.7191308135777034
13.703189945392905 62.53505419237529 0.7155166435676338
13.849780180476394 62.84517373330986 0.6909845422452793
13.783102602402513 62.5282461666777 0.7298071817238588
13.857372500473103 62.504749219539434 0.722029039788497
13.825045526904823 62.44165852153439 0.7258158217783676
13.953524450825244 62.46912225330773 0.659730474416784
13.979127666814303 62.39751403394165 0.6561365736376047
14.03813708571193 62.36056395093507 0.6624003142086626
14.170271434636412 62.375288595674824 0.6870501508886103
14.11337966636713 62.357588065877714 0.6752506144519554
14.262422779244627 62.38779558557938 0.7045791724741619
14.36423470253713 62.371555899324996 0.7211654606133603
14.458950709480993 62.344544322853665 0.7357543075260751
13.683718922095121 60.21697777022367 0.6559231598278066
14.56352835119838 62.31968622225012 0.7526059943349142
14.528403354632962 62.322493598925234 0.7464297270090654
13.734346198046552 60.20566197158486 0.6679146558025827
14.660673835085438 62.29611946929356 0.6542082468799503
13.838514667368573 60.17891827843495 0.693017498872405
13.93335304446225 60.158646288115214 0.715452205622126
14.882215857399125 62.26649041361977 0.6859727789470103
14.047439210431175 60.1275267908747 0.7117712903708847
14.94307166278351 62.22135829293823 0.6925974545971196
14.920840709265985 62.15235823543426 0.685180042021822
14.137548090379276 60.10573259256583 0.6678893818528483
14.268533317282103 60.07535972446355 0.6944540060086707
14.217818483827763 60.0863711191775 0.6842234639459669
15.155176378858009 62.17941188297018 0.7231345863940528
14.326626305070306 60.06171636950881 0.7062540247606787
15.293584619492899 62.14647140500386 0.7430806885729885
15.240921985756753 62.158637958353175 0.7354463012970041
14.447168262723322 60.139399450350126 0.7217968088906233
14.426003419187305 60.07456226295204 0.7233398344416214
15.330247706288421 62.13591519535297 0.7483228362333266
15.676900049206804 62.06402895748513 0.6546610479745918
15.699138450069242 62.069158408423824 0.6576016851065911
15.720723525236036 61.96468424526047 0.6569841999433372
15.770661588512723 61.952728121167446 0.6628874117085036
16.09672026545586 62.00104115505413 0.7051738122284388
16.249310344807498 61.98944710581272 0.7240174785587664
16.34731810247905 61.96552929229313 0.7357266862529712
16.457978634589725 61.934046144918106 0.7488981569185348
15.638162279258998 59.78973338900827 0.6727621891809558
16.494059470346627 61.90548861707988 0.7527888978965932
15.802245914792218 59.74835418352374 0.694592058132329
17.383371007272267 61.588014696761995 0.6595460503744428
17.46401288205319 61.56381835374743 0.6668406957068379
17.53459878640146 61.538745447011244 0.6732136436739213
17.724035798075022 61.508539151446634 0.6905969336461413
17.779503104092612 61.479746755202775 0.6955828003734413
17.890501475387424 61.45389851023717 0.705754664899539
17.955130469037307 61.43572716211606 0.7116879425793425
18.049611154821644 61.4176526332361 0.7203806717438496
18.094294377082 61.396090366558994 0.7244686055606593
18.18668768994877 61.376087631660866 0.7329806342528588
33.744923357334315 57.18345281891551 0.6583766302245911
35.81320745466225 56.722489328721025 0.7088067743161046
35.807389698292326 56.63657006773057 0.7096402137000994
37.39770057781072 56.244294978179184 0.7488277092285055
37.37252930589143 56.15622821240198 0.749293585318232
37.342974523938906 56.06813440119155 0.7495661208842793
37.32896052035045 55.97793392429887 0.7503333838267283
37.32228632292896 55.88523087279615 0.7511911750894709
37.284145329739324 55.80000047424194 0.7514064242251912
37.253366223866436 55.71238641814921 0.7517115893204123
37.238096427370294 55.622446703967995 0.7525145551940406
9.28820443876876 57.383299199988286 0.756153946750466
9.254385702341533 57.374583258193795 0.7603133724902471
9.318759721712713 57.372315943068855 0.7543977132186827
9.354214889947468 57.32450973515707 0.7560759397054163
10.226774375236825 59.40832905292266 0.7952496006088196
10.225710954455707 59.35628794126291 0.806197824821666
10.130169317747958 59.22577574343852 0.8525749473398772
10.112034728947727 59.139939396724714 0.7773396095624578
10.081906445794464 59.040736469350094 0.800687916336291
10.05634444262489 58.94296004150272 0.823115715652319
10.04675882794126 58.86298370777011 0.8396662694324524
9.976151506597171 58.639222501522674 0.7807368044602718
9.966942769318681 58.58849857174394 0.79021017285179
10.004493025401406 58.54561481312914 0.792029984029459
13.63459953682795 62.90277891171717 0.7634817094216749
13.754742744650468 62.966985564853964 0.7950511389684667
13.72319400337291 62.93875610916852 0.7847817529621971
13.785914455446953 62.94338899227255 0.7963021754418179
13.792181769652345 62.899183299966595 0.7898734397985115
13.752017898160869 62.80328763926073 0.7667713678238192
13.98189443369099 62.4570990438261 0.7592258781707576
14.059287972653129 62.436651358827206 0.7722914902743637
14.162096097426367 62.41697748470969 0.7910123653271689
14.257149282092982 62.38308226346504 0.8068621802750633
14.34726882011189 62.359540138329464 0.823270407931192
14.456009252127114 62.346990199701786 0.8451476634017846
14.591522757862888 62.308101912232104 0.7567590275335314
14.571101296504429 62.31147736263894 0.7533017204008002
14.64992473746275 62.295792346701056 0.7665034133516245
14.66636776691788 62.243778469911774 0.7654021836692713
14.702198352956994 62.221133945617375 0.7703366831629627
14.894726803120328 62.264843903865916 0.8096085433198718
14.942346951046304 62.22525792829941 0.8157108401654469
14.933514530255444 62.16053160505614 0.8095654023176831
14.118162663423968 60.11470063923913 0.759778050625352
14.996872322575035 62.161516945044575 0.8216531953780803
14.266941287473802 60.076569631631294 0.7958376563322239
14.207653921733876 60.09127737381197 0.7815048764578729
15.123163734437293 62.180938456087084 0.8469379723152541
14.342717357141849 60.060987874503176 0.813818237353659
14.420310557297976 60.04489323235954 0.8322637370610964
11.8504624600432 53.16663680898484 0.8322347191551024
15.379995983562635 62.12953887881177 0.7558444687535646
15.444105301622386 62.118521601430274 0.7654300784836225
15.53505324534461 62.092838274077124 0.7786443941188568
15.640728034579086 62.06830808319932 0.7943493050726846
15.756840458248782 62.0433431184836 0.8118141933934812
15.784240444887446 61.99793497396826 0.8144238852279303
15.761895807065558 61.94926344156247 0.8090527844733634
15.368118502306137 59.842324102826176 0.7765429428190233
16.54207047240165 61.88708256211899 0.7584437027113805
15.735406183629244 59.756314888290085 0.8383512828146498
16.627272465111332 61.874041861063624 0.768942222249393
15.79807244949141 59.750310786742666 0.8483627374169018
16.744889768628447 61.86435999299218 0.7836507792668043
16.839040203907153 61.842317110859355 0.7951535156407751
16.9262340192731 61.82592688011088 0.8059171457149964
17.019583275252433 61.790316721146304 0.8171476400652766
17.12604540352946 61.72702527855822 0.8296789595998957
17.199260455292826 61.66774904065872 0.8381726058872887
17.20269522458978 61.629783236976124 0.8381317862438882
17.304714662786537 61.59981605275863 0.8508199856128361
18.50586681439059 61.36369413232037 0.7626187051178148
18.652465084806455 61.32069110991136 0.7761580318400829
18.639285655443324 61.284340139493956 0.7748827309033176
18.779273542352627 61.249535994435995 0.7878679495399632
18.813401621257487 61.22460852064099 0.7910525083472439
18.933093465179002 61.20005671123042 0.8021778699395623
18.99890513094989 61.175676358385616 0.8083290883702211
19.12837952644692 61.15053476674895 0.8203844671324473
19.251770736693388 61.12478420174065 0.8319126693889017
19.333275152431817 61.097883843460856 0.8395313283548017
18.6143425098467 59.07177857283948 0.8125857516037183
18.58606345576147 59.0541592659783 0.8107670527612516
23.895060001927654 60.043087576935214 0.8414792855235599
23.88909700260424 60.00080311675213 0.8415525595954144
38.00722514292407 55.35848912318981 0.7723820927461277
38.002416671052245 55.2632718588983 0.773511700719423
37.96203724962426 55.175347643383006 0.773674811807977
37.93956153577906 55.08652875610288 0.7743735189162984
37.924232653663246 54.994445402212904 0.7751634342061817
9.281160272820857 57.38199181380668 0.918052281521571
9.25063098261139 57.37841805774653 0.922058420831033
9.309590511350823 57.38236489793816 0.9147351611141065
9.333159737625442 57.315441094511165 0.9210961844588474
10.127819453470467 59.20158147914578 0.8580976773484809
10.116067085784358 59.135227742391244 0.874392396013791
10.08656670563261 59.03658935224791 0.9011219841765569
10.065040845556448 58.95199844440797 0.9234362885126572
10.054353795668684 58.87064472971634 0.943106813099289
10.016993016620553 58.760119558958095 0.8639806896133077
9.989079266878939 58.6549082481623 0.8885466272343093
9.966265106194268 58.574505477090284 0.9076215253804326
9.517479166107579 57.4550880081565 0.8814350539064092
9.433927359180618 57.34437241633742 0.9058621731920887
9.39003167345473 57.301883146154196 0.9165397705712448
10.013472458918391 58.556026117539346 0.9037412499005161
9.597659774236755 57.51809267036468 0.8639744659412143
9.620330308020584 57.45353166789942 0.8704475344824446
9.646714668273685 57.439344199373885 0.8695861026133169
9.32039158629769 55.86710859805557 0.9186695123201418
14.500873951452686 62.33766062935759 0.8538197010830926
14.563054974959504 62.32510010486451 0.8660045157285352
14.537213406910533 62.32406302499353 0.860291293706597
14.65230889270931 62.300498580927766 0.8830274074832921
14.662299642338123 62.2402980853058 0.8796244662496219
14.874659115187537 62.26185010055489 0.9284482995221726
14.94550213342984 62.22433535017989 0.941068218126874
14.920595315791243 62.15462494388522 0.9298904573578125
15.181997495238946 62.17237096029068 0.8576019876885693
15.237828712068335 62.155818113503926 0.867243828578571
15.341236944623567 62.13713889269822 0.8859537718189427
14.510577529189177 60.0189126835881 0.8544996027325297
15.445284592178128 62.10993967383347 0.9044340043176706
14.62923949656803 59.98798209200573 0.8834021387185723
15.544859885850254 62.086427884886966 0.9224001267515329
14.739318192442328 59.96196056881675 0.9099633721180329
15.635272148054604 62.06517151405265 0.9388324107920488
14.826786269710256 59.93984762620482 0.9312427638770829
15.70154871530787 62.0511779548594 0.9510066953545028
14.916176824861534 59.9173587965112 0.9529660044087346
16.09213270627877 61.9982858561591 0.8637775595822412
16.186214789598054 62.00025337737486 0.8789437809759315
15.35591128535622 59.847291467855804 0.9143131857033958
16.246884592401006 61.98708160119604 0.8882535943592937
16.345413868000463 61.96328972786645 0.9033330514749717
16.303658951116812 61.97265795072206 0.8969167210063378
16.43693489497614 61.937064031890145 0.9172907398268434
16.536269847640284 61.89291673743925 0.9320626909263386
16.62592169045075 61.87196863800694 0.9459958955413047
15.93233785815056 59.72822161138657 0.8703924024473912
16.38527210349262 59.60176141591661 0.9480445594188258
17.34777527325874 61.58359851199737 0.8561400162129713
17.495099253274685 61.55422618004487 0.8746907003507738
17.58912414004668 61.5302612647631 0.8865133122203072
17.696986580295654 61.505204766225596 0.9001213567792834
17.781397808343982 61.48856253368724 0.9107955490812456
17.033936500983984 59.44838300934494 0.8580306094897491
17.881084111944205 61.4623346768483 0.9233929278639356
17.946978768248155 61.43371106469821 0.9316681899962909
17.239946907616186 59.402322616498374 0.8851795846256243
18.06686402471326 61.41655571309198 0.9469307751928098
19.740369022055347 61.00923801385402 0.8776525588931203
20.353576658759522 60.997773079196264 0.93469041747348
20.357424117479052 60.90816202083925 0.9354362447074703
20.33781593469996 60.81908037428389 0.9340825005856018
20.30331500854646 60.730699814446844 0.9314732070806511
20.307436766006894 60.67001856405912 0.9323088376366748
20.28191708624164 60.61138518100962 0.9304593920402675
20.252539574406157 60.52321141651494 0.9285787587840948
20.24343110416107 60.4656619606775 0.9283556218276872
20.314458260434854 60.430491313854766 0.9353098216058058
19.90441008680309 59.15582864919569 0.9243141566387736
19.890969527603566 59.053380314406716 0.9262739545409905
19.866390910821778 58.99856624584408 0.9258061650472206
19.70534545690472 58.77254272580026 0.9192908946934951
20.496338758528275 60.38426264490697 0.952699555339309
19.896773686854313 59.05172679873518 0.9268163701003094
19.86062516577211 58.93901262176104 0.9272598570154431
19.835372140973007 58.855772519247836 0.9278217722819071
19.828596064918578 58.78202805787844 0.9297932073001464
19.792134219797155 58.63771448419434 0.9318378817272857
19.76272053065972 58.55520045240778 0.9324020589686656
24.743929642564083 59.78090510739154 0.8928070466074907
10.040937201360551 58.809055868490525 0.9590794253109184
10.018489206482169 58.74079236047381 0.9782623183821796
10.002070727529233 58.67043967491709 0.9968343989124012
9.971639591681434 58.588608952789905 1.0205694617571794
9.535452816223868 57.48027126716523 1.0311377976640927
10.015827951696323 58.556014341778145 1.019972450136559
9.602365707807262 57.5062014591058 1.0181995370031716
9.627622532661839 57.445710894612176 1.0252726974428037
9.657157153716035 57.45262604851152 1.0204003978738614
9.620544488792715 57.354213758380794 1.0417872741179237
9.608961935260446 57.3002226413615 1.0524612618673108
15.057942543012288 62.17822651172283 0.9625776463208326
15.140824861755538 62.171304248537055 0.9807403482330221
15.24551118370777 62.14926571988131 1.002819361648808
15.361015723127974 62.13378049863464 1.0279773658726323
15.426953293479649 62.110233294926346 1.0414420020646056
15.748326200011846 62.03956369999724 0.9595540304063507
15.782217269137348 62.00304376474898 0.9644692596834518
15.765376212902426 61.94818757360504 0.9587529193775782
15.031244066888123 59.88591024492018 0.9812112594185205
15.095691577629953 59.87465607301264 0.996407577933048
16.07815023348387 61.99373356476326 1.021941556544739
15.67274776499124 59.7786650202414 0.9788672951115891
15.703473510102793 59.783448776286384 0.9842744890486382
15.821333278747495 59.758396969840696 1.0082771816074185
16.746856737709997 61.86278421259204 0.9653588853228852
15.922468269299513 59.74836458624925 1.0280501897487089
16.85913336188296 61.84311009900965 0.9830807230901615
16.027703358254943 59.73854827033644 1.0486026279641962
16.961793555727894 61.819015222189904 0.9991835034855788
17.009445402077162 61.78733267421766 1.0062279064704465
17.114824849044417 61.73337876246188 1.0222946295105955
17.191126998384867 61.66525621430138 1.033508452102824
17.204374521412692 61.62819218963334 1.035086343254727
18.188689912409952 61.39778732637198 0.9624708764816614
18.291343643179474 61.35557511897761 0.9754670737517128
18.643340357244334 61.2826714014558 1.020434071062549
25.989840858460372 59.54792262766929 0.9667597560820014
26.493816260469508 59.438848495847054 0.9968846123411
26.67339763990578 59.63016877331384 1.0051568227796244
26.608599149562153 59.37229886440509 1.004186183878067
26.59504045055596 59.29480379500207 1.0043366517720822
26.55018827906504 59.19666886670166 1.002973176847091
26.540089248710238 59.09269957336126 1.003731378716886
26.500537152617465 58.99245776239565 1.0028229592852855
26.480088448477986 58.91622194637943 1.0027365813270206
9.336631315262416 57.31565748249566 1.0846756362491254
9.686181495171244 57.86497435508725 1.0895949184561815
9.453530498475734 57.37194229854162 1.0599482849882513
9.398896691656383 57.31125638887757 1.077214129310681
9.697732946779581 57.85781826773174 1.0892558949183804
11.870519451318113 53.166554109613045 1.1142383807677616
15.545995569935886 62.09172485304251 1.0674913699247934
15.64815970943838 62.066201964779935 1.0893882813661113
15.741545116153262 62.02523069910883 1.1085877845327041
15.788866603067277 62.0099709307672 1.1186590966696326
15.350852721837626 59.81404172682079 1.0582304388319246
15.397351681685487 59.860763364511946 1.0642169202808565
16.456000585264942 61.93015788251665 1.0937393539264497
16.445164244907332 61.91132936491116 1.090932521494637
15.670084857967698 59.780128524669664 1.1318662824609156
16.512117402400293 61.89582429395924 1.1036165814019783
16.619956027343587 61.877872891557885 1.1243241998803362
16.743089623552663 61.86920735318648 1.1483963253823015
17.472666577573357 61.591327582252404 1.078395020744337
17.585397509330782 61.57908057594156 1.0966538181232146
17.040490004054163 59.44686444467674 1.0587375708185824
17.90372419144191 61.53749949321133 1.1482290869723772
17.461735578184935 59.33246099224392 1.130812462565155
19.034536183615685 61.21222152496198 1.0705855989366644
19.498499862207026 61.14841856366451 1.1301574150135227
19.601565747997068 61.12150900889912 1.1434445161147098
18.953878880087082 58.96962390217182 1.1137384349428834
9.773799073932164 58.0773101005181 1.1709326095348496
9.719670632132637 57.96583664226351 1.2057433926074719
9.700256058126698 57.89624585536721 1.2250000128904657
9.539316854177113 57.481483810735554 1.187764083440121
9.456036637945054 57.370698913737044 1.2222296396884897
9.391016108457315 57.30800321098925 1.2444043969796754
9.715478981546928 57.882234117956465 1.2256032660177723
9.618863315113494 57.49970259243034 1.172474693763933
9.662703188163178 57.456972800458935 1.1747771590208342
9.624639559952069 57.35586088381171 1.2007289650728952
9.616446440173773 57.27501788927022 1.2183485477195215
9.611036310557559 57.23148711157845 1.2280072060937706
16.28552667048998 61.9819882094195 1.2323409283215647
16.219868815206237 61.99455436162061 1.2176841492774704
16.35306506639556 61.969097404503295 1.247465515111213
16.78826147217801 61.85792249118934 1.1569792223702626
16.85200823288379 61.84028503434648 1.1690849311473985
16.95806534358147 61.807395951603496 1.1891955724983831
17.013912238981565 61.79524932121927 1.1999405501127638
17.10962265744402 61.73103498564632 1.2173861597398257
17.22510409178171 61.68563081012951 1.239343032842425
17.968086569818055 61.519057161143984 1.1585853980359067
18.086186284539323 61.49246242885144 1.1776642067746872
18.208098157694934 61.46557579915349 1.197392803246542
18.287971824215106 61.44700442937819 1.2103465866519447
18.356030324242383 61.42640380905287 1.2213408165145478
18.482636325064586 61.394591442307046 1.2419029220476745
19.71249764827198 61.0930422436047 1.157728406654785
19.84510524312667 61.06293499393541 1.1748451174968648
19.971668989639213 61.03196401286191 1.1911749199607162
20.106039743440206 61.00067861358913 1.2085542269489213
20.244284995048105 60.96835419406365 1.2264179660563308
20.36303346991342 60.90632040222852 1.2419959430978116
20.33353542468463 60.817691106704224 1.2387966202595617
20.313759779633607 60.74368173729532 1.2368640174112329
20.280323509826665 60.64017705318199 1.2335998579846836
20.303714385916763 60.683918989920386 1.236136820522246
20.275496202746428 60.59530538595149 1.2334752076105593
20.252422024689828 60.521945807909034 1.2314216438989518
20.24794163176074 60.464171980508915 1.2316310027914457
20.370058759891158 60.424546293735915 1.247782375358825
19.916834309905745 59.152907751613846 1.224253046952729
19.88538169353809 59.054963432346 1.2242251452807733
19.85954445329683 58.95494121245046 1.2251739027792843
19.834304312752728 58.85658509856435 1.2263089951479524
19.804232749261704 58.77430549072334 1.226329254055172
19.789427177243386 58.6549165367091 1.230098106883572
19.745254053786738 58.45029006914707 1.2349060283725686
19.76203369522548 58.4133877676819 1.238802757145858
9.303085003260723 57.31708161670005 1.2559338452615012
9.560786299180688 57.512489012459156 1.3370572079137906
9.624147715699765 57.503267142097236 1.3287366571435064
9.666379928584632 57.4578016048904 1.3325077665256946
16.430353386261764 61.94058551713774 1.264225419623667
16.46136239037881 61.91197281962165 1.2702592033339069
16.529755421595638 61.89666734392825 1.2856210051267567
16.622383215081634 61.87635860136381 1.3064878774169577
16.75520575971195 61.86900882986141 1.337288300208381
16.79618710455817 61.8571848328253 1.3464504668942245
17.3146573510751 61.665236789228054 1.2567681172906855
16.528300659707668 59.499898616784584 1.3471770867975328
17.365117629395353 61.64014275972137 1.2663496902228728
17.46060665240461 61.628240626530896 1.2851504760254984
17.61742501030904 61.61056535988382 1.3161181883259832
17.70383590171355 61.585853373104456 1.332966444969747
17.77574801028084 61.56989392352394 1.347065331676131
18.626807451607004 61.36388111365248 1.2653817651478096
18.71036173525384 61.342376955685026 1.2789729644690835
18.779999230022636 61.3202281439138 1.2903241633958527
18.88709365852208 61.29781245974113 1.307804276510268
18.968437702445037 61.27415003936702 1.3211036738641149
19.091182840890244 61.2498948210281 1.3411785964230687
20.51168243301122 60.38168263327495 1.2665261302634903
24.104694789669306 60.02218425266923 1.2908530165552237
24.324652443543357 59.95769436954898 1.312026573179438
24.64336992079462 59.88142181836745 1.3424482575464023
31.19127774917624 58.13060910747001 1.2819521286504496
31.137367515220827 57.96466579145415 1.2813784421291732
31.184520843249707 58.06209410859835 1.2826120402664365
31.111496026964616 57.864265837173875 1.2814380659610407
31.09229207624661 57.79971225602655 1.281412271486619
9.454788027837482 57.36298807886398 1.389450639607036
9.39513042567405 57.30924085000194 1.4119235537598673
9.643588604092205 57.384540948286194 1.3534368642695136
9.624702405594611 57.3004368123363 1.3763135934302828
9.61741821659803 57.20358548790167 1.400434633019344
16.860447554769053 61.839535436562635 1.3609009973005206
16.9480066439749 61.822903247131016 1.3808783620529281
17.016345550920033 61.7937190153268 1.395995548870178
17.110300718157525 61.73869630183848 1.4164865891429483
17.206664061119024 61.691598390748304 1.437928135028985
16.70518802338698 59.457854333582766 1.3901625339237413
16.923066695222328 59.40365916023424 1.4433730344837854
17.84951708000031 61.55401711927873 1.3615769367721666
17.91157960830823 61.53613919879548 1.3737177039963586
18.0029491005575 61.51922108067683 1.3917636007145766
18.09288924538148 61.491078996806884 1.4094031874331285
18.21795385561157 61.464300261739325 1.434106687327421
18.29536207601621 61.445591773882605 1.4494153745958072
19.176316291466485 61.22434072792407 1.3551329724703496
19.28704214379337 61.198666748968144 1.3732723271892926
19.379887352562434 61.17316101074204 1.388526404814354
19.500301666275 61.146720180324444 1.4082889405040004
19.616649105817594 61.119745143734164 1.427433641155609
18.78399171256162 58.93949708827899 1.3591612724758115
19.728979446610833 61.091101446943775 1.4459099094564873
19.099100623867237 58.86950049218845 1.4121698025651224
24.926071102863126 59.80700648801589 1.3695888666609572
25.3410646946636 59.71608248701269 1.4091377583418776
25.69819250082893 59.6290007163058 1.44336775724175
17.34209843347545 61.6757923498014 1.469438897899281
17.415620932974335 61.66258656416527 1.4864458178569084
17.50546034917694 61.64014989822622 1.5071395918099804
17.593242602427033 61.617256182215364 1.5273766046822752
17.66081850492958 61.601756213080975 1.5430077171427523
17.15251316779147 59.34738017575498 1.499324126643338
18.392389755642018 61.425985193951036 1.4686292823751472
18.490755838376177 61.3930782554272 1.4880613467959798
18.632052714589364 61.36231435793828 1.5161275416617748
18.726837246765086 61.34108911653376 1.5349573819166347
17.969706858155085 59.1490463547334 1.4578689692624964
18.271577805701472 59.075951685571 1.5201577255613226
19.84906081917915 61.061086887474296 1.4657134407577534
19.957212224999807 61.03044915198553 1.4835504529470185
20.110620313992882 60.998853292496094 1.5088643146882217
20.265912713680986 60.96619152989777 1.5344766983484621
20.353123581222974 60.90495574285052 1.5491742764364083
20.32637049163138 60.81639836735178 1.5454858656435597
20.30083210530319 60.71270383120594 1.5423588359805604
20.283856072785305 60.638547116025684 1.5404743575053033
20.270166558828357 60.594286451958276 1.5388235185171106
20.263906749082217 60.51983520532432 1.5389022035428732
20.245642945459956 60.46325247414682 1.5368432753122472
19.905451203387244 59.15585585750327 1.5237616430488639
19.87578919326276 59.042447939339034 1.5245441111659754
19.86548849724263 58.99937919789091 1.5250662708360028
19.82506062263889 58.88899125809606 1.5244406862442135
19.905010312673078 59.080700284705586 1.5272879097262275
19.85392743338979 58.941549833667075 1.5262335409759054
19.82489961359109 58.84512882544675 1.5267824586576921
19.79875010827837 58.76110613959714 1.5273350790827873
19.757070512181297 58.5430073143388 1.5335945019673505
19.732420642459154 58.51860386469751 1.5313061142845328
26.072648386311222 59.5369000751584 1.4792333276987941
26.58498506924503 59.39999136329653 1.5285640119275699
26.57329666893421 59.296018641870454 1.5291447836389946
26.550249496727165 59.1952628496986 1.5287128705468007
26.513488948328575 59.095035442781 1.527099158383525
26.500617806968187 58.991187048859175 1.5278325406560884
26.478211612709913 58.91533801719501 1.5272470365785273
17.7399779290078 61.58661977049371 1.5614203458826477
17.799704805463612 61.56975816346434 1.5752119360688617
17.894989329795035 61.54417190981193 1.5973027771556045
18.003839450797134 61.517434679516924 1.6226209454785234
18.082818924135374 61.49968766850734 1.6410245263739254
17.412146898313868 59.28349648694014 1.562709632936349
17.689125384031943 59.21648262011212 1.630216952141572
18.82152050325834 61.31945844704725 1.5538119850013505
18.900487568560983 61.29630828418884 1.5695094297492909
19.004843995041487 61.272966658721636 1.5903324053956607
19.095433675259166 61.24813610969826 1.608389338065634
19.209438599668392 61.222821545409346 1.631182073139001
19.315535067474432 61.197117863348616 1.652383219148686
18.628559522144364 58.988854965441384 1.5939248532339907
20.36514646268715 60.42374212533491 1.5570229781226375
20.513889955490182 60.380277544519075 1.5821060873969535
35.88366530700315 56.88323968538723 1.567283324600248
35.84893171394863 56.80255535742824 1.5666953407909268
35.82164689260165 56.71973676602741 1.566483736001351
18.205003559424984 61.47303295820565 1.6695736982155167
18.319314526440053 61.444899214111956 1.6962855798623635
18.39228076800693 61.42410538957829 1.7133158447413939
18.484615665485066 61.40306196857426 1.7349748343903344
17.936812216114927 59.16037246439388 1.690323272794702
19.417591598251647 61.17153848042868 1.6728271441933011
19.521547746530143 61.14499764468798 1.6936406218272204
19.633230007651722 61.11797738518316 1.7160533781898217
19.764449317719684 61.08899956852614 1.7423686045436504
19.037046946927486 58.88931603908429 1.678304136731055
24.16134296452934 60.01529470381541 1.7381736362231368
38.229429270658926 56.18078388092975 1.7115763656970135
38.22739749735888 56.08441488656564 1.7130696767918419
38.16958994620917 55.90301249768072 1.7130325414781296
38.2095101454655 55.99202047832084 1.713745843395413
38.139326806319495 55.81319424969964 1.7130235476989075
38.12618285177322 55.71893772372461 1.7139667254230542
38.110928072363706 55.62608113951462 1.7149136170390649
38.091260448827114 55.53314390726355 1.7155234486781294
38.06559427674672 55.442495717794735 1.7159020432840426
38.0257767098242 55.35401340877353 1.7153538865085072
38.00533791925366 55.26232941615896 1.7161025146401971
37.982545842119734 55.17067627625324 1.7166239619597623
37.96005058796739 55.08188225784026 1.7172539222729428
37.93294371727369 54.992181899588566 1.7175510156201603
18.578826253982996 61.38230063512895 1.7570743072933999
18.645682088676452 61.36099825603304 1.7727513206823757
18.78283821169916 61.328778137015185 1.8049987031720212
18.937374720253636 61.29525043103837 1.841395732318095
18.254942230223904 59.08200811475547 1.7680238650678184
18.58134568413883 59.00428995671366 1.8475860927561598
19.889641306932475 61.05880036692036 1.7675390708903091
19.999057667955412 61.028063504004884 1.7895469119052803
20.13187270617738 60.996718336528474 1.816294254434681
20.292051642114494 60.963931719514605 1.8485103287278228
20.289634201669095 60.69686968659719 1.8507265549756347
20.282094766686505 60.66712324905083 1.8496182692342586
20.275143241059013 60.60765202984638 1.8491547851522359
20.246731983661633 60.5198911868884 1.8449887181535087
20.22330535375658 60.41957402454789 1.842309475892612
20.20599794634159 60.31660513670493 1.8411759094124358
20.18497096492446 60.228945923007565 1.8391880812851915
20.1600912884772 60.127255148709786 1.8370728614894225
20.136465253818024 60.02682157801238 1.8354414922350317
20.109870936880146 59.94080887746954 1.833009661839533
20.075372030469673 59.8413613458915 1.8297437954289864
20.054978514552396 59.7404485411447 1.8295879335943956
