ply
format ascii 1.0
element vertex 827
property float x
property float y
property float z
end_header
0.5963926094645738 20.3509941582152 -0.1909110162950794
0.5905383328854109 20.276360809804174 -0.1425039270548687
0.5539418939605009 20.197584764619158 -0.1457283042317527
0.5306914601973567 20.09466806745721 -0.14958591910797875
0.5140877989584661 20.001357700750663 -0.14048213538812385
0.4879042309636503 19.904888700804324 -0.13635798010149944
0.47019539237993 19.811795958494578 -0.12913389844947812
5.211625084632888 32.02898507473912 -0.17583872421837707
0.9439245197520971 20.785398252569877 -0.17056461497853337
0.44089383102214397 19.45728395594561 -0.11073870993217919
0.4340791743879082 19.40557598868938 -0.11140532900796385
0.4218759184614054 19.33857150578897 -0.11409253313722487
1.0419803016750304 20.84854660464441 -0.17176813923951892
1.012929194370924 20.77718437045012 -0.16454049116572586
0.43306175452221907 19.35027143661714 -0.11105699795444521
0.4163220346119483 19.290616513559353 -0.11592789130818779
0.38960857591641895 19.191924407204116 -0.12536973158961068
0.37093769241291263 19.095626129151007 -0.1345266837087364
0.33818991484490857 18.995533593407206 -0.1452221294991269
0.3160170578583992 18.899730716276185 -0.1410619647056531
0.29103292920881607 18.801268757284937 -0.15144271412712948
0.2644345009401239 18.701540596339218 -0.1705936895733162
0.24313911362983065 18.61139678999342 -0.16246218299617265
0.22024903725341005 18.53526197123501 -0.1390492384993406
0.21623869523769135 18.49771769545495 -0.15408868944509604
0.19149921901786215 18.409643534710213 -0.1587750409411691
0.17159901636239927 18.31455348704088 -0.1640452819975382
0.1520511602263983 18.24408449723035 -0.15560120953939263
0.3056064777218175 18.33612685147863 -0.17948812725906352
-0.11147299606719407 17.1406436766408 -0.13844222277858725
-0.046476673422266135 17.125617828320788 -0.13473528312687932
0.6348084202986847 18.590551187906367 -0.128447958162575
0.04727355898003771 17.080252643375786 -0.13179344380300823
0.06731356437298142 17.001306370000353 -0.13750666260617117
0.011706909061999227 16.85153377404355 -0.15512723263005115
0.015559293738732105 16.764846101670628 -0.16289704926287518
0.011791572615712287 16.637210707351485 -0.17508309410576905
-0.013622981503431664 16.543922714877574 -0.18553847738838528
-0.03799585961857033 16.46231934487614 -0.19483798982023298
-0.05033604064960029 16.401418125312397 -0.20141118524794502
3.5750840705991367 25.131438841698348 -0.19645785089953577
-1.0581502016651825 12.995001209888553 -0.11045496044444808
3.5297051618982085 24.944069388778047 -0.18448780175072038
3.439524362849048 24.639155105724004 -0.16486356538725339
3.446542735081172 24.54714352957707 -0.15928147078925342
3.517959320671234 24.52116631021395 -0.1584393675367604
2.9613460385318473 22.914568683849705 -0.1897129668790126
1.1289604666303041 18.12111773620248 -0.1551703883460997
1.1159524719851044 18.09955035882099 -0.12452644082340084
3.594317013274744 24.503931863598176 -0.15823456642821493
2.974562642680641 22.811045512318053 -0.18042513642950972
2.993895409685842 22.727796330677457 -0.17322442202425273
1.1926339663798444 18.133577493225133 -0.14719742446091408
2.9728836794672864 22.65004642284991 -0.1654786771381962
2.9548461895871014 22.57957670248117 -0.15848848328798687
2.9332105880625603 22.48887268815652 -0.14954277214583145
2.9156546095935854 22.409350836908164 -0.1417464860968385
2.887223807251041 22.308394748621737 -0.13168284043003242
2.862746642207373 22.20327998790455 -0.12136360253645806
2.8450260268690615 22.130088484221258 -0.11416575047110578
2.812502705737719 21.99350161064651 -0.20517918378321356
2.793619620829925 21.92203577169043 -0.19556518562955158
2.2156424254075326 20.617121761753562 -0.1139113451472509
2.2085717375875746 20.50260381792924 -0.16458364592042526
2.192380948759274 20.481148726768758 -0.16557044937054263
1.2775785284515457 18.07826619918411 -0.15552943877598646
1.2671009850868438 18.033811143951944 -0.14195722859376603
2.770598422893915 21.822918676004765 -0.1823999538468636
2.74598799374266 21.724783609702836 -0.16930147458952058
2.7225111827643342 21.622782193370703 -0.15582247862279017
2.6935840497772574 21.507622711361957 -0.14052267777181962
2.2968132659209206 20.4630891518162 -0.17007798966926288
1.394726808329445 18.12255268675417 -0.139288613083534
1.3888004785709547 18.097212947552975 -0.14596957116988554
2.396409331617246 20.432731639024606 -0.1773848142964735
2.4186577680274146 20.369511713231418 -0.17385907566475003
1.4493466030235198 18.068696576766115 -0.15146798838566092
2.435463818119232 20.392504147246772 -0.14989229014648456
2.4132067953265857 20.327058173216887 -0.15954537144551773
2.3923382351601057 20.241434665024528 -0.14350433362222748
2.3627714227213072 20.138988984468764 -0.1373152304563517
2.342120099480515 20.05680220187848 -0.11777992519452629
1.8472363824349067 18.063952772010786 -0.13821835446163808
1.8274554794216376 17.98772171611691 -0.14511889995501986
1.8077099053417078 17.922811693641883 -0.17200226406600896
1.9127440480823534 18.050336431585073 -0.14481443707462782
1.841528133413877 18.000026655780452 -0.17652148408434573
1.8038820551338017 17.896471070512526 -0.17227262726463566
1.7773045065309858 17.801189537454693 -0.15213531708366917
1.7568487536434556 17.71199916270818 -0.14665026675616705
1.7355465092542428 17.61919985652088 -0.16626900263995778
1.7094001815556146 17.508748500622474 -0.15664715397752074
1.6863077159594384 17.413124989151388 -0.17347354371296833
1.6576857945313224 17.314091468035166 -0.1581136560254608
1.6348475632675652 17.228586787990864 -0.15478318622575413
1.6106401211359238 17.13871322055089 -0.14208906761571935
1.4439632002152125 16.747544071242544 -0.19952577344887887
1.4271506617564096 16.685103818283302 -0.11323279666765729
2.0068464993898627 18.023418857957516 -0.15629714921844562
1.5978906893026863 17.079376862139014 -0.1506475763908258
1.583539481123729 17.03731069868233 -0.15674298608832496
1.5578716298354458 16.925288688385987 -0.17298763541787635
1.5377492197652236 16.842299705459464 -0.18505568472722148
1.4987650675230932 16.72967998870757 -0.19109363256870726
2.162259176572775 18.065057589180924 -0.1603738706173729
2.1132391694056016 17.99448522530095 -0.1711151010361975
2.2064238370891163 18.06626214609213 -0.16831679268175867
2.3170543660666043 17.907180870403728 -0.11956662145230798
2.4400923376209995 17.70073333843043 -0.16244500872841158
2.515829690682328 17.64260294759636 -0.17094010702741735
2.6044239528809507 17.61985755544107 -0.1529669278232733
2.7329879121126384 17.604351859833994 -0.16688246548569852
2.699579876661406 17.60145117347366 -0.16400808674771658
2.807582052542715 17.583197106384407 -0.13682455993695333
2.7615949275862217 17.589098332755412 -0.13220351898860552
2.9081450478180244 17.565826141331144 -0.14768833413105403
3.003919361170752 17.542422916749775 -0.15905755900972232
3.098177140756585 17.520635595235994 -0.17036814512506296
3.203579852862368 17.491949189720714 -0.18368525109829067
3.28671264143399 17.447810417271082 -0.1965300419665509
-0.9445886526099663 21.105659908777852 -0.011887743738080242
-0.8743551778191427 21.118319208781926 -0.009109455374513999
-0.9055853511337484 21.10985912967379 -0.010212139843679996
-0.8074152436583317 21.11114638038344 -0.10682673649875687
2.013732319876966 25.860458874406795 -0.01044962938621416
0.12713634253882344 20.89326944986052 -0.06504913095012729
0.207786788885284 20.872379675624032 -0.055016947355255814
2.491261713094738 26.516419268661043 -0.026724083204441633
2.449921841595576 26.398937452106324 -0.023500664777658706
2.3698628975273173 26.163426712499266 -0.017026884513793777
0.29931380385821615 20.852365335323235 -0.0462457672474535
2.3967161427203845 26.186201949919212 -0.017532566445056297
2.3145838281337596 25.910476285538262 -0.009883140751815948
1.4723829360558485 23.594395934175516 -0.09597799230131207
1.4444073139530709 23.521251595634293 -0.0915026388915485
1.4180490520416296 23.390045177477308 -0.08325978605548481
1.392071757401374 23.30157372454868 -0.07779118091775392
0.40540355669222783 20.803246384872867 -0.06377692580590122
1.3689624530822706 23.183042668708566 -0.0703558586176502
1.3455220109030819 23.105252108825262 -0.06557175218588138
1.3238645164386416 23.005385896279833 -0.05934759628397548
1.2980528150957293 22.900743565342793 -0.052874293718575445
1.2744486305051506 22.79565899163506 -0.04635664134651538
1.2506953925858997 22.70695949514055 -0.04091449942010655
1.2291556609256142 22.61717006621636 -0.03538843179131284
1.20849583955025 22.531205599788812 -0.030110085018811884
0.48682142352491153 20.774567290828877 -0.06006498644955446
3.3636643325689484 28.087726429907626 -0.06831334350305851
3.3974777592553007 28.02420093765189 -0.06628846142479589
1.1850704873982403 22.43068718871714 -0.023941005593390616
1.1588146520134823 22.32644304559782 -0.017594301135699722
1.1357381783369545 22.218119209495647 -0.01095863395591172
1.1115066018418365 22.13662920723679 -0.10509010758578613
1.0873827824896303 22.033028963225025 -0.09534259681260607
1.0615174559360532 21.934291016510194 -0.08616586780108232
1.0349742852252537 21.828470237415036 -0.07636519708131015
1.0095329394416575 21.734245283408427 -0.06774278708183734
0.98921470983382 21.668680195709047 -0.06185479932524065
0.5736486992467159 20.704471332222088 -0.06798500971503099
3.418861504684289 27.909971082258714 -0.0628383110549281
3.4226155661830138 27.792276864843352 -0.05936811897520904
0.9797210498154326 21.62526235553984 -0.0578655777887691
0.9587811300865511 21.548203789539325 -0.050940237576831825
0.9370406676117775 21.44780988126757 -0.04183050153958381
0.9237906818445868 21.36770621208537 -0.07149477576565094
0.7207466369269865 20.724344092196105 -0.031155306419219563
0.6930244218644731 20.681488826506158 -0.056887822123600225
0.6533121584286659 20.6316094854741 -0.05375786212362716
0.5742426511798807 20.376555303139924 -0.10035557485151361
0.5640149970894731 20.30414631486446 -0.07900805420656826
0.5333766872008994 20.223018886373673 -0.06796069349209369
3.4760344498662072 27.75736733166531 -0.0581066501591166
0.8149841421103949 20.807829522186122 -0.06367106901002972
0.782472869172363 20.76701843933326 -0.060211139870936035
0.7566260961430019 20.70058647857019 -0.054557516550331635
0.5800684142517105 20.272378213442696 -0.055324032382084394
0.5553347621785069 20.191937154063694 -0.05248351027146172
0.5326144151263917 20.087809613712125 -0.07848472531842146
0.5063428105662735 20.00362747371733 -0.06712884659694404
0.4795520263236821 19.900763432704817 -0.05709309943010255
0.47139012689220317 19.813695938310815 -0.0640191582718817
3.544544720023879 27.784223419742972 -0.05859087532081123
0.9444805277598994 20.774958014534846 -0.05559868895646298
0.5408512332615006 19.732952097496018 -0.06444449756802137
0.5170565351525545 19.67605898481896 -0.06517524842011371
0.48954204533363144 19.58020001449738 -0.06561345923847875
0.46116175092404066 19.48741118440893 -0.06386370316572026
0.4344042437340583 19.40180577840891 -0.04850359107233795
0.4043746956472767 19.303411535608358 -0.03783865001335327
0.3649414460195597 19.185651136117762 -0.04699154008669689
1.04763725781146 20.84593040623474 -0.06342097007644465
1.0137783856044238 20.76733043669178 -0.05542965260435389
0.44195379379835575 19.36626426298373 -0.06621832718258214
0.41576633349170145 19.287117095049556 -0.05678910816557097
0.3860907474752333 19.188698015662226 -0.06309194362608048
0.36714939861064355 19.087186782468876 -0.061995929153494674
0.3421420482879556 18.995650444464804 -0.0560566898258834
0.3165278987326168 18.89857624153613 -0.04667372507325245
0.29462086274061394 18.801512291736838 -0.05202979671613563
0.26586399264502725 18.70106043261327 -0.0680801362982445
0.24487844873673326 18.61366455747621 -0.07906575256029291
0.24668918445547372 18.584237075067556 -0.051663824561296305
0.2248777685317358 18.50095776264765 -0.05692929363925813
0.19761389362463766 18.405113301173113 -0.0419668586209957
0.17477651815271256 18.314288184073867 -0.05419892471877432
0.15425581286718137 18.25684787611537 -0.05952448502385168
-0.10976548412726705 17.146818968028263 -0.040683208001889994
-0.04325983996968352 17.12559483928834 -0.03813642535309695
3.5488534410190624 26.226585187797795 -0.013193586163816037
0.646463200364264 18.617987803228385 -0.05325073935620269
0.6432828099414101 18.60296737559683 -0.06070346551794737
0.04431892344966859 17.079432632139646 -0.03608673936649042
0.0668529311949495 17.004560870694025 -0.039437714427481195
-1.3466137059803576 13.362561832911203 -0.10583918127300843
0.7713863901276065 18.696405823938306 -0.0458704921089356
0.7099343330458353 18.641504212274903 -0.024938772866532767
0.049342487727664475 16.919648377302536 -0.04556840401492291
0.016986709215221385 16.77183877380688 -0.056393081698739946
0.016847890317917225 16.662592473154607 -0.0632528642102945
-0.01711990811791342 16.553921467425567 -0.07177918504033645
-0.032270676716149804 16.47831621479827 -0.07731288604886274
-1.2777321015126073 13.342995003404013 -0.10450498712166725
0.8853790129009068 18.6281305915436 -0.07346576947801403
0.885659841792971 18.59996876797421 -0.07083553700613104
-0.027302891945109042 16.45088067782311 -0.0788268364335567
-0.06307903575725371 16.35703967217858 -0.08652133226273886
-0.08928529412730857 16.26733684929355 -0.09350436416637997
-0.10959833952928433 16.15911801952639 -0.10141890839436732
-1.1741153991856674 13.32272339872939 -0.10225454618675109
0.8946904766822431 18.587972487143034 -0.04690761318808757
-1.0741069508086165 13.29525476450575 -0.10043016983756287
-1.0163559816378884 13.284492206654125 -0.09923331648083372
-1.0080218138217336 13.244266136084578 -0.10041324884686481
-1.0420781385867544 13.098473429948085 -0.10640828276394462
1.132524292846032 18.129503872169977 -0.05778426523507956
3.0622730815105665 23.05272923165563 -0.06390353831833115
3.0187004641818667 22.881786784608245 -0.05303117689162037
3.011624223627676 22.800784566622777 -0.04805680766344215
2.996623785702483 22.7353949347 -0.04392477813775684
1.2080449301081777 18.183919784287554 -0.0659803806770041
1.201656232663669 18.15776435701318 -0.07148188611654663
2.982113079490965 22.671994440524188 -0.03992435244758503
2.97230857619176 22.619492109073033 -0.03663965813776424
2.939919510742416 22.504890206404568 -0.029333795562846397
2.911508511724629 22.388333458276023 -0.021970237648675908
2.8932525893226737 22.3087643025678 -0.01696535422800438
2.866849211242254 22.213024408188648 -0.010884250805179914
2.82800342683462 22.072003314649876 -0.10837146448048599
2.813544043610417 22.00813808898739 -0.1021327643610565
2.796952834663392 21.92968930849816 -0.09451552674371586
2.197136534845114 20.589964046780768 -0.08169169576768998
2.207990426100645 20.500759696257813 -0.07441993343149098
2.200890144428694 20.471776773214767 -0.04347510653604016
1.3569974173759658 18.147379586534008 -0.04378766059222613
1.2907136833013562 18.089585548517142 -0.06306643078831711
2.7681716703791754 21.81928807778503 -0.08364483158565794
2.748022363137377 21.71987536891394 -0.07406064082135369
2.716429361520621 21.602887247245125 -0.06255265130026294
2.6978781432173538 21.516285538573996 -0.05421634710717695
2.297339423157617 20.459278934661977 -0.07004041753691054
2.2496985097049715 20.454325706441583 -0.03995008975924697
1.4061149864869118 18.152585889313535 -0.06347126695586397
1.3549352492140643 18.122782261219125 -0.09407180705747972
2.392608360308769 20.430111435276398 -0.07505078902016632
2.413722246248514 20.35926448829724 -0.05413646861419904
1.452268671706087 18.072362670681322 -0.08664102093776951
2.410574550403983 20.321787095573907 -0.0687341273174421
2.396198739489726 20.246628956113266 -0.05035586551033585
2.3665006164299314 20.150868420271003 -0.061852408655945997
2.3406870682635486 20.045900202983134 -0.05883665066515214
2.322211916701321 19.96501830324564 -0.05730648306358168
2.3114665727456742 19.885796267736062 -0.08185882997049637
1.8479418735473476 18.063961232039404 -0.04447168522099284
1.8238106102308596 17.98906785318072 -0.048970887969845146
1.8010458230545627 17.911533767559142 -0.04424900421596916
1.9088351652376645 18.051113726785704 -0.04251236047631548
1.8412596086579116 17.996140056367917 -0.07372874681184532
1.7983066837505324 17.88598627180316 -0.0824763313286335
1.7793536881330523 17.81817279020915 -0.07195491377028529
1.7525671836935965 17.713041055051132 -0.06077761244256339
1.7253780942420056 17.60454335429387 -0.04409403168734984
1.7030084140851156 17.51137561025933 -0.05862373605218268
1.6780924030125848 17.41196903868436 -0.06800741050409953
1.653943446008831 17.315176878954873 -0.043480341570232665
1.631139290164423 17.224085621714337 -0.053359929549507794
1.609722466441179 17.134078111248154 -0.06316299144664528
1.4508364783069665 16.74293673764883 -0.06025808962574505
2.349878149768027 18.8409913403359 -0.06448502385951091
2.331453119553186 18.800516651346065 -0.05759377326770627
2.0056881602481527 18.023620021423298 -0.05152339784337261
1.5965321659280034 17.083092442544316 -0.06873219746593068
1.5790111184196212 17.01489594384294 -0.07620805925352311
1.5566317512504702 16.92782791704412 -0.08577531393457075
1.5390469397433288 16.82772609725831 -0.0665721254175109
1.49829661693259 16.73213298050935 -0.060865583742787964
2.4125410072749904 18.773449727217592 -0.05725164416793326
2.1612887664907365 18.064643963498085 -0.05171079075735439
2.1119281492873734 17.99508352038844 -0.06292981551763227
2.2052734065026973 18.06936750367084 -0.06246179883731868
2.354084149783799 17.839961248876673 -0.07044167043963773
2.4124693137444404 17.747585785819197 -0.01995248429709434
2.44880232639361 17.68418431414956 -0.09643882427691305
2.5096564217666835 17.646963678820367 -0.0660013627940722
2.609677537308753 17.62352398526729 -0.04239053061145836
2.702614044290965 17.60057499975874 -0.05005544931865177
2.8205433021840745 17.577621833041338 -0.059601011183689205
2.767648628421015 17.58414626780376 -0.0555889087438703
2.9074882387369656 17.557669848076884 -0.06711787275315736
2.998492049350978 17.54197085743324 -0.07475323316194443
3.0935122981971572 17.525204566044614 -0.08295244633562879
3.1898374758319408 17.49348213766861 -0.09258764718723003
3.289260671464646 17.47057283678701 -0.055648034724287844
3.385954257000627 17.434973886798456 -0.016993470366331496
-0.8531952418380893 21.121949978333816 -0.008267834594821326
-0.801841458005556 21.109211159190277 -0.005257087319452687
-0.7266547569949149 21.083077482564082 -0.0005194698085308133
1.983702499213286 25.774570929303643 -0.008114555712640137
1.9503525444673284 25.626638224778784 -0.003960822963885655
1.920919180023319 25.512484797303955 -0.0007834217116416964
1.6659274640929596 24.860513009615563 0.016571786298988964
1.6454892961823182 24.819112199958738 0.01763966319952227
0.14591254808712506 20.884523653046994 0.04773501931021004
2.056171903368385 25.71249425662309 -0.005749207596651332
1.891573283490686 25.386171041209714 0.0027542342913167914
1.8627466988927295 25.25580445197428 0.006415631422496286
1.8358495698069892 25.14121391801728 0.009607100877610516
1.810315942140755 25.03855191828119 0.012467168213397935
1.743206654008726 24.868021550964407 0.016994024123397414
1.6180190212464292 24.467804749915878 0.027867581786968947
1.5647591576397342 24.41831047386045 0.02888562587531626
0.17016940197696595 20.89435470123793 0.04816584176866888
2.1540977631313396 25.689935360585157 -0.00440094516182158
0.3101041751806599 20.85170984400961 0.049425168673550915
2.2303359172502493 25.674869958232104 -0.003443698796226434
1.472332295687879 23.594423630741787 0.052624494455731655
1.4443509595936324 23.522163125029117 0.054524928594545774
1.4177775820907186 23.4057461057404 0.05775121044442359
1.392182340905001 23.298150767432052 0.06072047670577517
0.40389756457497494 20.810256014290946 0.0281346283183508
1.3681050176866385 23.208399105684485 0.06316903387014947
1.345515053328103 23.10751266619759 0.06596091800331
1.3232206618469546 23.01946893139258 0.06837037681678056
1.2975454962434916 22.91133268700993 0.0713413117083139
1.2737042078093954 22.80840865030253 0.07417253282586853
1.2504859083196163 22.711257255006192 0.07683351960935927
1.2240381096230077 22.61154910756263 0.07953241968299027
1.2036273002858193 22.52511402535517 0.08189490657498827
0.48198679241521525 20.781552913190488 0.038009926140375676
1.1801224511747013 22.4273613103155 0.08455685648953645
1.1555287889037396 22.310033711378935 0.08778408889159481
1.1346326886144078 22.22827511825516 0.08998683765815428
1.1127714704193887 22.128474414465874 -0.005546294459698557
1.087743150598123 22.03202604278781 0.00024751449311315177
1.0643146027415293 21.94588903174028 0.005378761928690551
1.04066445727964 21.84719968485312 0.011282722210755356
1.01463232428885 21.75234697880715 0.01686362451184226
0.9882632951559088 21.67392238612443 0.02135304712731051
0.5442105985060466 20.74031447917624 0.03218202211130266
1.0016684214105984 21.691822846733473 0.02047781014281492
0.980201146864374 21.614516347545504 0.02497128558600726
0.963592168810955 21.546302421213262 0.028958360524197736
0.9391503415594044 21.440831169341607 0.03510646014730622
0.9256436362918705 21.362622042921718 0.03973535782536546
0.721430494429995 20.725173273901607 0.05055050370606524
0.6879894727453945 20.686194942059135 0.05484466199689972
0.6507441791903391 20.635868244863303 0.05044679205261709
0.578972446108081 20.37450529756934 0.026337191687080742
0.5689849185451764 20.313702568879382 0.02618889537725446
0.5453714960465984 20.22964922634493 0.04476098853981041
0.8101965844737442 20.81244543111743 0.049190564230456854
0.7772108483975051 20.75498500977243 0.048417372610306424
0.7561500031282685 20.705565790634488 0.05723313852313333
0.58276014853759 20.280586820870546 0.030126616983213353
0.5655325682134404 20.188723139584194 0.03404288101291134
0.5434466023723945 20.112673528442514 0.041628406936439814
0.5130856371503552 19.991863236033982 0.05130581771622442
0.48614530200332573 19.90483728454471 0.04606680759177903
0.47107367343132633 19.81203240449662 0.03477649687552611
0.942265681743549 20.78137264872633 0.04931811760822946
0.5414090191677532 19.733739577944835 0.04833226161307855
0.5150869348572827 19.677798750279774 0.045531797732136885
0.49143894777900843 19.584710559782533 0.059665012851144575
0.4700569492257307 19.505615826302126 0.05409340998507262
0.42853620394758507 19.375292354475185 0.03171162802331661
0.40253131214057025 19.28851367470812 0.014852812500326575
0.3733371301432582 19.219900883600914 0.02331071138113435
1.04383835317129 20.8495850683958 0.050989432915111786
1.0113628901222178 20.768640204513105 0.05062512849690627
0.44339952118192416 19.36926069431902 0.05165915669560687
0.4149176883520733 19.290980971141607 0.044813682599125826
0.39054222687964746 19.188465009787443 0.04311804974867723
0.3721117978995683 19.09405933058398 0.039551785155309056
0.3483243368247557 18.99385449274231 0.050604871551282536
0.322497062959054 18.89983822887745 0.04728632340581312
0.2963680230947363 18.79990643458058 0.04087739406628172
0.27373443323380187 18.70496119361677 0.03527145909437837
0.2460227789157643 18.612137649249778 0.032137684966571906
0.21746548962309764 18.53322125393045 -0.004647201651878298
0.24713292073810433 18.584929225232965 0.01898699122964702
0.22320484364436788 18.505197384406415 0.02402334692830945
0.1955850124613785 18.407949624253046 0.04319267796396229
0.179520760009644 18.330271519422116 0.03876548454661384
-0.11546916846591038 17.13422719975901 0.055292189977452236
-0.05035829243348555 17.118859542620076 0.05721885102562327
0.6575896816293171 18.641547217124966 0.04987841059940202
0.6348879526843606 18.60934361511524 0.0227318337161077
0.039476628370365585 17.0838733269258 0.05934387492514208
0.05366314988366372 17.005605407851817 0.057411731342502964
3.525690815272699 25.902121297987883 -0.003869749975123335
0.7773594102744259 18.691472348102213 0.027013114612427884
0.7020699623953932 18.631039586703622 0.07038693890435728
0.059628309799837576 16.941229658842772 0.05558425305981397
0.00684203547768214 16.769136435695906 0.04836494082332672
0.005107575858007696 16.668355058636575 0.045068803147114374
3.6150970192174396 25.873104841423817 -0.00275800776703157
3.7103548797357755 25.859881871717604 -0.002108555937774044
3.7308176918187215 25.775388849773496 0.000378148067342432
0.8966910970694291 18.583575041926853 0.023699573958344766
3.6811893233638244 25.56405654367871 0.006319306741737744
3.6291086173006457 25.34919781259851 0.012360832808296907
3.574784129937493 25.133006569799775 0.01842715618736027
3.5265931086886972 24.937829871932845 0.02391054193781478
3.434182073233035 24.62682551824828 0.03260138258334052
3.4497388150564827 24.557797142509187 0.03461173135320499
3.517826874077011 24.52294852961224 0.03574206705624657
1.1594782658058072 18.206476313453106 0.04450731825594407
1.143149859566564 18.175384584342048 0.057945781342831626
3.591955825301164 24.500280578714786 0.03652074598825563
3.0635229794254712 23.074994820107754 0.07610133395265364
3.0246775305506812 22.897095476301136 0.08107760695992383
3.0165727519494587 22.81350540546601 0.08342364309572901
2.9950873770183626 22.7333802772104 0.0856590580104439
1.2188833096283775 18.18429939420999 0.06609135276685948
1.2038833332075438 18.17138887034682 0.0346811353912775
-2.912315136892265 7.321394219228727 0.09019003865393582
2.9731977183697205 22.65345853792267 0.08788183332285078
2.9591806425839353 22.591800795490457 0.08960393490289756
2.8401190620097476 22.109602409416283 -0.004348244111096668
2.8219855277737675 22.026266823835655 0.0008616801892911419
2.79643208585998 21.929737066042 0.00695661251116832
2.2077719036000065 20.495265600184926 0.03240065109608721
2.191838776294731 20.47742773999919 0.020089430401282516
1.3552848843740473 18.16326290810919 0.04593473174852325
1.2910087951984448 18.11028019204221 0.05042367585780253
1.2780082916691042 18.045915488270403 0.03161602638161028
-3.0339861528669765 6.852685975906722 0.0873182898415106
-3.313973529685791 5.928942723270103 0.08114230109067741
2.782651574478172 21.86959786082643 0.010717190204888535
2.7727960459868184 21.818609487628343 0.013871705430896126
2.7481874019358177 21.72116369535385 0.019984044840403073
2.7256556845500945 21.62084725325325 0.02621868897322706
2.7016950698104023 21.52404025358181 0.03225687940507831
2.2960079477416837 20.46196335609815 0.028751178249836362
1.4131410046241035 18.156841666953994 0.04432588138256729
-3.301749231017352 5.665706621681345 0.08056008317871763
2.39392494823604 20.43094008479111 0.025617880522343577
2.418130954316273 20.367360936790796 0.02722553730375908
1.4596509998666716 18.101785034632744 0.052374416781339514
1.4610248999228181 18.082254118950516 -0.006767694293212521
-3.477140907706551 5.008794015921007 0.07646166958395303
2.4132573261451187 20.32846383299957 0.03568415227567603
2.393797544319685 20.2493990688329 0.04480223153229117
2.363557731967212 20.1450829439596 0.041225715506205865
2.342416913092239 20.050401002795578 0.043216510978708794
2.3145555235686253 19.963775577754063 0.045565649307129814
-3.6278084349329784 4.409188432611018 0.07284199480230785
-3.529258191842704 4.352510044919352 0.07392252000571253
-3.6542243604808924 4.160346646106767 0.07179319482072946
1.8475957333697597 18.069944307052985 0.05882673828037266
1.8227413960400554 17.992097142346775 0.04670339241592081
1.8033962860236352 17.91948470803488 0.050638014920685884
-3.4573726533793128 4.307535549118743 0.07469092836844204
1.9144250508214675 18.053639118547956 0.055856996879696544
1.839239480293652 17.99687015867923 0.07747583878450001
1.7948209623321505 17.878056173063918 0.033744865947847036
1.7749136249701019 17.805821569852018 0.03842860001769282
1.751021123336961 17.704897455492745 0.030066306421682894
1.7301434047196278 17.617623773140078 0.03360205523109372
1.703884285932945 17.503822473768352 0.04298096556606008
1.679966426539934 17.413691353752377 0.036444482682400865
1.6567445043443032 17.311608955216617 0.02897411138156914
1.6306524727086547 17.21420279425525 0.02177935323930341
1.606424757957149 17.12346297073786 0.015038311339103601
1.5881654703366503 17.06553954664419 0.010706240885639592
1.4486608765814384 16.745575728459855 0.07833582243962428
2.347169301859169 18.832903581217586 0.017124701836937612
2.3331360858586545 18.804937351142595 0.022430469466156205
2.0091229467255793 18.025628657349348 0.05082803344262192
1.6028312975308114 17.090038596494075 0.012567101776822097
1.5793717344181486 17.01818387248262 0.05677658210374806
1.558635705246665 16.93762591394246 0.04402834068408771
1.5398974587671737 16.845644666596886 0.05347758344165629
1.4941685598294265 16.725766822422326 0.07792860349875266
2.3925666736852427 18.805097256665682 0.026093532967597616
2.1600597775515746 18.068522372575735 0.05128245818660495
2.1116290518763416 17.99640215038502 0.0449424329913093
2.2121779021129253 18.062065623320944 0.04418664432122749
2.3884593946380495 17.789184493404 0.04907589675440164
2.5091437926430635 17.645550613679056 0.03573732949209612
2.602267404513647 17.620856132202555 0.030623489883430253
2.701993945624034 17.60082800055082 0.0253246361861036
2.8136546273970557 17.579658745521478 0.019223984389659183
2.769899134729944 17.582184962007855 0.021320397777018447
2.9098081758320804 17.5557351773321 0.013464741157819121
3.0068232743011123 17.538338227271925 0.0400310099387794
3.0961797382317626 17.514738501343086 0.04496579726824341
3.1934043700614074 17.489679248653015 0.03394752245144436
3.2655401780783713 17.448757496634997 0.08151322015020454
-0.8405706901956498 21.108533089831766 0.09458474971131492
0.05746893545285525 20.907685225656127 0.11614684442318832
0.1079587012733183 20.897828144112786 0.14791421696410714
0.20781189209986062 20.874317689736852 0.15211085899073248
0.3070266087917133 20.848642090321675 0.15664939840167177
0.39766277056778354 20.81023460243658 0.15585426198033303
0.47320148660215255 20.780818551598525 0.16026859194987428
1.1136379892041686 22.137089570178176 0.14161018482829155
1.0856048116112333 22.028701799851362 0.1427066665080092
1.0611756809144581 21.9216374580595 0.14384369505632097
1.0366196862414645 21.831337296554572 0.14471773398578297
1.0084871475794017 21.735452983832793 0.12447718712889697
0.981342958479904 21.64854570754376 0.10537484780916276
0.5532822114895206 20.723525398118667 0.1521621173615174
1.013094778231012 21.72066152816209 0.18822841272204985
0.9860253580521717 21.63702060927658 0.1570747268026283
0.9607821948015325 21.54195652818393 0.15076832557659928
0.9362686121783433 21.442502568947997 0.1549151268378939
0.9242457453639596 21.378185302547273 0.13090232678851277
0.7308349309063145 20.75458750532391 0.1307707279697512
0.6912145752327314 20.686364738707937 0.15807180026278067
0.6509138831495895 20.63455812257382 0.16475276973359862
0.5599543134718815 20.380252494893657 0.18691520970217923
0.5685169343273736 20.307372762150443 0.16266613037828395
0.5323026798916589 20.21305781632997 0.13423184775690938
0.5097480172908502 20.151571649396217 0.1880367214868368
0.8106870680329253 20.81327076552575 0.15282277016034168
0.781092254710746 20.76077972355171 0.15918665056978779
0.7601005329652033 20.696937285608964 0.1661820832149447
0.5856035134714874 20.272299224096884 0.1535189608938741
0.5610193122089142 20.19199301940783 0.14668039726654322
0.5337555413239847 20.095646400944574 0.15269498635892886
0.511573991194235 20.00025920276552 0.14821653081712782
0.48092150280099055 19.906320461001734 0.14942984877317717
0.47100872796113813 19.813841483319425 0.15112738881267057
0.943238586097562 20.779760043799136 0.15562896374606364
0.5431124432806962 19.73291799947767 0.15444831635331727
0.5133106238269844 19.678076507634707 0.15413885519040724
0.4847702590776022 19.58924400026308 0.14054613387359613
0.45720182968195155 19.51001954480081 0.15391283210037585
0.4328059133669153 19.37619846537738 0.13323240134208486
0.4050664837181779 19.300452689501082 0.13669805947296101
0.367745220595902 19.20740945472458 0.1428788230004353
1.0474999441388153 20.848191780382784 0.15456417795922234
1.0154433347670573 20.768483493529338 0.15949468596048552
0.4414705087846005 19.36538302174498 0.1378841864129103
0.41260206010951506 19.28918210632958 0.1391141877358187
0.3833742666752571 19.18582724713236 0.13872771742834064
0.36410391734755665 19.091092869208254 0.13824205455061042
0.3480841487250901 18.99270082648106 0.13778762889533355
0.3188775482254247 18.894547842451995 0.13487344459518047
0.2912497595878256 18.799707983546874 0.13333230227942236
0.2688587623246117 18.70647895253402 0.1343999445303236
0.2430468325600803 18.608565653829785 0.13204722994986662
0.2188104689065269 18.52919243107761 0.12667923523367203
0.2395134110694499 18.570880146424333 0.1579540303372184
0.21608318065082055 18.493832862053505 0.13466125331548676
0.1932638783994447 18.40867207187963 0.12889509685086867
0.17377105822335537 18.34546217355845 0.11502080406699841
0.5790719002879356 18.649933229985727 0.15062909524735024
-0.0462343452647751 17.120058064134653 0.15313440464632988
0.6589084389280289 18.663982486641537 0.1469781910492337
0.04013384437518397 17.080556080417296 0.15447432086726087
0.06093909280058951 17.00275931197338 0.1546927064225748
-0.006873898218375141 16.812539247407052 0.15334016372452972
-1.3549433232663637 13.383167371032902 0.12664492304929548
-1.3442275148894238 13.351525112389474 0.12673195038943952
0.7830114494263274 18.676004558986538 0.13284163763201434
0.7155524897726112 18.640433984700497 0.14875250646239835
0.06627531408183618 16.97496274258447 0.15472752203469148
0.008169154291536307 16.767703193683467 0.15349156015857393
0.012260874512350695 16.67484872158554 0.15338784519591028
-0.018398755485094398 16.573048874150164 0.15274101491298614
-0.05554036682428731 16.456724842453006 0.15196544178089708
-0.08166155663420294 16.357369926532243 0.15138370015510777
-1.2436040334297391 13.346637766531918 0.12814410049089353
-1.295386243600183 13.343350585070358 0.12740357474783515
-1.171357885358997 13.32156094340009 0.12908871538636463
-1.1964730887206307 13.312187851133576 0.12871964729830618
0.8983904863994988 18.563046093581946 0.13124042201033348
-1.0833864405089708 13.285297347495497 0.13021309817581633
-1.014863590755134 13.270064937542937 0.13110645131394968
-1.043404386513936 13.107761828431371 0.13030823087087728
-1.0692915351540815 12.980111840583085 0.12962754573017418
-2.332342644426422 9.73737402349514 0.10430536311140096
1.159698190947457 18.20921376238416 0.16433077303486518
1.1395194226316712 18.188606826666824 0.14942436631653885
-2.6295036365889803 8.445320965351975 0.09694037392184014
-2.73230936885935 8.056655146133213 0.09454474719407382
1.2071496022667003 18.199826045855822 0.15490441717594738
1.231432593145962 18.16582779579317 0.14467196801682458
-2.809376670280286 7.728906122670573 0.09264335737118233
2.9386529961834174 22.503454522863883 0.09206394151673669
2.913883239327128 22.40816505336544 0.09471347925505334
2.8904554724945126 22.317622300415973 0.09723189828832104
2.866279147221875 22.21296423031026 0.10014108219466458
2.838556502082059 22.10762639776392 0.1030640916873834
2.817278726266486 22.017892068433913 0.10555247482766078
2.801087687684798 21.9399890329009 0.10771135180767363
2.2119304986111294 20.492114768821516 0.12254051389508744
2.184714738923667 20.482212489522396 0.12474850982184954
1.3553822061512075 18.153332588459175 0.15079789442354274
1.2932179255804346 18.104267921655893 0.1525607665115875
2.7804893768423407 21.8663930492474 0.10974911809960242
2.7695629066159393 21.803119136420886 0.11149696065569228
2.7443518114740852 21.70502562795421 0.1142058736471244
2.7235941540463378 21.617906140566742 0.1166077064900703
2.6962270412253195 21.515200898929283 0.11943368163833643
2.2940636212221643 20.458205901330448 0.12456111545646312
1.407259416572138 18.147367973347777 0.1501570285919614
2.3910235240559627 20.42806636627495 0.12315444229499972
2.4151603053754824 20.365097513230676 0.14437727308579737
1.4577209593689258 18.092416040580108 0.15279537178771274
1.4605281594905868 18.07528202918969 0.15259557190971437
2.4355464340095736 20.394967294510725 0.1004505555012854
2.4194164306703025 20.327281081966433 0.1250684714295179
2.3938525855023394 20.239721613656783 0.13142089472071675
2.3675696629891205 20.145977233445276 0.13525395196107776
2.343103974731274 20.048766916981148 0.13849429759597517
2.3247226774076504 19.982981020282807 0.14029173842569168
1.8492200311216036 18.068246513508868 0.1532254754025633
1.819663784298776 17.985477108697207 0.15347676937975713
1.8007706482180845 17.915664684282557 0.15288167843421616
1.913610255547201 18.051108286101005 0.1555986963774751
1.840885887891965 17.98522157760835 0.17663770683176233
1.7926047229443094 17.86684064697453 0.13599878116853498
1.7743048987623529 17.808479216760134 0.1481445362526208
1.751038055380776 17.713591914383837 0.14899235922080756
1.7289440303356942 17.6142189049568 0.13689952902828983
1.7038197059051479 17.51007795367711 0.14467483084494429
1.6802098980843823 17.41432936168356 0.1436226954111745
1.6561055434365985 17.320762007762042 0.13376956568369572
1.632200415852724 17.222051645238423 0.13544827501220955
1.606861422780454 17.128228773897813 0.14336400835758425
1.451789982146751 16.743209912087792 0.17024427387689364
2.3556822409274214 18.8332560274004 0.15977745199206678
2.343814482692842 18.809375273439034 0.15741425128067002
2.0068755121725026 18.0215049858926 0.15174918693207098
1.5832597001174529 17.02656883153966 0.1520753506754394
1.5565703725866724 16.942415523344938 0.17173892153850862
1.5367407822195813 16.834093922876416 0.1712012885848396
1.4973278815318263 16.726304713520342 0.1705194113521366
2.1611613515742745 18.064149495692234 0.14805345860136682
2.1126332307347746 17.99478583304175 0.14979129423099344
2.207233304177752 18.0624132834874 0.15393238710992674
2.3055941772431203 17.934529861104654 0.17637639336665323
2.4053808517958086 17.75804880067274 0.11132627085844746
2.4475639192598337 17.696195655225743 0.1419182343156886
2.515183160496327 17.640363111236482 0.1404121507078763
2.6008967942815384 17.61901919418354 0.1410823395857264
2.6959839854996144 17.598079044679217 0.13779049312366107
2.8249556996344536 17.575521499487834 0.14535074765443723
2.7808789520280683 17.574622124936635 0.12571196992621653
2.9027448287017936 17.5580469652633 0.13424973925923345
2.99262069757161 17.546657310567902 0.1515250736244554
3.0954619344699923 17.521010373498992 0.17343526577539403
3.1937692406515517 17.48299088531984 0.17299276057499097
3.2842630392021626 17.472610742691597 0.17253857560093896
3.3862224405777934 17.433671033312958 0.17204886231189306
3.6738804726476904 32.41165774744888 0.2683493928543664
3.4719521298639933 31.87305158216909 0.2634110453137694
-0.6677294848865676 21.071230143619 0.194623511768947
3.763198469950126 32.390391620086 0.2692665916912967
3.34658652095265 31.350090619821927 0.2594232459985195
3.8516197551250633 32.370681008770966 0.27019143325855055
3.2288626013919983 30.854193440000916 0.2556531405975618
3.0287627703248408 30.13857200028226 0.24988915085256594
2.936354520595562 29.88390450193254 0.247608204463346
2.1338499667409807 26.222665510969108 0.2207167216571409
2.0668350438326817 26.131714797880967 0.21957686195498233
2.031680440639372 25.978101373003106 0.2184434178174509
1.9960301612880615 25.824387383884833 0.21730757940950404
1.9630797047464887 25.694512843267816 0.21631958545243996
1.9313603559180887 25.552372538284196 0.21528437381305573
1.6730069260373017 24.862661930462366 0.20924666509708417
1.6428183578947664 24.810487423177182 0.20869138075344962
2.24015378500586 26.20226695829287 0.22170997674985293
1.9016358489348342 25.426125551676453 0.2143492801239019
1.8729905434943517 25.301679948702485 0.21343663675239297
1.8459521499662053 25.19114848598707 0.21261001808325686
1.820444419923688 25.09241676911357 0.21184828972602338
1.7403867945129783 24.86358552473539 0.20989801324945284
1.5881830387641296 24.3966113001325 0.20607045241596647
1.56988179794418 24.32086059735525 0.20550897399220844
2.4169751617158584 26.272956323814146 0.2239444355057513
2.3437151739077806 26.17039187425424 0.22264315615642735
1.7889762942044214 24.871826922113726 0.21042038904821972
1.5513146703272547 24.187109848509245 0.20466115720586944
1.524889926563276 24.101295906150966 0.20398070657203426
1.4634121174066181 23.573211085706685 0.20073607298993915
1.4358518893978407 23.491868389958842 0.20008138505417747
1.4162352916697407 23.390492411261555 0.19939401509335825
1.3971009603752178 23.308032908904288 0.19881346453914964
3.293122410436519 28.001645945651873 0.2424478669728463
1.372660679816299 23.215275801474217 0.19813659358670238
1.3504055922202034 23.11239957097482 0.1974299287154471
1.3223649312187526 23.005725342585237 0.19666197647486816
1.296971316366856 22.891565344573742 0.19588139523647286
1.2776637031414508 22.81726444369389 0.19535545612277988
1.254257532772546 22.71975994042702 0.19468429732959674
1.2280734802120992 22.61541494585867 0.19396475413903677
1.2120997564744274 22.538412791595427 0.1934602666355212
3.356108765427427 27.929003581609134 0.24286152820132104
1.2001550661702163 22.489107881452416 0.19312909333760195
1.1800669542238147 22.415415190133178 0.19262007883505974
1.158395276304798 22.319812972003035 0.19199589394090213
1.1347879606294689 22.218710554554182 0.2162762064478244
1.1100387563655056 22.106880946020816 0.2879698665353127
1.088367758552842 22.02256800024113 0.2846222320606716
1.065955570827553 21.93245019187109 0.2810716947037869
1.041532150540516 21.839213041747954 0.2774277179904782
1.0214511250366696 21.758584597413055 0.2743039558749435
4.987060358625016 32.09918851117933 0.28287029425587873
3.4158646964374224 27.85026099375525 0.24321557239917818
1.0101006597364668 21.709424326515908 0.27240994364834903
0.9913555263377892 21.639347171344617 0.26973989341319266
0.9615597191249363 21.536911269384625 0.265887534986818
0.9385944483654275 21.441974214509045 0.26235583944238716
0.923960924845065 21.3681843161491 0.25962762722089094
0.7498310894949369 20.770758266952132 0.23995332802370636
0.6944326314129398 20.678652633341642 0.24678926310858149
0.6605230695719666 20.58762693139607 0.26165847812637955
0.637554279157815 20.488155006475854 0.2593043284001454
0.6129236098116226 20.403832473949162 0.26291541229564885
0.5856481160816503 20.332629660466452 0.2786505685638493
5.168803660232892 32.07307959278426 0.2851326266465389
3.470303671087512 27.81935084046212 0.24374223242112494
3.5089131479102074 27.7856175263719 0.24406125510950297
0.8081887226466479 20.81115374470311 0.23998693836875531
0.7778686367645895 20.754472623113603 0.2477019325714524
0.762973434957695 20.69706180914067 0.2490842785554158
0.6333215569012176 20.448743836074694 0.2818301312077015
0.6134154973359512 20.37927303688616 0.24917083152498878
0.5908547886621005 20.28833815214522 0.251356649099827
0.565058684837008 20.194767267498065 0.2531640953090217
0.5384481610562043 20.096505415160873 0.2502005509072031
0.5137022111822019 19.99963072140286 0.24918465122241043
0.486488046831141 19.901595190127253 0.24872665862298624
0.4669819437508611 19.81347553308843 0.24844675657475263
5.209842418280557 32.048643114248726 0.2855720375016859
3.6110532274328646 27.82043824851734 0.24550533678340714
3.5529488434166696 27.77504702869542 0.24456026220925878
0.9501621682217232 20.776974947464133 0.24974422316973333
0.5431935722148556 19.73196427422656 0.24342374849431161
0.5118693292735277 19.67752005522473 0.2440045361457946
0.4883275783876362 19.58096563722545 0.2281051230980581
0.46507665987485236 19.490971949525907 0.21994976493171411
0.43216729471322624 19.382485097523915 0.25819187754689865
0.4059480769106001 19.30270898851264 0.2651696667377789
0.37669480350689666 19.224686914003517 0.2769558974670333
1.0435471833700247 20.852031751518524 0.2393513192507395
1.0133749641909784 20.767439588338153 0.2596776981292923
0.46555866809672497 19.440848174466105 0.1934917523472689
0.4404897494222635 19.36202132788141 0.2226620173664617
0.41576761295221676 19.2875698143105 0.22811251505982924
0.38922799454502055 19.1905099576267 0.23671298274874686
0.36849325282102297 19.091553219483295 0.24106674553412852
0.346070173247762 18.99442077186432 0.2425785515997194
0.32317678917430603 18.89901942792798 0.23167472178062914
0.29693894772551044 18.799251684950196 0.22725467800877167
0.27349970434791193 18.70235600829866 0.23433952462435206
0.2505614230446225 18.615685047612168 0.22909336195459204
0.2234329393549912 18.540726771171272 0.264743857106919
3.8992090453930563 27.953303979849274 0.24981787041836762
0.2717293304772821 18.66024943738699 0.20824270422723
0.2477641441746976 18.58751377580577 0.23962049296350843
0.22215952587289833 18.502950499680242 0.23920661072864363
0.1997780351691918 18.410281387798207 0.24141722420330222
0.18158150797791195 18.358246037146753 0.2155218737476469
3.9516332190214083 27.969710471956788 0.25058125823408717
0.5867367195592763 18.665406307491974 0.28661017489787166
0.492827897195784 18.595877807113876 0.25222951008747224
-0.02934816887141789 17.129619501698553 0.24847513025923765
3.51689231293354 26.09038029253557 0.23637677195466156
0.6606200472682093 18.68487962976701 0.24146275737572817
0.047411982457896906 17.08463800923301 0.24948722024410305
3.5168945464074444 25.88656145009545 0.23546936327131573
0.7633566277682232 18.680136979159737 0.2468369538950399
0.7458835671739174 18.668064104507284 0.24178557422169258
0.07303781685909949 17.015054011447198 0.25137597816831864
0.06650804603623395 16.9489751856972 0.2532594781898778
0.012105627597057689 16.774134242041214 0.2583659374730064
0.013118064704449095 16.66707012909827 0.2614262757915284
-0.014743347380753447 16.558522577625382 0.2645984364102168
-0.03595599070191158 16.483691372212235 0.26679331312131743
-0.06716810813984542 16.387087744526294 0.26962977026560264
3.609036589336588 25.86689657780285 0.23663403532368255
0.8171668846525143 18.654897545459193 0.27361684964560173
0.818438307486081 18.646866836351453 0.2741616254397145
-0.06099756073944684 16.36126337585114 0.2703650633446728
-0.11266827945882474 16.20799184658565 0.2748823864655997
3.700623452056316 25.843433531574092 0.23779513453650208
0.9059914012405769 18.559500263345903 0.25457434979475946
0.8748631916894071 18.486440058464126 0.28432326977970274
3.69981696198308 25.663515452514083 0.23701264157679344
3.641199454591347 25.427612321787105 0.23519375952080812
3.590963208199346 25.220550243335445 0.23360706819851923
3.5434836924015753 25.025098244356705 0.23211838995942333
3.471251979104541 24.766274526339238 0.23000481376669424
3.440895765358107 24.543484104366105 0.22864869140215216
1.091404656654871 18.359446542633627 0.2701554871220181
1.1072026378256878 18.327522745437616 0.2905464684728942
3.522124383783348 24.51658824051087 0.22971513692355233
1.1407938345680297 18.34013656437108 0.22867589051829007
1.147696257262221 18.240995304021485 0.24084168106010256
1.1193711957208894 18.20796541341881 0.24988370393717732
3.595953740289092 24.493210248749016 0.23070455597975303
3.046862383356384 23.05937000137691 0.21690515015916184
3.044579177812354 23.000673700553026 0.21664407858614892
3.0187197965588473 22.888887973739962 0.21582129581967494
3.00204518181197 22.78606249682948 0.21517470840394276
2.978903487114966 22.687036231243574 0.2144451440690042
1.2220142138595045 18.216030203486508 0.2371328471979978
1.2538440755312044 18.164938796021897 0.2169635882861518
2.958561549373611 22.61068849130147 0.21385100569928744
2.9326493829227616 22.509420550697577 0.21307352817185776
2.908209659602575 22.400755584823287 0.2122943723596867
2.884650160544063 22.3102956830961 0.21159581363475866
2.8597384314515404 22.204085092780936 0.210825716309491
