ply
format ascii 1.0
element vertex 852
property float x
property float y
property float z
end_header
3.2844390692079912 31.378615585355 -0.571941178447205
3.3578069653806075 31.52146471704998 -0.5291906921200608
6.4138126371468775 35.883264686655316 -0.5720148415658669
6.43616892564995 35.9616877254805 -0.5746852672922105
6.482482321004979 36.06726731500904 -0.5843763812418162
6.49946687263534 36.16663879976199 -0.5834830179472008
6.507015294653022 36.26684607853006 -0.5771396106049987
6.54212276657346 36.36371332458967 -0.5799713225309504
6.566264515703189 36.45809246966767 -0.5818089139623384
6.593044821643568 36.55757442981848 -0.5819537511591502
6.628790720179914 36.66457658601987 -0.589744488831521
6.6337932292095925 36.750976791153 -0.5752386289093954
6.631724257249396 36.82458455384207 -0.5645926675079049
6.5492611644047445 36.8528766156511 -0.5524420591571917
5.509718006806888 33.15509568148385 -0.5311863502712754
5.557053805541199 33.317317064518 -0.536595285373984
5.577402514388979 33.41666148718501 -0.5332942966590087
5.597238762757062 33.50469065842188 -0.5313423880565333
5.626126928805635 33.61661994585874 -0.5326721767276529
5.647466285672385 33.70357455011499 -0.5256258309841149
5.672157224160893 33.797157900709685 -0.5279894604354738
5.693155968633722 33.89777303578819 -0.5269361723466608
5.708943730410673 33.96335102374453 -0.5264132535706514
5.916670997362304 34.8245700812224 -0.5069877428747416
5.952425659521615 34.98047235637899 -0.5056050480095557
5.975443430431585 35.068834941115 -0.5062238826860311
5.998600358840556 35.16031599678392 -0.5071759565339574
6.021385834895866 35.25632220647053 -0.5074803280132432
6.1921972945138 35.94458485789583 -0.5878662994172761
6.212883699508105 36.01367862383005 -0.5872501478977805
6.494193194763593 36.91870677108379 -0.5707139164648141
6.4717450633618085 36.97941965804708 -0.5849399230753632
6.526182010427442 37.33508728845507 -0.5587528812047686
6.5338230133576545 37.35716730145391 -0.5248692094897525
6.563218634928691 37.49137808729 -0.6014267357152172
6.6247779493682355 37.749421566120354 -0.5240321400937117
6.658555460671218 37.87971291946578 -0.5302825482714345
6.680831773540532 37.94440349782404 -0.5350150481961498
6.715339315375873 38.04049005220821 -0.5450712831393758
6.735613477964247 38.16100865868549 -0.5379088895388471
6.7696218497042 38.24640694912664 -0.5359051667615754
6.803647569769475 38.35574759519253 -0.5388547082705104
6.81918624848079 38.402219456074285 -0.5355367825123846
5.489885821889455 33.14543680573756 -0.495513259674235
5.511242230561203 33.2191307582683 -0.5234526441246866
5.526225068711465 33.29195385987358 -0.5209547231876198
5.572071848997532 33.449088853339674 -0.5245589444297467
5.581498903035122 33.48705047205466 -0.52399769630449
5.610416873600704 33.599240913058935 -0.5222884554919143
5.636365138721687 33.689180638221636 -0.522114748630391
5.658138584710188 33.77691438045872 -0.5140155406665566
5.682516740442804 33.893524384525726 -0.518946739405848
5.701411472888839 33.96305673003001 -0.52292890202689
5.886594369445298 34.75132942929732 -0.5013255366026136
5.9228731228422475 34.87734317622339 -0.5068960065088122
5.9447673504928575 34.96589766021125 -0.5015834951577304
5.970813669048983 35.06673893318638 -0.5022638296428447
5.994282532285723 35.16449935191418 -0.5043533919726603
6.010903948571201 35.23020500917492 -0.504667525902412
6.1836132102772705 35.958967165234164 -0.584254064834791
6.196047222705954 36.00539540441494 -0.5847244525619706
6.396023112260022 36.95385037737336 -0.560806643147009
6.4126541533232295 36.99928194158094 -0.5518294953202973
6.436519267621917 37.08781306717981 -0.5716490428062766
6.473023583938402 37.22797372040717 -0.5707605853712585
6.495403061256971 37.295857048644855 -0.5793555568320728
6.502984785394714 37.40378070424603 -0.57491609644875
6.51782031539094 37.48609736145277 -0.5727998907923082
6.548747086105665 37.57852710261503 -0.5646121034119954
6.549361782810671 37.673517944881986 -0.589232508774533
6.597535896179986 37.80029309979184 -0.5808858332752209
6.604499940994556 37.898460262740976 -0.5994248960061234
6.60507483466816 37.99831808333387 -0.5974526252555075
6.623984525792644 38.08808327004009 -0.5992051468704597
6.6468963075189595 38.20683210023783 -0.6037817550386001
6.75869796167412 38.31115243072005 -0.5312836958277708
6.477793199396258 37.57580195424924 -0.5762060340329835
6.57757336800819 38.02197710584382 -0.5934688934809981
6.626576260375994 38.19858332616693 -0.5770015666645029
6.61534327957026 38.302788475872376 -0.5908596057265273
6.610951147345411 38.383487356203375 -0.5971466947481017
6.486850556854938 38.36228009971792 -0.547909072267916
6.5467786445177065 38.42139332246402 -0.5950371852951003
6.545395589121991 38.498005994117854 -0.6098639993268774
6.567321223759189 38.7229177464343 -0.5469899197108444
6.571584818188349 38.78810406413923 -0.5544884460325036
6.72491284723652 39.198155809502936 -0.5607954930821667
6.784301493476522 39.35697399611231 -0.5632816209999657
5.304458711022341 33.82317079864826 -0.512929885658893
5.314657440248771 33.854854049321936 -0.5277075414167316
5.8078194755468395 36.07076362307754 -0.591995015048155
5.809778863350488 36.081489315839555 -0.5891464198604527
6.538847676475202 38.7360398407336 -0.5599064972482458
6.53334339039408 39.02900053949241 -0.5987643290251767
6.580999410149718 39.16853788446568 -0.6096264655625125
6.614850672310267 39.31329978124241 -0.6142359193637923
6.648070404032896 39.411246726658646 -0.6235295005174168
6.713862364898009 39.62969509146785 -0.6456948587602681
6.7677944123995974 39.76594816789124 -0.6505054881463759
5.211531638201356 33.88469087526666 -0.5204196155460308
5.781425781985544 36.052273585130166 -0.5885533332721468
5.791703206280265 36.09684216219774 -0.5912208292584403
6.173097273943052 37.993494023502194 -0.5956679733895907
6.202653189836574 38.080368007200036 -0.6074981033449132
6.240945447334765 38.192618053989406 -0.6250875483499259
6.267480991714616 38.29380601898627 -0.6052076485738925
6.299027210950108 38.38691211442017 -0.6010946108550468
6.329098857080051 38.47713330184589 -0.6029422978298835
6.369737675053825 38.58060004146262 -0.6060662644187657
6.382653003491505 38.6371132910931 -0.6122261628454579
6.428535219783274 38.756412172586 -0.606576199594648
6.446129786581832 38.832402971176414 -0.6111284448929548
6.4836686462024815 38.921998426829234 -0.601445733391748
5.1769459256877415 34.03499282064699 -0.4993526677472292
5.603854120362228 35.90962225518794 -0.5880524827385732
5.584398707088564 35.94232643557438 -0.5883293521084281
5.6301790739144995 36.094288876155304 -0.5894265324533627
5.658916719656106 36.12357040287666 -0.5906877391125605
6.0508210144334695 37.718311556085915 -0.5884170883521361
6.1060758719212265 37.83440373409382 -0.6050501265066247
6.133625009389184 37.91352734632489 -0.603093015600182
6.151487864857537 37.977601316066625 -0.6066785122809093
5.060854100941462 34.039685399769404 -0.5066100434178815
5.05990257868272 34.116930121508126 -0.5528302786644017
5.467026151378554 35.86852414762443 -0.5862625657136226
5.503966713541838 35.985357609107204 -0.5888075551722708
5.513080456110111 36.07018615044248 -0.5892264915707046
5.5465082994302985 36.16603041102079 -0.5877156600141391
5.409597516361849 35.915294714239394 -0.5868092303901459
5.435651245209567 36.017472628011404 -0.5882416611899689
5.448442893937018 36.10544639427723 -0.5889193298568217
5.487673533951815 36.20604606091751 -0.5894103661195884
5.489609701102236 36.31091986643792 -0.587078134956093
5.5104185319903385 36.389844570597845 -0.5908882336890869
5.527040491506686 36.502408303719854 -0.5910474593947276
5.527767476402568 36.57075141718206 -0.5984994404904981
5.345990324092321 35.89059319091037 -0.5858113518527545
5.318946310002683 36.04871661070011 -0.5877012258850521
5.374651780239298 36.127558571946985 -0.5891789693288539
5.395578602894376 36.23655257233437 -0.5892741762988415
5.405772048086772 36.310416004474206 -0.5894730882620017
5.430215432562796 36.41522935407978 -0.5916682692414635
5.503657325171481 36.536651827443514 -0.594227679857563
5.236713685467837 35.980926241055485 -0.587790403030596
5.2403816944879935 36.068033325587315 -0.5887419088140777
5.220312057769758 36.1349433361477 -0.5897998595311323
5.308259267989881 36.239992485015584 -0.5891401486784795
5.297038857763215 36.35227671698927 -0.5914730565954599
5.290779003822245 36.405937084336266 -0.5918758777345378
4.660770508568278 34.29519304451517 -0.5199604403655129
4.678970760176057 34.32444559915402 -0.4947164703650955
5.151917216147067 35.99148558494714 -0.5872160238429104
5.135948298153404 36.10592994373619 -0.5890262824809069
5.178234748879426 36.17029094944341 -0.5886451067885337
5.169913664578194 36.25280694217648 -0.5903178072424425
5.198428478317314 36.368576804844636 -0.5922744723452675
5.0929469642646 36.13088550101432 -0.5893295059214431
5.045859952126926 36.18566687393993 -0.5874875353364204
5.08571223413948 36.31865028774273 -0.5877759455706668
5.0744411001106835 36.35616466967014 -0.5926933915063501
5.1324672138291145 36.48609022778375 -0.5926067257729222
4.453227903383998 34.30052642898448 -0.5276467749443223
4.888220216411422 36.04108311776163 -0.5876582338786719
4.925119258582641 36.08500027346112 -0.5878748459999681
4.974593108800519 36.356289272247395 -0.5865909033891101
5.098969683713211 36.56282066980478 -0.5957281500817619
5.42448098249941 38.29416058532564 -0.5496599904787501
5.5203643738268955 38.67458538547991 -0.5430961684672876
5.53244308261319 38.75282392182406 -0.58441658435531
4.415057310121961 34.31060476319489 -0.5320775162442876
4.837501148833044 36.11290885094701 -0.5884861825931599
4.884187703168269 36.33567502522563 -0.5889854131480419
4.948885158832341 36.43985167046997 -0.5855258518304812
4.980112449657582 36.547042645622916 -0.5932290501153749
5.019695997772615 37.02155357786187 -0.5781242341019379
5.306917825334583 38.24903981099405 -0.5552214555227278
5.36133600978647 38.27976872846612 -0.5555752506263865
5.405066305683495 38.42094692194048 -0.5640039254815548
5.41928447947624 38.48227133027378 -0.5677290448189156
5.454495289827733 38.57577911420374 -0.5758964428688106
5.484231050339148 38.66533525021839 -0.5677442799509611
5.548526470195966 38.88873937219773 -0.5631588751256046
5.674756884219821 39.67432642680558 -0.569061053637358
3.947044753388941 32.91504234957891 -0.5299328289690712
3.9378856430056013 32.94072988723812 -0.5307143175368847
4.735234977813897 36.10170153713888 -0.5861903425923569
4.9951002723098155 37.15586985826248 -0.5905620605851882
4.9988351683669965 37.25106616669573 -0.5892975581622372
5.021321134002367 37.327017466165216 -0.5901050358842255
5.041548751764105 37.4485763658337 -0.5974669780177084
5.191959674668399 38.13571436438056 -0.5687353583319714
5.249199895622907 38.24118910970457 -0.5679262994701341
5.270797697976972 38.309004279858534 -0.5721411530362276
5.327612833710764 38.41392359967039 -0.5709261234074942
5.690888187780102 39.89536257179867 -0.5756058982607968
3.6182362631953966 32.117828862964274 -0.469970637921961
3.6596273324805226 32.211472360243896 -0.4525155625165839
3.7110981508724885 32.29778080594501 -0.44922824619299534
3.7608060887590904 32.38294868807434 -0.4581332863524086
3.878083346426657 32.93758060269698 -0.5282629320225424
3.8486673873882697 32.96372076965811 -0.5231705581598205
4.669893648158885 36.16582242041395 -0.5877757143732899
4.686289336544631 36.25072382663195 -0.587377688337129
4.706499686863387 36.58972942956581 -0.5832391047210946
4.7289573731373356 36.67268948162422 -0.5793293503702271
4.762672451373623 36.8462570071908 -0.574968123932684
4.788742610424839 36.95536785240014 -0.5753684392325257
4.82467989590021 37.10902376610799 -0.5819599715432461
4.841234617466582 37.162717123505516 -0.5804544637434195
4.866574924144814 37.28466512132878 -0.5123105970146197
4.914969833366578 37.442575513916196 -0.5748240055757573
4.972346017758541 37.61160184616658 -0.5730510538942966
4.987841662486765 37.66189896419304 -0.5597493204559892
4.987703295256188 37.744153516912604 -0.5712118315902107
5.060088164550627 38.02174236124707 -0.5765019369548275
5.192166134822881 38.220133182082 -0.5776527889005351
5.2126124582501125 38.38657375343613 -0.5962262731438787
3.4359780863875344 31.68914892582503 -0.5003925985941006
3.4648312105520134 31.770420610015623 -0.49476123521621895
3.5421340152313965 31.934221134370773 -0.48882716973646634
3.5813433395132113 32.02884616618362 -0.47908359110961307
3.781767990790776 32.95129893825215 -0.530637670760067
3.7867429955185763 33.1516451782496 -0.5008930531345371
3.813360787866591 33.187917827532395 -0.5079701465733376
4.1770379663587205 34.671198659529246 -0.5291898048847762
4.192810256129891 34.770595288582086 -0.5327580101199801
4.217015931818276 34.869425846214675 -0.5342573806537908
4.237078708686636 34.966327098238324 -0.5302816897657108
4.266027731921071 35.0664521802802 -0.5323609766968639
4.285768116763775 35.1507409933188 -0.5350300516372989
4.315784982296272 35.251704255749154 -0.5278144753445814
4.339198925967719 35.35121938865472 -0.5308448172264641
4.358833118900757 35.45909430648308 -0.5333191630997653
4.3806547358735894 35.545816634564616 -0.5319211524721191
4.402475058154016 35.64338983468493 -0.5355303969034433
4.4266103956279395 35.740277166124535 -0.5342193540506954
4.4503167352178865 35.83501635972735 -0.5356753182974829
4.466291329417805 35.93455481429447 -0.540718865803755
4.48673727152276 36.036756080238014 -0.5452672141074676
4.517667660685812 36.13175126765296 -0.5407579855555167
4.55391844603365 36.2311027637613 -0.5339912051322012
4.579034792875304 36.329064726108406 -0.5320441750735699
4.608738344524487 36.41195991488105 -0.5324029674521984
4.634774368593563 36.52053786289423 -0.53816556870918
4.664513132813873 36.60485344853642 -0.5495488867851053
4.681505388093429 36.71220967727324 -0.5363379099206489
4.70104520795074 36.81740680632409 -0.5428455530575044
4.741740017993192 36.89105448704505 -0.5498455109332414
4.759036058548254 36.99133849453886 -0.5415229747985643
4.779923880984355 37.11607734372533 -0.5620469816889472
4.813458883697812 37.19356463904791 -0.5449372188070466
4.847029630642353 37.27398547664216 -0.5609692826564665
4.864160890104655 37.385897690659306 -0.5602056766801148
4.862979518298626 37.49983619094134 -0.5638967614391649
4.897962986774692 37.587803569816764 -0.5594009520399683
4.925949517316537 37.690721124148496 -0.5695303780690596
4.93847522283744 37.76072940362914 -0.5541461286560873
4.97100115580805 37.86604936769811 -0.5686988086850407
4.977117433267603 38.00469596253886 -0.5941783381751834
5.031382585620605 38.124416931084724 -0.6126142432501661
5.050556907066904 38.42934709411854 -0.5378163634930243
3.752307529318032 33.145127786172196 -0.46165973417823347
4.843306968532998 37.64008001968854 -0.5629815099262919
4.969895882582955 38.224565987821975 -0.5403629357747621
4.960924803056159 38.28717020146307 -0.55618107444707
4.993490015411667 38.370935826105466 -0.5540679327086497
5.021517964703683 38.43803178329261 -0.5480474241089814
4.877035550625791 38.337166286772266 -0.6061564134211188
4.864877101297778 38.412428302704 -0.6102991367472814
6.64937957425592 36.83748757981176 -0.4092092961677191
6.446899564439748 37.00112169492634 -0.4377359072252574
6.482955718384894 37.127465490104285 -0.42665016186031757
6.526160507897412 37.320691204117104 -0.5129356386569804
6.629962175776894 37.75052207403446 -0.5125906717442535
6.658275427143691 37.858341746554466 -0.5183215326288527
6.680027479786608 37.92145249223625 -0.5226433640470923
6.709026436814305 38.0579001407194 -0.5239516733039209
6.745863242343159 38.14988566923411 -0.5170613905463038
6.762713651984426 38.23546531415749 -0.5248731190021372
6.781562919709596 38.33064961326612 -0.5208594049982179
5.500703276524505 33.15619705246019 -0.43769432561105687
5.512277801204144 33.20936479827218 -0.39197711896216325
6.424554678798703 36.98311764093011 -0.4840388473240441
6.4577616983299 37.11522278741713 -0.46218698236444306
6.467637072157225 37.177414390404344 -0.4933897564997197
6.500942761541902 37.273226419063505 -0.5074806121245173
6.528833743573429 37.376575599958656 -0.5107482210289853
6.543195697938657 37.484874257763266 -0.5029947179372941
6.571244024432444 37.58998553966631 -0.5072684709294252
6.597065844212261 37.68725762234592 -0.5147309713679094
6.632254275050381 37.79850204192685 -0.5204131924974433
6.677637105472861 37.99588340064509 -0.5065789654983732
6.710700749413658 38.29176427499781 -0.5089652351828144
6.693809947375487 38.357661226690155 -0.5087661206198898
6.632095555678518 38.28620210342268 -0.49704389038627395
6.595977722811995 38.39022452942671 -0.5095219902704571
6.518186871418571 38.35188294908792 -0.5134909308928386
6.5305171611839885 38.413495402828616 -0.5149512035171415
6.516764392875367 38.49337838565255 -0.5127027504613549
6.548113353629773 38.62288571874893 -0.5261162670548846
6.602601620804986 38.80461737306455 -0.5056961850084533
6.669683953315271 39.01454927094494 -0.5358171539110631
5.253030245309333 33.90014204826836 -0.3594395794788057
5.164592596470422 33.994784122071586 -0.39432857378013636
5.038512450513482 34.0439590035052 -0.38870040755263113
4.7099418406379465 34.31238845738751 -0.36119761001654127
4.616199739626172 34.393232681500656 -0.37414969419926
5.517309542066108 38.69523147100642 -0.5032821494504263
5.529609117080647 38.719866285121995 -0.5232987994928615
5.385604078751666 38.42331252580244 -0.47350335901398666
5.39941591766314 38.47083209274153 -0.4823669193020481
5.454171543829875 38.576988822322896 -0.49715430157347285
5.501012151494792 38.67792482382665 -0.505224126763257
5.533017268445965 38.77965094453113 -0.5205044871691398
5.339443182829139 38.43733672257082 -0.46938772930250877
5.313182460095335 38.51449930382687 -0.4866658712772308
4.86882865810133 37.267126150981824 -0.5015364917295971
5.167351665965576 38.44842568654895 -0.45230446200942404
5.2279910267100975 38.5394162514253 -0.4882954746310757
5.276246416679009 38.579924822986676 -0.5035345826467926
4.846177566306334 37.21465296440388 -0.5017037910167425
4.857720457639878 37.27494891563435 -0.5026390550036303
4.832861871591546 37.54968076057947 -0.5103867878079293
4.903592823490838 37.69743486754024 -0.42937481287003626
4.918863137498569 37.77647868855229 -0.4336943965271195
4.928305429970123 37.8823461586736 -0.44997340131823904
4.957851277562376 38.08263084568675 -0.4430624523362158
5.051923193790321 38.43488787843155 -0.5259612353314991
4.83084911741032 37.600786552511906 -0.47153073537763895
4.843518483116423 37.683141728003406 -0.43498730303148414
4.9064890844318 37.932714129698866 -0.4684222464054767
4.958855050353734 38.11223118816302 -0.4579311078956443
4.945530753380986 38.16269413733633 -0.4620697835839895
4.9741053616309125 38.317379538933615 -0.4666887899722729
4.995566046043283 38.38001910196622 -0.46077074038330973
5.0341492615821215 38.43850500251106 -0.45481279712548206
6.6488967174649005 36.84183127049034 -0.3620374751416507
6.458696617627408 37.0242711953999 -0.3660224119251609
6.489666443032752 37.14285672868949 -0.4084864403403962
6.4936596886690126 37.153361721833704 -0.39325412723238623
5.538112159124911 33.33403440079855 -0.29420437124276877
5.53582658391011 33.37794529713064 -0.2659585635734782
6.436852616565408 36.999982394741714 -0.3167042538138258
6.465813156528694 37.112635821970414 -0.3420212075843474
5.273374393157828 33.93435938101775 -0.3017570888169945
5.279755944492434 33.95446311471303 -0.2756966079273066
5.162363250166228 34.015289415522 -0.3579202944232478
5.034289248496275 34.05235147229011 -0.336939308357412
4.71974412831622 34.316172642957 -0.32167408993341323
4.630628067835789 34.39282375333155 -0.26701526937599895
5.1470939076691575 38.344314230617954 -0.3726233258496699
5.1534342650975535 38.452440292293716 -0.3738809538011992
5.145112299294988 38.45175808848832 -0.34972825899193094
5.035599405963534 38.48075865551329 -0.4048662088213024
5.013251148863413 38.5847616050219 -0.3666727186982769
5.005357621838175 38.66841724883528 -0.3309150597279315
6.537280465600469 36.272630941201925 -0.26681004277705145
6.5506658387537895 36.33670295682525 -0.2279587580917921
6.6758563658954415 36.86251326322884 -0.25725692091553737
6.46065567887794 37.027943577399306 -0.27162199103330714
6.478217785794232 37.09132090870613 -0.26172374608697274
6.502291686105829 37.166502377276075 -0.28851747477928613
5.541323111848823 33.385563307302206 -0.23836637392269905
6.435625663046225 36.994713681017565 -0.3011519395848057
6.458226211924918 37.09027932222026 -0.24952274314085215
5.312340829215214 34.0284194573031 -0.17805485709730562
5.311445922021274 34.042181899348016 -0.17382808303984007
5.2948342431481406 34.01834120448216 -0.20586252124307075
5.305503920692402 34.05051637544045 -0.1694439615316584
5.146815219814191 34.01117482887729 -0.1770681994379516
5.012292571532314 34.040722601741564 -0.199113994310919
4.737327954027727 34.332878727797805 -0.18505550038546958
4.725646933740614 34.39265901341183 -0.1631099049765764
4.621373261021741 34.37646992040407 -0.20412026662457838
5.142997412527069 38.392557688705196 -0.2934769909029704
5.151393499974007 38.44318335738423 -0.29625189260100054
5.142484676233323 38.47872047287817 -0.28015455660144023
5.140569551695956 38.52388229424763 -0.2415716956035866
4.820449810446315 37.746046797835376 -0.21888331597577745
4.9878197629443655 38.731058873774046 -0.30889502502649896
4.990098180584491 38.77312219804719 -0.26657429445273373
6.5048164935797965 35.96773027253097 -0.13861892496838327
6.532820580325076 36.071375522104574 -0.12438545334701881
6.5530126197856085 36.112709672153315 -0.11676075310399511
6.628908550747453 36.47329756942225 -0.13517786353853056
6.653159343767833 36.55503129053788 -0.13580804202980407
6.656607360563117 36.603524815041325 -0.12848006542714635
6.700068439887665 36.747207761807005 -0.14317722787370718
6.731120697130157 36.816296664547934 -0.11712363451943128
6.4889286733211655 35.955911279475934 -0.13775995710384192
6.5162624553063155 36.08332149536527 -0.13488674453383165
6.524144042978939 36.120202024505396 -0.11382630842245958
6.53789953521748 36.24559065718218 -0.15106674851483964
6.566737063965469 36.35797016170142 -0.1365351097282689
6.6048239069832455 36.436469755358004 -0.13484925105525425
6.638975584517877 36.548174265653124 -0.136721389182873
6.6513919138842175 36.62962127435139 -0.1245311723001909
6.687153581780382 36.86499640410308 -0.15088690439815214
6.71296773967598 36.89152800748837 -0.17472832049605047
6.481015593438741 37.0436156362032 -0.1537194681344807
6.48492034391727 37.06613867248743 -0.16581269763044346
6.458594025231242 37.089326104958886 -0.16119950308926098
5.336216404899912 34.09213566688246 -0.10202193845016197
5.312145916083449 34.07124387544658 -0.15032564591282752
5.15132880675209 34.01306172604943 -0.12289448865540234
5.207616077388919 34.0779348276701 -0.06720850290130076
5.006338009954294 34.03603165313795 -0.12270476623060611
4.731103175433864 34.35330979621206 -0.1475586276186567
4.713086581869758 34.425559079399044 -0.11626044020084911
4.686004066773288 34.448799068639474 -0.08848881599669048
3.7438088821998745 33.084620029763684 -0.041525659871152414
3.744844251021312 33.08903690685886 -0.059296496176035364
5.147522389417008 38.488112358531694 -0.2143031549029506
5.137423621363161 38.56268408413208 -0.15756826011980937
3.7236154011517955 33.062750481269774 -0.07752716207473456
4.840285739456605 37.64892791544963 -0.14864968884326837
4.82623063211281 37.7196670000032 -0.15063165277667165
5.016128678279986 38.583438462188404 -0.16508228863880633
5.000200873223602 38.73912857310864 -0.23040810210519636
6.536766063289812 36.0921048745312 -0.05279199590267753
6.602003600525333 36.367270266294284 -0.02008952893386628
6.665119415415994 36.619120265954656 -0.04706671010946011
6.699851569305272 36.788686484474766 -0.008333434083528678
6.720644885746946 36.81180029205707 -0.0789176906418878
6.516743601738512 36.09470043993145 -0.041142397914609725
6.518688458193385 36.12006088491574 -0.04695238042965714
6.539323913618812 36.24666744847098 -0.0495958031833286
6.573986937484334 36.349111237058864 -0.061537535475941395
6.651765043410693 36.616744148907735 -0.06786071754103978
6.687642731295514 36.78033643593987 -0.0519487730701357
6.697967441973722 36.86892503015391 -0.053050385418098624
6.721915099202906 36.89549069895636 -0.07501753405621359
5.592087615062426 33.45752454841115 -0.018581489631169026
6.47831893141417 37.04311062442964 -0.05428887691221145
6.484983851895847 37.09360085563674 -0.06733296919441678
6.512137184125353 37.177221671843185 -0.056517017876390276
6.456582090902941 37.081305824092574 -0.04782906841101583
5.359953679635298 34.12073267564365 -0.016177796631632324
5.3573678322313905 34.13875451003358 -0.013798923988444435
5.161598318339174 34.02932933276115 -0.004803755120659562
5.2055529237607 34.09656933238905 -0.01190212223086292
4.754936315767596 34.320615141145154 -0.0348465967061368
4.7347060743459455 34.428778451924984 -0.04659253930298821
3.7475087506869844 33.0743798221318 0.03835412359719573
3.7695792537684896 33.10885341339327 0.018718026497840504
4.85228853012015 37.58607640661712 -0.08284983986939548
5.13429447593417 38.49077276404252 -0.05519142966428451
5.131174556648902 38.579673640251144 -0.07274918748829823
5.1342207114713565 38.6184222895554 -0.06426608404209558
4.8224877171441305 37.73743501070211 -0.08358609302860837
5.020320108627736 38.60649121280016 -0.08572163399086558
5.007085237360052 38.66498302598217 -0.042531000480815116
4.990351832392521 38.70104872931234 -0.07287650274805399
6.537292718130318 36.09140990759321 0.046614730179361324
6.700666898812181 36.784536435334374 0.007755807010991253
6.713448532411002 36.80692792024873 0.044018959724374904
6.508689594896669 36.09923433484927 0.05581154093724461
6.53858096977856 36.203283232509534 0.06798846631810432
6.532459937836285 36.23700936833988 0.04981679348441904
6.687775627652566 36.78032292492903 0.035419599386943015
6.70590896639872 36.85905377790034 0.03762457365311971
6.717012175500134 36.903087349935625 0.04160580695232721
6.47487348232398 37.035327569902805 0.06809275298621087
6.497103572166873 37.09245635046705 0.0396480863006404
6.507561379086427 37.166452810085374 0.046661196481547526
6.461829157272571 37.09264358282938 0.03554901548160756
6.675131677409395 39.0128716062496 0.01665393543899204
5.363193277713894 34.12335482068587 0.09047468729729563
5.358708323107707 34.13810937604325 0.055981705874327936
5.18018386382679 34.03648997591258 0.08831799520514236
5.198905296850196 34.08650670848187 0.06304632289996939
4.785790601904969 34.348980803696946 0.09227718648197211
3.7426034062199323 33.069800781905606 0.1138729046858371
3.7519988722858244 33.09443441028228 0.09042130104042825
5.131388085564532 38.578269503053335 0.021431033281692997
5.13765491074128 38.65541091666831 -0.021605254141536516
3.727935237333127 33.059442322433945 0.09900501040431273
4.8331860918386145 37.64878732741104 0.07098966024702752
5.018293014494315 38.623838400331074 -0.008614105410575557
5.011724699007214 38.64894424397211 0.010173374986215148
4.992861770561871 38.72928769083623 0.039882585418584866
6.537830142888549 36.094034213534016 0.16075223483678225
6.702362168148914 36.79227460965701 0.11033662444278278
6.7154825384472385 36.812699810026 0.12051177841444657
6.748619091381748 36.921072774579756 0.1408255768328877
6.515909538421125 36.10612096408634 0.1475878956193214
6.527234335586507 36.19336110947805 0.16498515445121026
6.536932854515076 36.23493649603545 0.15337974850137548
6.685167819752985 36.777588328293426 0.13181045621647386
6.707512692957336 36.870770303237336 0.1503566731837458
6.723594535669134 36.90488886210064 0.13470709359710825
6.4709569157106905 37.03614045209851 0.14575178930609012
6.479876503932028 37.12019767192741 0.13454733695531756
6.512444373648894 37.17569426666573 0.11624225128716426
6.4622224318594075 37.08767534603614 0.11155683471742514
5.366910658691216 34.10854314325796 0.16667196190305564
4.999326919193961 34.08452478201382 0.2062538765812232
4.796626385118555 34.357299727072224 0.14851499343697117
3.742447567179641 33.07611760660551 0.19714618891476637
3.764893108966594 33.10267648083611 0.25419172406790147
4.845621065427013 37.611218143386225 0.11675451307810072
5.127852645628047 38.569194860141515 0.10767718918518143
5.124972391137374 38.656973331811805 0.1438973002093968
3.717536235134742 33.0352446520355 0.2008881266892765
4.836180135324256 37.6527207881043 0.08756177590065778
4.824471770195897 37.69735539357518 0.17147291961139138
5.0173665981589455 38.62361284302684 0.0981481516065692
5.008618919442223 38.67259261412792 0.16008391008730688
4.99577382907783 38.73810230371076 0.1389985171282528
6.544547598289096 36.09697933087283 0.22430035829181885
6.543299993471871 36.129817366413505 0.2734252967422016
6.523801735286773 36.114302607255354 0.2551306061009131
6.529485646365229 36.17065931301702 0.24956902276083948
6.537110409746269 36.237105296654626 0.25430452242858625
6.677431021578088 36.772986960036874 0.24689809524521955
6.697375106096301 36.870543604940075 0.23200486784548718
6.724679652470986 36.89912350138985 0.2889235355344128
6.46728926911331 37.03027881725199 0.2352814755369927
6.481034797302726 37.11935212794576 0.24183480550990802
5.58003706174325 33.45863961566108 0.2720408176922
6.437108787206784 37.04997822373738 0.24977214550227655
6.455487409526079 37.077531519882974 0.23636313089828564
3.75157120167671 33.083318270547664 0.3101336289375016
3.772808272685189 33.10801795074647 0.31232727647807684
5.1245050126128495 38.69738014961172 0.19774818062553562
5.1200245913925615 38.73448215329527 0.24132883617791878
4.827026285541219 37.70657924555698 0.1923179209442676
5.016400086212137 38.59891317403425 0.24448535341257036
5.0138386459230935 38.687796413108195 0.20079353728493624
5.119610940523797 38.76893271418725 0.26064203368647554
4.999528195216511 38.70076324294813 0.20440879942079718
6.540640896004737 36.132198443893145 0.3076225614972461
6.711618265882663 36.799327197128314 0.32290558288298016
6.7352264711033705 36.92181898970155 0.3251687541072591
6.5317697446377965 36.19850544907444 0.3447000132826327
6.53976696275568 36.23864237397566 0.3507925325496757
6.68519040624355 36.77871683991182 0.3424040028276501
6.700170374809452 36.86255753394109 0.36403649057221915
6.722898957019513 36.907285069270365 0.3402082543602486
6.455633742542499 37.01314863380298 0.33274069389348143
6.476958685327775 37.11550844260459 0.3294155261057808
6.498597875729936 37.160752217243044 0.29146023878230626
6.436814814160677 37.01925936850953 0.34375971188267523
6.458837964243921 37.08580644118352 0.34506992919985124
3.7528798497876665 33.078074883944254 0.4401031376830108
3.7799717526465724 33.11054034466923 0.3982652637885737
5.112912888410461 38.68512741989604 0.3214875677179568
5.123654400432933 38.750709098092166 0.31873550827322183
3.728398449649463 33.04832627536819 0.4551384772964831
4.801618794586435 37.641977003639404 0.3664817892178661
4.795486361046716 37.700861521567084 0.3477273143485889
4.802980438497646 37.82346881928848 0.3440363005954897
4.824335785408605 37.931584089010194 0.3589420538229948
4.849366218775536 38.03350873454498 0.3628519592593847
4.863997196123968 38.08645800407883 0.3660508867362579
4.999609862481536 38.4804187700132 0.3468201576604815
5.01265494651267 38.600602066283415 0.30722791465993654
5.001962672835715 38.6803462787035 0.2743211568402837
5.1131781549962705 38.76033993103054 0.3475018969747221
4.789411379303271 37.83936058560247 0.32086353646275695
4.803326074047412 37.89315072386866 0.35720771930908823
4.865086167409909 38.136368994557394 0.3678416661710019
4.874813901564484 38.22335431397671 0.37659096019463983
4.987861619037521 38.67603739519974 0.33556421947123133
6.71763348017319 36.81389792826832 0.46025769357206203
6.542676260553607 36.23612360055138 0.4059911171805539
6.694058199813449 36.788453254827196 0.4097344017012128
6.6884675949918915 36.8742475351518 0.45061495888618297
6.73021846105844 36.918374776846015 0.43965368183497083
6.468249975892919 37.0289548607732 0.44137240829097074
6.485503521218559 37.11529023064763 0.43265534316462706
6.512479943990974 37.16897226782888 0.4173821008837289
6.432799151494382 37.0458590841118 0.41299293258953046
6.4568432480633975 37.08335148885227 0.46634628522571975
3.7594217929447193 33.08108663418342 0.4628706869807333
3.7943457970902936 33.119816273240474 0.4911862876054711
4.822194174339463 37.35097998254765 0.4849684522303382
5.122543511129167 38.6936881851569 0.4257979005543972
5.131570772425472 38.73552690771893 0.39029557284607724
3.7279033073560814 33.04621406194736 0.46363633716401675
4.807372785990248 37.64168483709431 0.389572227943756
5.115360978324212 38.75521234882883 0.38301528359066345
4.87196914408061 38.439411935030925 0.3934385230916368
4.8873892443163305 38.53617666994144 0.39941079975123805
4.913926720870453 38.61152317398481 0.39387853974716003
6.725938172072002 36.83223440165395 0.5388265639497186
6.733813606250785 36.91041670243522 0.5858078940340306
6.711348073227457 36.88164936211261 0.5306876658775662
6.706402645962513 36.92273121686742 0.5578405794889199
6.484976218514332 37.04756714886851 0.5516546791951766
6.48368150223433 37.09623719927666 0.5408741695901866
6.518966515634876 37.1794180871501 0.5707331902001669
6.744007214243683 38.229395919665 0.5531569733255071
6.771717929281712 38.300396089832894 0.5478058943031757
6.441911514032582 37.056094304028804 0.5429500211808512
6.45793160867779 37.084418541338295 0.5465257386430292
6.697216926453187 38.10584066672312 0.5629302818047464
6.7209007739654405 38.17885264340291 0.558663734110384
4.813559067009303 37.40549699476138 0.5252206589867825
5.12140549389383 38.70503904808704 0.5041986864992811
4.847229303198277 37.83324791249601 0.502430991996806
4.8709796673370525 37.93217565743644 0.5067411809359683
4.882927269269419 37.99923380039651 0.5034552292369837
4.883585293550027 38.09850020604334 0.5178150605163825
4.8912086751886275 38.207636424005926 0.5332422441735858
4.922540351326351 38.34522954192135 0.533276692573778
4.941088686414455 38.39825955523597 0.5351141685001155
4.969239633186751 38.50622133468216 0.5414691206641523
4.995376971632444 38.57749620632316 0.5540883370889229
5.115937642704462 38.77861473489037 0.5534649864109414
4.906777995885462 38.34109253250579 0.5370265742923654
4.95466024598617 38.52485715759791 0.5478525868730395
4.96486104990609 38.57245848207736 0.5512559513674323
6.739629180404266 36.921960413075496 0.6450317770011827
6.702349523226989 36.89831471714927 0.595375881362066
6.724860252189769 36.938535993452305 0.6459360404157989
6.493070950705477 37.054851813175226 0.6381138320092792
6.49125964941921 37.091723569651535 0.6510518915423128
6.510387299302639 37.16879674770103 0.6723391576890796
6.732916376073887 38.18464861665422 0.6028119334720373
6.765264360510999 38.3147342133701 0.6448557763892866
6.784714359928123 38.37857362413269 0.6186158669429817
6.826610092383324 38.49921560716493 0.6011707803341407
6.82611816350205 38.532822158583194 0.6210514790717264
6.457802520274686 37.08762556027513 0.6174976301151949
6.724960580310603 38.17692940867279 0.5858614085297179
6.741473198861835 38.24146418534989 0.614748695631724
6.759030215669815 38.353445106475355 0.6236975379552574
4.83033422618989 37.350714813855234 0.6796045981179084
4.822805007113283 37.391786458007275 0.6359014295767069
4.990465229989342 38.640901376210074 0.585086324890343
5.005899446448858 38.67303737852803 0.6150723888307996
5.114574918981559 38.796158601625166 0.5945173215788787
5.114043111640388 38.86265964684617 0.6268021462677701
4.955779713745645 38.64653794633353 0.5740582306507025
4.997125789255676 38.70928438586515 0.623412973590249
6.737771801057092 36.95807733998182 0.6988394920690496
6.489818377133788 37.05553017290133 0.6912802360887058
6.49446590671502 37.13003399466044 0.7042816463285853
6.522254340137401 37.18854000614312 0.7330297061127884
6.565348991055156 37.444809040759864 0.7584497919358948
6.574056453147122 37.47599889238661 0.7557118009118239
6.599808283822253 37.63356228105574 0.7483125649041629
6.620877142865746 37.67658433151988 0.7627717486314486
6.686529378969155 38.00046367093454 0.7538235403883718
6.768136442765167 38.32674885917593 0.6704634601079723
6.7692852519557665 38.33155472090797 0.6807063905631981
6.826295025099833 38.469068850574054 0.7036901167987969
6.856469896374923 38.55279241134707 0.7378852102925583
6.582656241747316 37.61925689370997 0.7329272402630549
6.6052581120454175 37.68709619703453 0.75076175492354
6.620795748620064 37.787996336596706 0.7311377787322002
6.655961087726755 37.89986907303965 0.7379025410797355
6.682267746167268 38.001724203807676 0.7480761542061832
6.699026222353108 38.09311624646352 0.7661103677219546
4.824366674116979 37.39468955127249 0.703133263408196
5.008467207302508 38.64981887422213 0.7470395342517019
5.0036227560695465 38.679837583036054 0.7179320953422523
5.105265666370901 38.81217103457375 0.7344786592911448
5.102288675222905 38.875964824052325 0.6928373879020271
4.9948206568042295 38.71391278751516 0.7251105301996562
4.993445136250382 38.7651084465923 0.7100074580084399
6.64170885855143 37.66569619129057 0.7828818079738589
6.721951144887735 38.08403762365995 0.7742521719007868
6.70669079651929 38.12001603087565 0.779837934481752
6.708352474887677 38.20921133818406 0.8089024121756492
6.713637062141959 38.27530167166039 0.8310011357091083
6.735822566367651 38.34247146460143 0.864029597605028
3.4031263779362737 31.627409717333144 0.9272121713433329
3.4055243556968122 31.659830430357857 0.9191277835532882
3.2934909162501707 31.409603207242693 0.973247806980994
3.3274867229420595 31.52624337869463 0.9569687800163419
3.3536605934926857 31.568782416286133 0.958505976565763
5.008176685265656 38.645617293098766 0.8030202243144348
5.006725949633601 38.66842944944015 0.8165363345261842
5.1117854282408635 38.8090777918871 0.7688192739934075
5.110670101420171 38.83999660529591 0.7858235359531301
4.988923114136554 38.72668890004583 0.8221926206347351
4.971536005301882 38.82014899018639 0.8432738716129168
6.7294735929549025 38.2825851777471 0.886525055623444
6.749697716330575 38.37972472767373 0.9094291093815017
5.35728580821521 38.84909226127811 0.9657825252443749
5.3076988880919815 38.84364991590004 0.9587850549793117
3.200300212957232 31.218188088950402 1.0024399524148344
3.270434992292578 31.33804001545397 0.9919660803130913
3.26386264415238 31.442541766711187 1.010056637798928
3.298269260025607 31.47156220981659 1.0004258570256408
5.000706232773676 38.675409281295515 0.9135821319845708
4.98853274801735 38.718414853556894 0.9244094828341015
4.971269366417777 38.82651766387534 0.9110478197747962
4.960136696864169 38.88804146957237 0.9141809805303529
6.830927750275671 38.580592402191826 1.0210554784391472
6.867650916494119 38.68228940184458 1.0583133174296333
6.768920107223052 38.62469674886947 1.0248165039871886
6.79644839632439 38.64330043980691 1.0137842582685688
6.704477797354352 38.61862992926318 1.01533960539515
6.7083174111390935 38.689185687097584 1.0291753165067712
5.368084463686629 38.87533813909095 0.9697091411178693
5.415909071187955 38.91243042656033 0.9894979802232798
5.3973319913765 39.011262104124484 1.0134371376509106
5.294997497195569 38.8845936931591 0.9752973360854693
5.298689885964123 38.91978964321571 0.9771244867837273
5.376358700872014 38.995701721531496 1.017260020588659
5.185915194532817 38.88804473927275 1.0099932578956847
5.1422940484608395 38.88749948831285 1.0133440729150207
4.986957242506938 38.7428362430561 1.022401094201013
4.981791811127971 38.78663737835803 0.9862690020224002
6.860177053944263 38.69527703658834 1.0664412542953305
6.883991945768282 38.75432729300163 1.0739180875086343
6.851485447628561 38.70317072556352 1.063712350777562
6.80491893571604 38.91057938674534 1.1094221543937708
6.79595661053601 38.91871913314038 1.1066081875343907
5.199098873871511 38.95415961075807 1.0891122024966218
5.158046021363974 38.952540576732645 1.0664738578650188
4.987888058773967 38.76752976341712 1.115445705970948
4.979778040546997 38.80652143882693 1.1007830960264848
4.962729133008891 38.91100593172354 1.1358036082524798
4.975913779231689 38.83413488824368 1.1824710926261799
4.785409690462653 37.17473506929262 -0.2768059152929767
4.700077417992524 36.820582364546944 -0.27746488889354787
4.646363568816348 36.583889888904245 -0.27523137680725535
6.708942235731172 38.05998595058436 -0.27737561519475856
6.544301498959981 37.356498531339845 -0.27686918306748265
6.6369853913111365 36.738789088665946 -0.2754224507001803
6.672869677531991 36.7238918897445 -0.2775687166470202
6.581471013532543 36.357010444851355 -0.2766414908052168
6.502376462758191 36.06873782738693 -0.27487931401368365
5.474963799115362 33.08758018823523 -0.2774119161149947
7.217169576298106 47.01611961120618 -0.1800841878450563
7.279562003409327 47.016898650495484 -0.1803302408309314
7.319538020351444 46.99988450708588 -0.17998405762186104
7.38205952101316 46.989917768841806 -0.17993423401244607
5.927801156248369 41.89920741172983 -0.27091239800154887
5.888144399461087 41.736569414822796 -0.2603921693930973
5.849232397589884 41.57584013822999 -0.25001809237314637
5.812828906327486 41.42676597295484 -0.2403828738296805
5.7787661304489895 41.28948475869883 -0.23152609725581674
5.747512344955939 41.16785555960446 -0.22366257591723177
5.7166667719113615 41.03416847630715 -0.21505661890242714
5.687411987634583 40.91624717876853 -0.20744486204873247
5.657602807922222 40.786345614621304 -0.19909066931066713
5.630613728743143 40.68412916151559 -0.19249170996056275
5.6048509526954176 40.58982285044292 -0.18641632769525843
4.936262675884299 38.231338297905005 -0.25984152251600856
5.147389844288972 38.56376150029009 -0.17946658299775053
5.0271341475523235 38.27768260735035 -0.2651594582228621
4.969505134805209 38.226625965734144 -0.258848984874169
5.237577473654275 38.5498986379296 -0.17803940556016787
4.812578216233782 37.29161907939949 -0.21778969928505323
5.47798523719576 38.845103582996984 -0.20791113803134811
5.4616134590556715 38.784262953353235 -0.2018293167634328
5.43652688809911 38.67295190327669 -0.1907304511167972
5.337787245283288 38.52556785183818 -0.17581401279720305
4.813505683700521 37.26768743625517 -0.2137694824244457
4.796053989052345 37.201171167233326 -0.20325759466334287
4.772321431060956 37.11021598658448 -0.22966388474914584
4.75131946603767 37.01693649191931 -0.2284124176159651
4.724890214776267 36.912570790423544 -0.22728970442529828
4.698118002358034 36.80562674115928 -0.22964956485936255
4.6685472905203484 36.68703820154765 -0.21127369589530176
4.651341517547867 36.60908731497136 -0.2276699763948435
4.623296952472896 36.52068824150743 -0.2422134975724899
4.608536708225045 36.4736885660154 -0.250547660339938
5.412047838881598 38.55156056263163 -0.17864954268376898
4.650038063925209 36.57795125099264 -0.2147955983442397
4.631042843543808 36.520357476407355 -0.22047139789410422
4.603899771143207 36.426510537136934 -0.21189547957503807
4.584712216045805 36.321445057984384 -0.21488286131173864
4.557417702868367 36.22727616009378 -0.1954116786811115
4.535548641396908 36.15098250467872 -0.18041157357174667
4.107232795820041 34.4410718109953 -0.17824713750422486
4.090132239087722 34.37474812575328 -0.19053476080412532
4.065630967484223 34.274813669175174 -0.20951262468110352
4.04105460554241 34.172296715497154 -0.22082511778740188
3.7216947078204177 33.31002891771845 -0.26621282006613267
3.6610262717878035 33.200948325750176 -0.1990471958248971
4.05679297756325 34.14753486317111 -0.2302376396926809
3.779386106097693 33.39021060179238 -0.24833046944426806
3.7111403090163293 33.26092196954856 -0.1876348234496431
7.164454147114901 41.29629051168064 -0.24677184819030828
7.1447478990413 41.28217518326882 -0.24558953783974874
3.9315709570294644 32.7471945661443 -0.22908029960953924
3.2216451793438834 30.958975324904504 -0.17940140740456365
3.1992294468957807 30.855625674281107 -0.18696715862486749
7.2554150927305265 41.29512063158311 -0.24818114216241882
3.937288039650814 32.708338604855534 -0.2335280211242296
3.9269336954565595 32.62772404696134 -0.24443374960615205
3.9077585694390566 32.53926356501469 -0.25700532884356986
3.1687896557984097 30.734139420267812 -0.196016560457154
3.1463543986788403 30.64757860095927 -0.20251657604105183
3.1277356820986233 30.56817196371441 -0.2083888041119701
3.107557265486949 30.48288155255934 -0.21473814531469443
3.0845247453423994 30.36719547971424 -0.22318577784313642
2.9378659222912895 29.97702259217522 -0.25401996192011417
7.346699384430649 41.31826048703711 -0.25113014990202787
7.3218370653866565 41.3181520678605 -0.25070076399472835
7.329235041597343 41.195703087069006 -0.24338750245894542
7.303290389696041 41.05268988985265 -0.23425369152149855
7.365017207373015 41.03241340166608 -0.23413114689832626
7.421836978608731 40.99591984432554 -0.23296265774122804
6.528511595540831 38.457359662113944 -0.19013660342283892
6.505116375512354 38.36190694205478 -0.18052595037719843
6.691467918571435 37.98688420562178 -0.26754300209408316
6.670747905874691 37.8964512598792 -0.25544421243229737
6.644780742291959 37.78700546458491 -0.24077741549892773
6.6207374592411785 37.68486891918073 -0.2271257924363152
6.598617047400086 37.60016006112307 -0.21569886484538464
6.577868992321578 37.51077704389994 -0.20381489334330924
6.54957131304009 37.39321314786904 -0.18816437257104912
6.52863769613277 37.30480949917781 -0.237353219590563
2.441295056608243 26.71773779026919 -0.181445005807514
6.51831376994961 37.2578154008344 -0.2601264925079287
6.502141098927037 37.18785677733747 -0.24847353371065833
6.483127607599563 37.09908152559285 -0.23384917228254493
6.462393971199301 37.01364138425964 -0.21962655872696252
6.433401600137973 36.91064775788227 -0.20220744934658996
6.415201656369958 36.8033128112425 -0.22286664732995715
2.398455371902175 26.38449098097025 -0.19424208929991804
6.483258885331879 36.759578332972275 -0.22438872095248172
6.578453958801441 36.7342399262663 -0.2277332587559998
6.6585860358152225 36.69207083092603 -0.21941555681698324
6.652799546001562 36.6071202903577 -0.21939694900253118
6.623281612833898 36.51038850268179 -0.23790157112437893
6.594039007585508 36.40962792347828 -0.21878016069255057
6.571542832154924 36.32164494665531 -0.2355934338070914
6.541138644738314 36.22695610488803 -0.24789676827272344
6.522108213650522 36.165172336104206 -0.2344618948758136
5.004484650213539 32.32027154940513 -0.24092641835333167
6.583432920872289 36.289763011067535 -0.1998530568550419
6.560680491671366 36.21336957802117 -0.19202648649151102
6.515829038682328 36.12252850264204 -0.2265401896838915
6.485338676684647 36.01857331277033 -0.23121652445081725
6.469857474453591 35.921443603407155 -0.21233496242077113
6.4490972895306395 35.82966428479545 -0.20885476374524484
6.4373782382945794 35.733854796339294 -0.20672305798994067
6.41435652218469 35.621492328074474 -0.18621477542342135
6.398182491005279 35.56167256817495 -0.1750512998208082
5.664293576045412 33.834747624561246 -0.17677021197807485
5.649445380798527 33.77770663833809 -0.18941426339676803
5.624299331689339 33.683957063326375 -0.21048092006271668
5.5963463461967216 33.57357653349599 -0.2149748734884858
5.574678827419849 33.48351748371342 -0.2288911176258951
5.5532576809168255 33.39951759469943 -0.23197743233411633
5.522437295364202 33.28266149677318 -0.2283756493246017
5.506579987817047 33.22514814452825 -0.2487091759317686
6.419649729609854 35.6041751032482 -0.1853619532974172
5.500286790256695 33.18512081354602 -0.21818180280874874
5.480817651421849 33.10542259288497 -0.22128983968473687
5.454548418593619 33.0001708711295 -0.2189218638823813
5.429835458520876 32.89738153698681 -0.23696560780659504
5.4146806934610545 32.841045642858546 -0.24686759808483477
7.126471809111093 46.835350712686704 -0.17464536960971122
