ply
format ascii 1.0
element vertex 839
property float x
property float y
property float z
end_header
39.302926567933376 49.32456214576363 0.6943097361702355
38.34909814056108 50.6250379979219 0.6743115732893296
39.73591350336212 49.581146853992934 0.7859046028083434
39.60912240271343 49.46637824143904 0.7532135936305253
39.51255466522753 49.36340583723618 0.8036373474462738
39.549543769648636 49.42541404956469 0.7970018899589175
39.326743980728224 49.304179972964754 0.7484836494309667
39.42471898664298 49.48584148800211 0.7663952995282746
39.42530268259951 49.56513008793526 0.7937093019381743
39.30523210466463 49.29482795515251 0.8026316946200942
39.30604098425177 49.4054192568989 0.7968277339030285
39.35033604914777 49.47515928689312 0.7882113621871885
39.58785850331868 49.41454902773635 0.8567831745333365
39.300668491951114 49.29797706956249 0.8405284907961394
39.204565693474535 49.356708245706535 0.8456415647634972
39.2048546322936 49.40159793475255 0.8526752896529319
39.43197469147788 49.277342960438666 0.9349920178824646
39.38800288570338 49.240651997669325 0.9290531407023371
39.271844619542165 49.497904752944244 0.9406925112777006
39.20127471883831 49.42639568862536 0.937801769777565
39.24191893848452 49.484146807895904 0.9377413405595273
39.12619825504648 49.34694269651973 0.952661034112022
39.42576560956431 49.19042614086106 -0.41057296089963435
39.53416117944127 49.17919825374813 -0.4042415300060324
39.61580094518951 49.129533843893356 -0.4017142776085917
39.704949154651956 49.088730451402974 -0.39839621474417697
39.800494231052184 49.056157387044635 -0.39438721061601567
39.866827051165636 49.0343596698272 -0.3916383573367699
42.55631190772334 55.34143645849839 -0.37999072314704874
42.5419243526998 55.3171457994152 -0.37678339475139166
42.59834978735364 55.333027711643496 -0.37657740301120396
42.64954688865987 55.26040276003933 -0.3623271153615047
42.453953929113574 54.986184345481256 -0.4059944095996445
42.43355372737878 54.897914566613714 -0.3909572095673081
42.404675003946075 54.80318515549808 -0.3757533645880226
42.379795438536426 54.72174493986371 -0.3630409932025915
42.36143064934498 54.58679333899527 -0.4069811675519601
42.34062396296517 54.507068551399 -0.3929925462339623
42.31347911355818 54.40845791549002 -0.3765409382178553
42.2895985457928 54.32563012387907 -0.36350741858435837
42.66047738148817 55.251211288728264 -0.36032641355071293
42.28563046384319 54.28295767462833 -0.38553799579972836
42.26231809947259 54.20819999531712 -0.40355611926004975
42.238068645655225 54.11179665844592 -0.38786209342752653
42.21479308302757 54.01514206258976 -0.3731685913016102
42.1969149086765 53.9369787759254 -0.3620908193506979
43.236526965921854 55.180652307787916 -0.41125296959911206
43.23161608466245 55.17203218656033 -0.4095281515771272
43.310512290971026 55.156895764954726 -0.4061365281750422
43.28886016026104 55.154869556985425 -0.40570902990891766
43.40537073185667 55.12870668642367 -0.40073431225953565
43.50198480547433 55.105213331241906 -0.3971730460279729
43.59680813732939 55.07647632920439 -0.39340901475352147
43.69453435919914 55.05306312327951 -0.39172170490008673
43.791779999078756 55.02821041143086 -0.3906734024501708
42.35504467854128 51.13312403401186 -0.35925952948449863
42.34080642195982 51.0875257846205 -0.36795238903851907
43.88913928061259 55.00321013727712 -0.39054976782252826
42.36154206730407 51.09640536404874 -0.36469763482828504
43.98614716897742 54.9770272561512 -0.39112291430570123
44.066054851932776 54.94188568577696 -0.389687886604658
44.013527735707044 54.7056166972786 -0.4077513941804555
43.985387978021016 54.59535264548113 -0.38062375258475367
43.971899596794586 54.56466897466477 -0.3725560253233211
43.953185694585144 54.429873633981316 -0.3987629794675698
43.95151688885884 54.32085802196951 -0.37111178836518793
43.1025804313461 50.8636333320904 -0.36619881318044945
43.364520020551986 51.34412661928322 -0.39980740017083527
43.23176507965803 50.89959469678321 -0.35792116341059904
43.16399896794283 50.882940637953396 -0.3616995990063165
43.43341795939371 51.328428233118025 -0.4048359099142871
43.25595272797001 50.87877565209649 -0.361586948356724
43.5837120896446 51.36105231919544 -0.40146631921433357
43.537131252236215 51.31511471387182 -0.41114385481607396
43.652967420104666 51.35936987084679 -0.4052724403071715
44.928387999431685 54.31879658380595 -0.3847300226132156
44.93891603935229 54.29493736579985 -0.38320710933273694
44.80045041255044 54.01003339931915 -0.39219795621631776
44.695961606624174 53.76520805361081 -0.3991533380934729
44.70182699401672 53.74014229597203 -0.397184811454665
44.66547163013255 53.61160819700185 -0.3724336189945694
44.99061014756808 54.269951239490204 -0.38795809093769446
44.965166100358985 54.15244463638918 -0.3695210350112366
44.86686206593633 53.998293683610335 -0.4034026971130615
45.06267711898768 54.13812568715389 -0.383533847747421
45.03120253780428 54.02010925854602 -0.3652229418596676
44.94540057861402 53.91089648915814 -0.40790664068991817
44.96793487582528 53.79579749953492 -0.3994034362866684
44.860835722343 53.73023806662308 -0.37011846154038786
45.14446847222247 54.11902245957276 -0.39479531004766505
45.00746694856117 53.8030232356387 -0.40839718458064783
44.98154072787444 53.68066865435782 -0.3906187617191068
45.22352543909406 53.78190416454257 -0.3759544798246331
45.222477738218295 53.77379634167681 -0.3751048911775205
44.332710809215435 50.22923641556772 -0.40761180801118474
37.38482225438646 50.04251253653821 -0.2947327470950515
37.508132308559205 50.0151033915869 -0.2890770831477278
37.589629727358414 49.99457038313986 -0.28539971419162974
37.68156614491741 49.954707837327156 -0.2815244581630186
37.67900731568795 49.851005522130095 -0.2831553505693056
37.653289174114846 49.77048328467368 -0.2855945984768048
37.655438031650775 49.732948065913334 -0.2860703701061904
37.66473043645421 49.674036417333326 -0.28655959143133497
37.82037037411847 49.67511747274545 -0.279226905556888
37.72820816727013 49.645916692851216 -0.2840244831483065
38.188882074994694 49.838840841411404 -0.25929322554870243
38.16507236697834 49.824301628731895 -0.2606507826833935
38.22009632493352 49.796811493324604 -0.2585592598298716
38.24226547912624 49.6101355065784 -0.2608729686536302
38.2609584508323 49.59682981770626 -0.2602694099802934
42.55605087181128 55.34488276847098 -0.2937542367320685
42.53740478820405 55.31975182425221 -0.2912767097025208
42.49939946454398 55.153147407320674 -0.3120338847870805
42.62483373347613 55.31875163006974 -0.28780485222433816
42.50396566910043 55.14776889779144 -0.3247051209779942
42.487147970659485 55.08268879121973 -0.30016254322636654
42.464123857644886 54.990838259200665 -0.32049737907956766
42.43803776779282 54.8900031779334 -0.3150897908738765
42.40512178936607 54.796361037956345 -0.30298824801021984
42.37978817457597 54.689732616108685 -0.3114538952120002
42.36588518314133 54.596065902913146 -0.30415136263567205
42.3438376571954 54.49858765060832 -0.2978418382579422
42.31413210561433 54.40871782825044 -0.31452444643012906
42.28730748856352 54.31811174006284 -0.3084187813812934
42.264121105669226 54.249447081391004 -0.2941985356469428
42.70407175267096 55.293351003340376 -0.2817714292215966
42.71414883004403 55.235566531976374 -0.3480302193942605
42.286424168116284 54.28923422124072 -0.31749107712105457
42.263216175411806 54.209805099537306 -0.31878783647926623
42.239387306158875 54.11390755846095 -0.3032169492526822
42.21526661691993 54.01888574038443 -0.2958862768481943
42.19093186265107 53.90732745663898 -0.3229486846237491
42.17456751521225 53.84979191499854 -0.32194528642548687
41.90038439437418 53.015985881457176 -0.2916714093541972
41.88938143442584 53.01248015819429 -0.3461673446205405
42.80009325534019 55.20630644293364 -0.309393650184423
41.95626212974436 53.017117765161004 -0.2940000492092695
41.93198036298328 52.99750542249172 -0.32008876029733085
42.92471934720985 55.193425974559936 -0.3149017214272832
42.887599256221804 55.18913612789602 -0.30042303488977884
42.04021528649608 52.96990339595598 -0.29238582328813856
41.13575561091825 50.485057629975316 -0.3536698587157026
42.98331114331256 55.17520639902527 -0.3151946051953412
42.986433459681976 55.155285059824884 -0.30715167765567786
42.16550745129364 53.037007538029734 -0.27181936513305477
42.15204278519447 52.9366975775001 -0.2752559171965364
41.2416268923035 50.48683093293346 -0.3450150281032923
41.185354804122774 50.490674989360045 -0.34918987558020786
43.10933174038078 55.13514489948402 -0.32709955584410444
43.06921326401795 55.12730289015002 -0.3264595277064657
42.20751026333276 52.912372203523795 -0.26063584883798346
41.30682737051358 50.46941942853957 -0.34140669681318
43.19765453043058 55.147684699501504 -0.3281531317520257
41.405369604235176 50.442187045465914 -0.33630082387667126
43.30014633146728 55.14058989663649 -0.3264105279735198
41.49954410451555 50.412020133643836 -0.33211670279741284
43.39989698092376 55.1209506019088 -0.3233203897278345
43.396807408324506 55.10969831822651 -0.32140516493783333
43.50400466562438 55.085645086142726 -0.3184131361225627
43.45389440018112 55.091368653501426 -0.31873786340386573
43.595135891266985 55.06311657788627 -0.31625448938167516
43.69186358633116 55.03837774492632 -0.31455206393561763
43.78841041398837 55.0139219763965 -0.3136573844891188
42.61807033085577 51.903110925833346 -0.29924060891712534
42.57926729878468 51.88615397229136 -0.30941344623926664
42.35075747564265 51.11042521152667 -0.28674475965536217
43.88479499951273 54.98815192563202 -0.31330750957202563
42.66880667661741 51.888793074701645 -0.2928464612893278
42.66989789775906 51.82081611409104 -0.2959302673535569
42.38107709278338 51.13966853234117 -0.2807415038164736
42.35900445955413 51.11079835404756 -0.28610568196661523
43.98092397169029 54.96181920906496 -0.31362186386921787
42.811402528436155 51.821671435134704 -0.30262160818652906
42.752824846596894 51.79317662090445 -0.2951643549999206
44.05708320705958 54.94167325837954 -0.3145042520126826
44.05635874089095 54.81314258771049 -0.3285014285463075
43.99415564404998 54.62944029934629 -0.2929988613964991
43.97111603807146 54.541793121886705 -0.3065599695601693
43.95354917347201 54.47364209596135 -0.331221391062652
42.83751463765682 51.757221374274394 -0.2957476358707022
42.649364592486954 51.069596879926586 -0.31071869714353095
43.96318632090477 54.47683084029705 -0.3522688689925251
43.94408647913298 54.41044545016873 -0.307687681007638
43.96238159061193 54.32496287268814 -0.29066386636870206
43.94100668098688 54.19335707836454 -0.32692744680772
43.94085274552585 54.15122868611028 -0.32782950292767987
42.70191683346933 51.045356031706035 -0.3116991981450241
44.002009431049984 54.30667979184979 -0.3192845968041255
43.96209153302599 54.17387230970378 -0.32785680409200085
43.948848026260215 54.100836185861645 -0.29343117912161204
43.92912560187363 53.98189121332061 -0.28581023679012807
43.92766796750491 53.94324165349919 -0.27648246378289265
42.797260263355604 51.01709237022038 -0.31169596787260534
42.76837180327489 50.95719000378904 -0.2841968847347902
44.01203148123104 53.92448821168392 -0.28568887131057563
44.00619896748273 53.90983933911486 -0.2815294144058671
42.897636785133884 50.99691727681049 -0.31088606153764775
44.10532042381418 53.921359430414356 -0.30104529374928063
43.034691265156496 50.97755510074192 -0.27290586020061597
42.99105379488712 50.97170979460379 -0.31651833642396554
44.25663298062197 53.88488392980646 -0.2998196998665247
43.106485327043 50.9601347939374 -0.27984778184934483
43.082944401770405 50.9322009214664 -0.3434408038523636
44.307372657154495 53.87067520940533 -0.3042887251287097
43.40174026777177 51.40238062951853 -0.2780989014504837
43.35768966770063 51.34789266457131 -0.3099428051267471
43.19588984945158 50.92916626743007 -0.3014586273413788
43.17809270686555 50.912356726351966 -0.35613836492867534
43.436306286894876 51.38239465207278 -0.27019842732165195
43.449881677304255 51.32835317128796 -0.3214936954976991
43.29040889354547 50.90292943839889 -0.3129052283862858
43.61137588389175 51.41411741274493 -0.268933494282275
43.57123813212334 51.37300381503515 -0.311337678139853
43.49369191856945 51.26072257144306 -0.2933678192841273
43.65071537650224 51.38311950258461 -0.32493838411637266
43.67393563534444 51.35523876365785 -0.3025085534855473
44.93723986898384 54.289168777336016 -0.3073546026695111
44.679278433244015 53.60629618855922 -0.26427325280311065
44.9827645227173 54.255507973198334 -0.3094878490396173
44.97315574787627 54.15723667296353 -0.29825487116423066
44.7405271240362 53.67057417645666 -0.2807312918757701
44.707860559761414 53.58923840952973 -0.2960435954357999
45.06439070762228 54.13514065822124 -0.30803216600916455
44.99785652639078 53.98547927581117 -0.3087618316355984
44.979991054745824 53.953895985662214 -0.3151181945153279
44.83013853746431 53.63467871123947 -0.29350741628000765
45.137062019319515 54.11501638329009 -0.31583870928823543
45.049222408194495 53.86128496125093 -0.3421688012170991
45.0119757876584 53.80532307457686 -0.34052883222383157
45.32739199452938 54.23652182103543 -0.2680680980565761
45.220255963613106 53.973001584291794 -0.31500661563949545
45.28237761444123 53.97382526666616 -0.3238013930504153
45.25998690533759 53.92183064206777 -0.316593160837651
45.209903627378154 53.76554726521231 -0.29805753646474215
44.08838711758258 49.83436119791696 -0.3352309932838114
44.326173690071954 50.21473074918065 -0.3028565301536863
44.28949405601982 50.12874546958228 -0.3104071058379661
44.26603627218057 50.028835871130234 -0.3200735440157215
44.23901690914785 49.93044015594414 -0.3295606985618974
44.17960894026814 49.823505861336336 -0.3390882456370992
38.27349713925732 49.75697560205304 -0.25678982757285057
38.35072929947092 49.85578804082483 -0.25149242033835956
38.355550882262165 49.736517236272995 -0.2533918879906687
38.3160577446809 49.60828098688079 -0.2575556118254274
38.47035272231759 49.66615395693048 -0.24948443865332143
38.360703226855655 49.61391191625114 -0.255428437664354
38.54656780375568 49.644134043972244 -0.24648631849583996
38.57260900359201 49.57619930247588 -0.24666393446469126
38.61209891651333 49.54232350813491 -0.24560033594813535
38.55863919578 49.412223734718154 -0.25063716639037176
38.80002011777201 49.50155780726048 -0.23823177166400233
38.888749421029296 49.466560182657346 -0.23516690021804126
39.07691850834337 49.70307976414426 -0.2219056097726574
38.96861669212946 49.44307749816915 -0.23228155435595013
38.90158568550733 49.336289225369825 -0.23754058655819182
39.08471104635498 49.41397040345633 -0.22805391597197056
39.235037869098775 49.46924061474941 -0.22048650754887905
39.19115345548203 49.380132656095455 -0.22442351530362667
39.26477706925112 49.35660485565935 -0.221969703140593
39.24641998255266 49.23513380650461 -0.22570976594361525
39.322516419218324 49.21451467340589 -0.22317751510536796
39.425071364178244 49.19447230984462 -0.21962722867112613
39.527928491708266 49.177520934646665 -0.21605785868148084
39.60887125416814 49.12689171719373 -0.21430882131428186
39.70146850455162 49.0757488431458 -0.21222598480951502
39.7908752983378 49.03602552009569 -0.21003348103305414
39.857390176470254 49.014030354884696 -0.2082398556778462
42.55993251375016 55.34943186997513 -0.20807196981251258
42.53886734341565 55.317989114754866 -0.20571019103695162
42.503839898361235 55.166799584128995 -0.19260692811829738
42.490260731013024 55.12558644536104 -0.18922400116582877
42.62839467492312 55.32409193171783 -0.20380188530710192
42.50278243973104 55.147316603257934 -0.19082808436268278
42.47947138465034 55.06801442297153 -0.18426297933242428
42.459939083886525 54.98678146056601 -0.2103841115609847
42.43649597022931 54.89617283176247 -0.20640990295520267
42.409388504722266 54.79814953986363 -0.19735451924884662
42.382895235894814 54.71099231054507 -0.20755572675172812
42.36858178852042 54.59627074195646 -0.21075981740349126
42.34565176137628 54.497945145549004 -0.20091169144503412
42.3214789390385 54.40944564274175 -0.21934763331890014
42.293082392033455 54.32638939162785 -0.24401441194646217
42.71313031406412 55.293491535696376 -0.19876576837248558
42.320713157648555 54.38095374408982 -0.23412791645560224
42.300411603092826 54.30149193152506 -0.20894733050157477
42.27528252784982 54.207024201141806 -0.20118321979280276
42.248378104592085 54.1106614872249 -0.19434011948625649
42.2247879553478 54.01580234269266 -0.19468700901195768
42.203725986625926 53.91213188735477 -0.2274447572949539
42.17639519250185 53.84661735903571 -0.22347436108773797
41.90092688877012 53.01789798659865 -0.19085146239074383
41.8924943018099 53.01248677895736 -0.21732021923737257
42.81815437449694 55.25128825723048 -0.19240094158721066
42.790094570132275 55.23063937583322 -0.1909799675707599
42.26064695086258 53.75297274469605 -0.17776808306775033
41.95505338786602 53.01863926042545 -0.20535255829869817
41.93758107159508 52.995528364446585 -0.20923305375497087
42.920607612196946 55.23319741874724 -0.18876553468506257
42.336377287309645 53.70589522330895 -0.22632083211697068
42.05650812755502 52.96442535159132 -0.20155025033715107
41.12225718394128 50.46323137606674 -0.23824451561071402
41.09607768534524 50.3863257026205 -0.2440864753536423
43.019975622169824 55.20750141629484 -0.20104456591595132
42.99915258039122 55.15197453154743 -0.2555060388053636
42.44391095340194 53.63494639315145 -0.25600823210804924
42.233127598278486 53.04011756403961 -0.2535906054876257
42.14031780214866 52.939587852907515 -0.21345973506176058
41.14270637931818 50.348220289830124 -0.24357244027987707
43.10029525930679 55.17507720357128 -0.21487093427201093
43.062731206729445 55.135338981506706 -0.25220442004635035
42.484135576241904 53.59183447977845 -0.2093580501031569
42.30935550377096 53.06985536716959 -0.23356391796102288
42.23058629183362 52.90855627322854 -0.20515776153377208
43.23150975571579 55.18521186582496 -0.20619273680240463
43.197559175223546 55.15828169087896 -0.21999549819941006
42.300602305794925 52.896187949669866 -0.19918632476274778
43.32461967733971 55.1507412258458 -0.21892714721736867
43.29718145317065 55.14823831079363 -0.21445131616961086
41.49412632669021 50.33755847677905 -0.22528049833378339
43.406608009070894 55.12459125760886 -0.21030449732965284
43.37671940636128 55.1208555835752 -0.24833750437547925
43.50061169436447 55.1010357666532 -0.20824360695469557
43.59704228795329 55.07270796174303 -0.20736693712012322
43.69370066839601 55.04536203930664 -0.2057664262684954
43.78993244932441 55.01836935985547 -0.2047159525253488
42.6290596273006 51.9324515247651 -0.20983852541906406
42.562426873114745 51.889521043590904 -0.20309819597481416
43.88733890950031 54.99536871540423 -0.20465587245904993
42.67377721797517 51.894194624709705 -0.20201195522057047
42.6939489765265 51.82002930432765 -0.1933132471346309
43.98470196909294 54.971609786829084 -0.20502231681401278
42.80144792684194 51.83548831889479 -0.214382059518096
42.740040497682585 51.810029866852226 -0.19384682546330767
44.06555640155361 54.945354725902405 -0.20504854040401144
44.057994262729764 54.824904505928544 -0.22636649041349577
43.98628533784682 54.61156423122956 -0.22718924509786542
43.96658906820157 54.530626100908684 -0.21083873230673772
43.944116271429046 54.44816102823917 -0.17447535880597684
42.85440196946255 51.811840183580244 -0.20632613116991078
42.8621636276742 51.77358250761084 -0.18872821375683768
44.124165226679764 54.88924008871498 -0.16526839604930257
43.97227852095731 54.48263677749369 -0.2374746119600823
43.94652362427702 54.4236496104685 -0.18994896194808258
43.95577269764044 54.324936655685924 -0.19104638963172352
43.946288467068236 54.18335322594865 -0.21435464997090933
42.70704875894501 51.04260666984401 -0.20135955137043773
43.9618074274369 54.18255745202785 -0.23949708115504692
43.93815056097964 54.104343214087415 -0.2119234873035118
43.925612104838486 53.995813547956146 -0.20698797832846166
43.92633901163767 53.93713524578474 -0.21752058657748377
42.8018722109599 51.02111992792827 -0.2004590492407345
44.0226619609889 53.92308550331678 -0.2117472828095186
44.00008739249035 53.91249990412475 -0.21803556606687824
42.896533730507656 50.99868872656546 -0.20022062356579012
42.0348241452032 48.68995577439963 -0.15998653028686194
42.01878579574973 48.68344884516799 -0.16050771501811262
44.09970506170808 53.92229680357034 -0.2130468969474434
44.0668517621024 53.888121842757315 -0.20158658912803978
42.985576672939004 50.96040014517718 -0.20240882465326374
42.112944867000806 48.66844877920549 -0.15957072614942364
44.243242537685425 53.880407932702106 -0.20805226650171016
43.08358624066319 50.92572321567291 -0.2045956006061009
42.20600796468319 48.64028843459724 -0.15927746767982467
42.23338048355981 48.59754857786261 -0.16058685704860673
44.29620275643451 53.86012412669238 -0.2049845279695025
43.393058498900324 51.419978694931544 -0.20504673787582284
43.34184391398743 51.35706384668174 -0.2139993522257651
43.199468110889775 50.9206378123582 -0.20390513605337
43.151435411275415 50.9146354192465 -0.20497730146604795
42.312040574064255 48.62019193546924 -0.1585917770133246
43.469759341413244 51.387325412824026 -0.21074208147903445
43.493550521697074 51.331165185752255 -0.18892200515504326
43.28731854287765 50.89628949087233 -0.20620229843164606
43.266821330851556 50.88089172705946 -0.20796135065062354
42.40535451534019 48.593068455236306 -0.1584840062138223
43.58975955625165 51.43315905944802 -0.20660742576210134
43.53213435801146 51.3778537132895 -0.21321901124936157
42.50810706547544 48.56087819208761 -0.15858294960552377
43.660364109146094 51.39040209494262 -0.21485742386501844
43.681823921266584 51.35548239714362 -0.1900761949366272
42.60045914973208 48.529912380090465 -0.15886713754491827
44.942850992286765 54.293684012854804 -0.18826094284433753
44.69855898584148 53.6319086208836 -0.17377003233400004
42.68505368024748 48.50805234797157 -0.1589524901561657
44.99999727295534 54.261444407476134 -0.20127120720385128
44.69843815267283 53.59736682159291 -0.15798838796669373
45.084439804609424 54.218536543589316 -0.20392265687694586
45.000813560294404 53.999278064293435 -0.21682560437769063
44.975420180190454 53.95806306959648 -0.21122920147498378
45.22372512792309 54.2210162120534 -0.21600070145024264
45.166531680527484 54.21308539622451 -0.2105940791486114
45.141424309930166 53.95082076936655 -0.22843086610563448
45.0951669856694 53.896482981098295 -0.21989141901730788
45.04414912320804 53.70541462943382 -0.20280036220022088
42.947392087013334 48.27835711812123 -0.1664640820999706
45.35399567637672 54.262412536553434 -0.18772950605555
45.32755146997119 54.24056859947338 -0.184583331952099
45.228715004158545 53.96915662996413 -0.20103442508517622
43.02869132023723 48.263739658001384 -0.16663026263823794
45.29289902038969 54.00582063185385 -0.20112836696560438
45.26178109906613 53.92498240558597 -0.19962846431435063
43.13681789668699 48.26196000400644 -0.1662251870705603
43.12564747350065 48.225642523867336 -0.16777943744057855
43.2442499224825 48.2312878904108 -0.16715597411661245
43.19415932574462 48.22249911948452 -0.16766332752884197
43.31094681187853 48.207140886667844 -0.1680080751642243
43.35354007818985 48.16001872274194 -0.16989109778401926
44.095215963680495 49.82696086790848 -0.21998326468082163
44.08645563556095 49.81449229532084 -0.22073761826754457
44.30525526753187 50.239627640314886 -0.19492169276197563
44.27999870323474 50.10517006781044 -0.20385403284325282
44.26435744570777 50.0137398420687 -0.21005028185520347
44.2432571160866 49.91382874287983 -0.21678154275327377
44.17191773493808 49.824773288465494 -0.2217148945511376
37.29617211989274 50.01538906891615 -0.06500856853202805
37.38137684556777 50.03297315083304 -0.06355302493521005
37.491424477178406 50.01132375710472 -0.06154696959565243
37.58717411322722 49.9854389489532 -0.05979268425517749
37.67589989182746 49.969012840658934 -0.05819694752438611
37.666096282967175 49.848638769168204 -0.05807438599615011
37.65321344906706 49.76242194083475 -0.0581044133775926
37.632271704205316 49.69906895015295 -0.05833066947754149
42.547661753907306 55.34897510773992 -0.12273790534671034
42.54250677892784 55.30956204294991 -0.12043453841036639
42.501293896977195 55.15358855079302 -0.11178421963531106
42.620593948500606 55.32410974166315 -0.11995794171444657
42.50854210556681 55.156259040677256 -0.11179781049099842
42.48818757662252 55.09037451542089 -0.10827230714894019
42.46076036037868 54.99722446561665 -0.10332677968690702
42.43871029707819 54.89420687891535 -0.09776827824592682
42.408174860157246 54.79550087255544 -0.09277721158506372
42.3768882739142 54.69685710963857 -0.11716647016855411
42.365302372378615 54.59794720475209 -0.11146682580399195
42.342853184324596 54.50162311272838 -0.10991876434446765
42.31701542223414 54.40759067743543 -0.10577551538845316
42.29009426357439 54.330441538710616 -0.11993089541751623
42.727984331903706 55.3040562361742 -0.11703564362823962
42.31112362044301 54.36278819161416 -0.09082571310870088
42.29316367964572 54.29666922319995 -0.08560934499162261
42.27000911390512 54.2092678292913 -0.0923687395399978
42.24410499908209 54.11355481722299 -0.09003986004580841
42.21995452290545 54.01484069755889 -0.11050736746892226
42.205119488083824 53.91146753634257 -0.12775789452294622
42.18186870524063 53.83554357906428 -0.12128172307882588
41.89736534201359 53.01443471400746 -0.1171524646739883
42.827233702115976 55.28514422470093 -0.1145062585345069
42.21412508627756 53.78095506573722 -0.13991508375503264
41.955280663317346 53.02336220881013 -0.11275173555166702
41.92661076907994 52.99924445046075 -0.10617424103650609
42.91909189967797 55.268729390110394 -0.11241103545075555
42.050603962743565 52.96987179355086 -0.09601021574452967
41.12755125137839 50.472632329227174 -0.12011335248081559
43.01850364716364 55.23252190259506 -0.10918665914461827
42.43250194322055 53.62246928303308 -0.11972292026396905
42.4140350255 53.52263964938785 -0.0633404937037027
42.143773453607686 52.937724496516495 -0.10620213013454369
41.200064003974305 50.46928951240653 -0.11763356349464368
43.113707398725545 55.20183842064958 -0.10654187791753857
42.44873176632688 53.571704542750425 -0.08521683409353178
42.43669455127204 53.53904632310319 -0.10155732381785655
42.23300293716392 52.91094656468559 -0.10092663968753124
41.32409415392394 50.45178023037646 -0.1138696464462019
41.29010642558394 50.44474693239161 -0.11524317469131715
43.20902578497376 55.168557732184354 -0.10394382723562208
42.2920111956092 52.89901554117199 -0.12801766410890383
41.39868510674785 50.426569552709466 -0.11216375944206868
41.39192585726192 50.407600946905724 -0.11298320298575856
43.31841493359425 55.15047545646762 -0.10249877051265852
43.29786071941763 55.14840531037937 -0.1023950587925452
41.49689254706624 50.39482078238781 -0.11000487737347565
41.47036970636771 50.37904477853249 -0.11135480191310297
43.40695432420146 55.12772355162767 -0.10103201518724736
43.5065005324365 55.099142133231055 -0.09943341743270649
43.600990137706724 55.071516461698316 -0.09812545097716165
43.694148176552886 55.04551688964426 -0.09715222371828573
43.79134456086265 55.022400417978325 -0.09663556911939987
42.634958405074606 51.952490132108345 -0.10331406280322285
43.88872768545536 54.998637977294216 -0.09633587307427319
42.69234716312376 51.909714064484525 -0.09344424462024101
42.70931945741128 51.82046648138936 -0.09669245055454039
43.984947110266006 54.97149792754634 -0.09606884052055649
42.81058313566501 51.86066697220774 -0.10363210475666101
42.732794060102066 51.81423283394963 -0.09613955641764055
44.0611082434712 54.950506556246495 -0.09605858755947005
44.05258793640891 54.81191102720911 -0.15585919757072114
44.02932925453939 54.714295291652384 -0.10278482726153286
43.995190854537505 54.65397033988249 -0.10849971574292352
43.9679741355028 54.53278920097901 -0.1039726099078168
43.94956678633363 54.45950789765979 -0.06496207739738682
42.864838556796485 51.82866005894097 -0.09628666290170121
42.875415645780755 51.7549285825348 -0.09204304292279247
44.044926180191325 54.69685587562751 -0.08075018278534238
43.962990339344884 54.475291828240486 -0.06615274291481797
43.94076248732787 54.41503241283742 -0.08910982084980794
43.94704267179939 54.33229297097054 -0.09833589699892265
43.9307508168913 54.18596808665248 -0.12442912580728578
43.912184592918 54.127616849044124 -0.09843672741227237
43.88040728141735 54.02702694831314 -0.09940564813895847
42.708345883633896 51.03747802187383 -0.12882785555741266
43.929851203545574 53.97367145933363 -0.11274206310817417
43.92808734640199 53.93187432349179 -0.10874187170296756
42.79895678686436 51.01360377436282 -0.1283486284719597
44.02151553365305 53.921429998834554 -0.10253225923284272
44.00403141814657 53.90706638843242 -0.11112033297467984
42.898781664204925 50.99577689456908 -0.12760833815273087
44.10309498745536 53.91049228539147 -0.11405502789562766
44.07774514392603 53.87858159509199 -0.08470140559683727
42.99225295535337 50.96314348901481 -0.12851098720596085
44.2467634147278 53.88193140767792 -0.11363993869414739
43.081709925651936 50.92169010814712 -0.13053348869786846
43.07135846663743 50.800619442898196 -0.1398358526045062
44.299804721487206 53.85754776545516 -0.10979567501383555
43.41299257761138 51.47287846251531 -0.08716497001294413
43.3916121742757 51.440322114510735 -0.11763486172852887
43.337639983494775 51.37271281658108 -0.12396272069687568
43.20342499780417 50.91859150228428 -0.12975433910905532
43.173850704876756 50.90346055531422 -0.13110807794122298
43.09427596344301 50.79849155670418 -0.13976433018898027
43.54327051628043 51.4338898349125 -0.1195183659512739
43.49317598637756 51.39471507502694 -0.1218014589695114
43.501899682320655 51.3296678874249 -0.09866579037287942
43.32826139791456 51.125367823469226 -0.11354308662552053
43.28512258279447 50.89637581450551 -0.13114026345651084
43.25819470844627 50.84004263722305 -0.13551213602964102
42.44353753550243 48.60145194507842 -0.1576748177702193
43.596526609294386 51.44699229787286 -0.11849626754577144
42.52071332357958 48.57724870635264 -0.1577716075440863
43.672074952033505 51.395933477914255 -0.11275276010232273
44.93595580967204 54.29321529657934 -0.08725992013516037
44.685575669505646 53.596203365610585 -0.15649159510997168
42.899820019377145 49.008221339887456 -0.1366241661644733
42.863493026829985 48.98742991090011 -0.13775164770083143
44.99909898433757 54.26322408633188 -0.08852019783797183
44.7018432201543 53.600000160222585 -0.10911234049222425
45.08643510849294 54.22012421858644 -0.09033622756258954
44.98907500745548 53.99588437427524 -0.1081994787852976
44.97700035805259 53.964134929903864 -0.12094938533487491
45.21670173502764 54.21698397369564 -0.09568276626421907
45.1681112447886 54.21434848519968 -0.09352364488791609
45.1208288924506 53.909256186467246 -0.08034812735114025
45.324262366435015 54.23983705540373 -0.10114827406409918
45.287181039178165 54.03245722959828 -0.09201872911805896
45.24022715681791 53.98336420351409 -0.088232160297364
45.29320210594996 54.00974728299146 -0.09151375522883623
45.26451293095299 53.92049706185858 -0.08724700842739833
44.098430709267106 49.83417997106902 -0.10411397456098873
44.32589182192098 50.22662807155854 -0.09179445263768832
44.29254790339801 50.13179664195397 -0.09491772598250714
44.26844243374811 50.03427422494942 -0.09834474406157254
44.242055565430654 49.93406309743122 -0.10189430912257795
44.17864054094497 49.82054408219991 -0.10557548087380275
37.69830277780569 49.93029656956099 -0.057709612192692133
37.67794281326711 49.66045822346066 -0.05747212206742095
37.761368236587806 49.616585268547986 -0.05596960302374078
37.851111854327 49.59364720533882 -0.05441177313119645
37.97605458832853 49.56795737970551 -0.052271966719651
38.05911702765017 49.54362041025918 -0.05085241663535859
38.19869481711149 49.506467111170835 -0.04849850810429719
38.13882374285426 49.51835559247503 -0.04950010532778065
38.26314533267097 49.51362362527985 -0.04744469754988004
38.39041964845817 49.56379888051111 -0.045400026621195924
38.521731013141604 49.63101183789419 -0.043305763407031767
38.48342194565202 49.5404750333112 -0.043866038213701095
38.59042536308664 49.51823140769035 -0.04212248437961154
38.56918921981689 49.41199713455872 -0.042422878924655044
38.65095966653294 49.38923932037747 -0.04111705408049035
38.752043725504166 49.36070347164926 -0.039520836480813074
38.851946341068945 49.33818135225712 -0.037963726611637716
39.06255846989042 49.69611171432708 -0.03462876430487549
38.94449998406609 49.31139784179451 -0.03654131994144197
39.060805521662864 49.28202897914514 -0.03477892487113199
39.01101686825188 49.29018866106171 -0.03553208665838582
39.12843249588057 49.263492804607786 -0.03377017711340219
39.225914164216476 49.23398874954421 -0.032337511930090004
39.33148557903119 49.214454765741884 -0.03079804483135526
39.4318506615582 49.19255382934084 -0.029362043373732147
39.53972576886135 49.18081443005003 -0.02782543558585096
39.61421056175058 49.12382950479588 -0.02686627090954881
39.70641465475833 49.07193509711276 -0.025678226152073436
39.80320857499967 49.04092511875788 -0.024416276151009372
39.90685403133159 49.02093680131115 -0.023064678674473427
39.99229282460561 48.994895905088505 -0.021996086348561816
42.55396642170572 55.34563964235651 -0.037340663258832354
42.534650446197176 55.33629017721894 -0.037226697447588525
42.50302841802955 55.16236314527796 -0.03268527971908615
42.48960534791066 55.121037328834916 -0.031671516828058036
40.12906969995426 48.97898434048105 -0.020258962711744433
40.07938037251876 48.98762322162274 -0.02087718742409453
42.626057105149016 55.32281910915726 -0.036195535750590035
42.48355979572145 55.08859893270798 -0.030842773254594794
42.45542934743017 54.98355657640229 -0.028247818270141056
42.43285057225716 54.891572847898075 -0.02598568796658951
42.40437592358199 54.80484322474236 -0.02395292039784204
42.3764157284666 54.71237077536041 -0.021798322172121326
42.371141808713155 54.59639501650241 -0.01882833404465664
42.34080431311682 54.50414609866806 -0.016794848874097462
42.31548205046812 54.40829392540189 -0.014662903075544478
42.291934364798244 54.32404215688866 -0.012856869469809032
40.198370987674224 48.96649831372861 -0.019411865978649065
42.725891313018984 55.298809574492054 -0.03486658721362254
42.308433957589294 54.358539165244 -0.013502275940743894
42.29395295762691 54.30221761042486 -0.012292294990532845
42.26780392413932 54.21355013830734 -0.0104757782235987
42.24209705981759 54.111588890472206 -0.008409387476194796
42.225266269556585 54.00736925856225 -0.030587310713744098
42.205775425484006 53.91116154089241 -0.0288666336199795
42.17429879710819 53.835541452199955 -0.026394945574223977
41.896334676404834 53.01630345943074 -0.01952863632164248
41.897476186667035 53.011919833385306 0.0048718335646633915
40.28746499783199 48.92279854379444 -0.018427426010006534
40.28295063896267 48.91673094587312 -0.018504674455444473
42.82641002483273 55.292584207592846 -0.03409482153731537
41.9532601321999 53.027217540826584 -0.01911784806299023
41.93567754554411 52.996565036134974 -0.010251772981058435
40.37756880939232 48.89671621033576 -0.017405803729360167
42.927566155574866 55.26902813331912 -0.03290154148895934
42.334976287591424 53.681409958620875 -0.01758178102253341
42.050374057498786 52.96822527467745 -0.010621319409719068
40.47510683355012 48.867860923931744 -0.016332675133217497
43.020029374192845 55.22634869655691 -0.0312762350477062
42.4266080472468 53.58271537459047 0.004819562548614126
42.40760713152782 53.52463746098272 0.0021755007653965763
42.3806259065242 53.45350684362248 0.002848565369136871
42.13964431146292 52.93696783826192 -0.008855105745309691
40.533472724020434 48.846009124713035 -0.015721129342146145
43.11478572682924 55.19505352447679 -0.03002524889599492
42.445443108050334 53.578940648842405 -0.008573844861633872
42.42421286551838 53.53357219108121 -0.027953691565624578
42.236186042179526 52.90955954741986 -0.007256985983704833
43.25036507259216 55.174212196536466 -0.029028656333382807
43.20554663463177 55.17534952890217 -0.029180050471090416
42.29163736304787 52.89813258092207 0.013693091208321226
43.31382819561406 55.154258699289755 -0.028327944020337295
43.28554150572188 55.153409249371975 -0.02836084523121711
43.407347946616404 55.127920414324166 -0.02743935250312328
43.50372867669841 55.10414194752234 -0.026695727669533917
43.598793827825396 55.07875012014171 -0.025988097427793774
43.695371497548614 55.04989977204338 -0.025265687012312396
43.79230984344969 55.02505094112365 -0.024740684472896998
42.652021471207554 51.98300355001335 0.01673708042848808
42.62390402212674 51.966546659518094 -0.004172702196052008
43.889307294138874 55.00003876422028 -0.024296027574759363
42.69322758359309 51.96978582782382 0.02103720153416193
42.71121355729096 51.90194842551969 0.020913704816154136
43.9864930636616 54.97526453689116 -0.023943170065424138
42.811745133451026 51.875738606640056 -6.426640051300503e-05
42.73820844428452 51.83013295760674 0.020837656319975514
44.06080896080748 54.94489676050388 -0.023418405585189497
44.02363064689579 54.70278382021551 -0.016704990492864114
43.98259041894526 54.61714358469477 -0.014198724612069502
43.95985991234623 54.50433386651657 -0.011054923941502592
43.9455905163604 54.47717464984857 -0.010253125993225629
42.87471490723465 51.83276960326786 0.00068103266230643
42.891263058489116 51.765491025214075 0.0019289250469994024
43.9424295115376 54.41200131810684 -0.008492630265683865
43.96215584492964 54.31944547536932 -0.023106011132293935
43.994992711242226 54.27857120395855 -0.005276115688902072
44.01430262348037 54.140721663160406 -0.0018516961882419358
43.97673601931065 54.11281432667835 -0.0008598717047048898
44.065206507794464 54.1364019036667 -0.0021277842295609056
44.07356684527781 54.044858377112455 8.642405939834896e-05
44.05245318348232 54.00923810980218 0.0011533478228342303
44.03006790500973 53.898996113645 -0.035959115465039576
41.99236871617698 48.54225314277598 -0.003419656148566416
44.121094362542706 54.001361803936604 0.0007327827873857412
44.11808767431724 53.91891452121416 -0.00946676240872786
44.09148209780914 53.875695148283164 0.004019867341772468
43.25644433335187 51.531798878242306 0.022072216051781265
43.24499759634194 51.49875274894401 0.021825935915864833
42.05384381080649 48.519823248787596 -0.0031335528237606963
44.226021251185834 53.94538951477191 0.0010300905075059652
44.203696063688305 53.8888864757103 -0.023287403471453166
43.28244008862116 51.52946244781775 0.022117758375387445
43.30708668607546 51.46361202710071 0.021731521233446946
42.15612041053843 48.49247393880367 -0.002630721639858974
44.29914111520597 53.867332675931074 -0.04394303589323009
43.41378389843551 51.47899902562524 0.015168815399415683
43.3762984813702 51.455897460114315 -0.020672171067151468
43.32217037337787 51.39314660204317 -0.035795532197854585
42.25880946790332 48.46586580669613 -0.002161989576144316
43.535638776758766 51.447804580063945 0.0031327300829034205
43.491681033695365 51.42358367449492 -0.011058892925105118
42.37809357677009 48.441141777693986 -0.0016300742002026969
42.34892785057329 48.44139929852517 -0.0017922040370712822
43.60280902342352 51.46023388251135 -0.007856695910115022
42.458071131520676 48.41922026066065 -0.0013389651009314274
42.43955014023321 48.413230573238145 -0.001475579862077761
44.951077071393726 54.56785971125778 -0.02089565885468128
44.91719682414254 54.48482723615722 -0.018648083457540307
43.677709736037265 51.417599071350395 -0.004903160341068635
42.53943659434964 48.39265280182152 -0.001096253036757186
42.565455613462234 48.36738271211252 -0.0011289153792061746
44.91443401715843 54.43706615554633 -0.017544197385793228
44.921860545542366 54.3757249310976 -0.016267939119790797
44.937302899174085 54.299079017894776 -0.01477256424737812
42.639001446637316 48.36235651154085 -0.0008196857776834598
44.99763278845888 54.262374010572465 -0.014705568633839677
44.72174964311273 53.598796954390636 0.001834792474435451
42.735017376061506 48.33722514323098 -0.0005640952266950244
45.08000491586499 54.22054471986592 -0.014839552557349173
44.9976482930155 54.00591587902571 -0.00947296800319998
42.83237022710016 48.314350105473025 -0.00032471919947811567
45.21639168052058 54.21699659088097 -0.01648130359145744
45.15875612535536 54.208615979323994 -0.015580797710007602
45.06366454834506 53.93596746726721 -0.00900017777002618
42.92938874624502 48.28556219547489 -0.00016116259235057773
45.316364553255184 54.24009509225748 -0.018223190314345786
43.02633369197099 48.253495743510086 -5.506661078885644e-05
45.323674235296714 54.059915280148665 -0.014830477831603947
45.2940984339068 54.01031307958102 -0.013503433580158694
45.26562055932386 53.92529603359353 -0.011553159679501337
45.242439589572115 53.86572202928903 -0.010158885012155686
43.10047810664613 48.229909814291496 9.313654718595687e-06
44.10751207722369 49.81817708356028 0.010835730352290435
44.32037080852303 50.269993637838695 0.012787849363396872
44.332423863246575 50.21971862836091 0.012463369764767918
44.29180998166794 50.115308098331404 0.012038521278686778
44.266593872857506 50.019846789347106 0.0115848182221924
44.24302031945575 49.9281869595442 0.011131593788230823
44.16664727870229 49.82159435667575 0.010713902582475857
44.22096844176128 49.82114500729606 0.01057179737988112
42.55486325601149 55.343406754836806 0.08995983570725026
42.54308771925391 55.311091976668564 0.08948229736624776
42.505312936476294 55.15784897608696 0.12600731699166562
42.62225157371347 55.321453835850406 0.08896850216489303
42.507586251893976 55.13945428609721 0.08590173166353211
42.48986340414077 55.08884272439757 0.08490515889636847
42.46422254290462 54.98721104336531 0.08092047171344781
42.44104884478556 54.88706906237613 0.08337929267477422
42.411581891151585 54.79499458692448 0.07814411349225732
42.387005208272406 54.703703033487464 0.08007889156081845
42.37378862158749 54.595814513941846 0.07496481832377037
42.34564330023983 54.50277522797785 0.07509358252507951
42.32311804683388 54.41710958182563 0.07556971170536271
42.29817626614688 54.33984518263509 0.10169753343680317
42.725486024665315 55.292432752192205 0.08586190355489633
42.32123225207002 54.3800390350942 0.07009490521502156
42.29724050361136 54.302922636331964 0.07138428490830627
42.27048367690157 54.2070226840406 0.071392396996407
42.247266841571125 54.10865802724355 0.06963693066684211
42.22491709696811 54.01043758420098 0.071077713703791
42.20431236440312 53.90697459746695 0.07692588912363184
42.1764504661308 53.82299871170816 0.09737077099766166
42.14227173538232 53.72047821387543 0.13914863277293066
42.11510207389709 53.625190604818485 0.13816159479664075
42.08673350299521 53.53073370296781 0.13791982650593726
42.05546257991058 53.43582157847776 0.1385490335316379
42.02561565287111 53.35133734517329 0.13982696835975578
41.898990751604764 53.01077187032069 0.10203884722589161
42.82486982546872 55.280335296298105 0.09013961780743994
42.060889521835556 53.415968944186154 0.13780183149511133
42.02880624359666 53.328602520279865 0.13934751256470945
42.01336768768693 53.26850768075498 0.14017290850261865
41.96162708793656 53.029244876555204 0.07478831459001949
41.93222396407482 52.99729051254282 0.10052989880900674
42.920098250789216 55.25340958740337 0.08380507477732389
42.29689532248874 53.69585498468042 0.06437746429849157
42.05020553655894 52.96905394367188 0.09687231831238001
43.013124982632455 55.220488655878235 0.08143925314840468
42.40532552160672 53.601004400598136 0.07218901736284923
42.40006769086749 53.51989081509114 0.06194012804830677
42.37816605530432 53.45380575876055 0.06635659244716248
42.14411099800745 52.9386210687934 0.08935546785088468
43.10896198921578 55.19286823451561 0.0884334994571158
42.44334668437693 53.570267452943526 0.07688968613553056
42.43488500655087 53.55303360017878 0.0769545319528407
42.23693325712443 52.910962192167354 0.08497714358574741
43.20557869252952 55.169598409806646 0.08329176607526405
42.29289444158471 52.90069447279619 0.06627941080285275
43.321481825825586 55.14847495055267 0.10769366641761159
43.298407590248964 55.13852049100998 0.07385230428064958
43.4087611727544 55.11921422040762 0.08624673241644544
43.37963732341357 55.117451266268304 0.07724809768174616
43.50032845114095 55.091130417790524 0.08369804003457003
43.44766878707948 55.091302224966974 0.04591108441730156
43.59641758281306 55.065828543500935 0.0798218352722156
43.69216981459798 55.040371453406465 0.08127260584808037
43.70613713422334 54.99800415161491 0.11686041159081244
42.55534264929672 51.935458224129476 0.08807501689592674
43.79060782053828 55.01335012203959 0.08415008240321108
42.6551774378364 51.98738857930768 0.08374653217889903
42.593959769813985 51.9674080121015 0.0883582669058897
43.88964755824413 54.99077336637152 0.08353401522708571
42.71485627085172 51.96793988246628 0.08951434762638895
42.744665341125405 51.92460883270329 0.07714591689494914
43.98577390147305 54.96458753645585 0.08421614249869057
42.77812447368452 51.92871844690246 0.1063915244175274
42.8138579678671 51.893533937094304 0.0862637680679282
44.05637337102438 54.947971508118215 0.07886911890432542
44.034103579053806 54.78639887336489 0.11441711201075612
44.018067264040056 54.723578624992285 0.09068303252830372
43.98269065651073 54.626224562163216 0.06676130849536895
43.958561114116506 54.52792651751676 0.0800412335111876
43.931020409895496 54.42034702748673 0.07999070058084377
42.88781449218411 51.83931166766941 0.08726631422836074
43.93079563235806 54.38833163934853 0.09729393073274693
43.95481192329488 54.31983101499897 0.07067522209165795
44.046481486930915 54.285259997384124 0.07183107382944738
44.138998593722086 54.26175586389419 0.07012780979189022
44.274822486961064 54.25208504575801 0.07541903961161163
44.23676213803293 54.2361980042602 0.07452950261556472
43.251525301649735 51.54560115684822 0.0869525873621411
43.22453772103142 51.522903420054405 0.10611929646328365
44.34769904138135 54.226787672435705 0.08468970945382388
44.323405396607036 54.2101633397068 0.07619461874605742
43.3247067783373 51.51209024892228 0.09267057700597921
43.31133608810096 51.4742070116141 0.10545745945874581
43.2926276740379 51.3837091160065 0.1360744631826033
43.41206029703836 51.50643290068011 0.10344209174550557
43.35408339925462 51.4858754605894 0.12980546760918182
43.515797973903794 51.48648827429269 0.10414090354893178
44.91866935030039 54.76961960841168 0.14138034246289305
44.89673308466836 54.7411735493951 0.08118728293467235
43.61496013320886 51.48278229989268 0.10310520727665305
44.954180683100326 54.72107140060915 0.09073047254330656
43.700217288912576 51.43929440392378 0.11704459911903874
45.08372766476236 54.69203887520803 0.06031612698947626
45.05033195784962 54.68965876114963 0.05981807461086748
44.70526214284861 53.826164160563145 0.05462254327704512
44.73013813386623 53.6975871365712 0.11098185677445489
44.67011015138155 53.54883152592369 0.10655444041878352
43.7842951733676 51.44335560793927 0.1373013605770393
43.782859713320036 51.40575490429473 0.1395744485422289
45.15812107265666 54.67265690816992 0.06142191296403059
44.79526081341064 53.76024860984846 0.11492600621297482
44.729903626566575 53.67838375731043 0.11076179827692205
44.715675194403275 53.59248637863744 0.07336561016814454
45.25439652882258 54.65152162501729 0.06289535200732628
45.35238789352559 54.626493898321044 0.0644388678920468
45.4262351616723 54.59675976272563 0.06563477461149521
45.407422947283656 54.510783313254606 0.06539255538250786
45.37506886802463 54.41373423184186 0.06496294347531116
45.35618195570254 54.31999677924156 0.06478318610130897
45.33797152651899 54.22608061808029 0.064649195506421
45.28247295288204 54.02919539608145 0.0641890719275058
45.30532906370506 54.07429867950927 0.06445704454898742
45.28127556487721 54.00533717818584 0.06424272401508775
45.252770360611095 53.920729767087124 0.06402671626330912
45.233502144532075 53.85909813956526 0.06391467086477425
