ply
format ascii 1.0
element vertex 810
property float x
property float y
property float z
end_header
-0.5267961356718213 -0.949513950036329 -0.14136008514307274
-0.5378402158505352 -0.9769142374234225 -0.1456964397049837
-1.335859638906196 -2.988785798344126 -0.06543858311485733
0.5214265702317649 1.6591047186976777 -0.09707687627881618
0.35999025097834303 1.2961701664874148 -0.12425350203394021
0.38403637644697186 1.2443713378334744 -0.12308405893351061
0.2028813705944057 0.709190496970375 -0.11278605484166078
0.0262244045049691 0.44283779529521583 -0.1595740341108443
0.060773267895510186 0.34439225012130403 -0.08909130315029552
-0.16917152647100742 -0.1192828657329416 -0.09917713423669798
-0.17667507279523675 -0.16439488219608683 -0.09985877547369591
-0.3092495179221547 -0.6159777821697051 -0.07528235215048455
-0.352180374339208 -0.6315242662092744 -0.09067656443641105
-0.38665427913597616 -0.77754921752787 -0.1315982618761557
-0.4335294947210119 -0.8024636026179818 -0.12705663414525464
-0.5192911799134141 -0.9528351844938958 -0.1433847263139847
-0.5269660875016627 -0.9730489399865034 -0.14662365076465012
-0.7054343534439608 -1.6264008016326 -0.15122655981756528
-0.7452141703560284 -1.6588286364257732 -0.15451412076431786
-0.8196935223023699 -1.9843389465915169 -0.13604312383251677
-1.2501457366782636 -3.0075388705779407 -0.06836159789565853
0.6582725579059074 1.6499183693962827 -0.11129924296835818
0.4720572877614264 1.2292618159649178 -0.13470100144071556
0.4402697776953899 1.2261502293684574 -0.12974450669055076
0.2167900995967207 0.6941040388235278 -0.11442803720519866
0.21672294926723756 0.6732082947905449 -0.11297893036962685
0.13281043685833493 0.3457203812689727 -0.09674143320780527
-0.24178297227254997 -0.6261507826287901 -0.09036972190472449
-0.2594000107458877 -0.7260763837550759 -0.14936210109732323
-0.3085170824000447 -0.7585666858266307 -0.14443376038365835
-0.31031043638795863 -0.9347748433372531 -0.12604548594980647
-0.3425763689054856 -0.9642679521291542 -0.12583639746699848
-0.6291538103994383 -1.6345763084163825 -0.15874794205879045
-0.6276560547996736 -1.7686543031211308 -0.11311057727054961
-0.673025366132338 -1.8200092671025612 -0.11820391792747904
-0.7478379028940401 -1.8923475976094222 -0.12518243887755898
-0.7730530332674942 -2.0165012524508557 -0.09505871850699886
-1.1526769988121908 -3.0306472538287057 -0.07209998269802777
0.5767230734152535 1.2252594712811524 -0.14997122770219123
0.2042590679166838 0.36188208192534543 -0.14920806695783784
0.19594704095734317 0.3473010759542746 -0.11983918212790638
-0.15392382706296592 -0.6534272467406286 -0.09568978923084058
-0.2055166350447002 -0.724316708197494 -0.16117526501153828
-0.18714900180705274 -0.853465211545964 -0.13480736505846336
-0.2564421172246599 -0.9062575431335832 -0.1307029955253154
-0.565152229429252 -1.741758356307735 -0.11331395374066942
-0.6865325519866743 -2.067507753003424 -0.07644037571903321
-1.05889449952883 -3.0536145337155505 -0.07600908863481991
0.659280897936176 1.2356628939716408 -0.16323373039553873
-0.4473506732286002 -1.72663867903739 -0.1199031166472335
-0.48468798131849233 -1.7408695988863752 -0.11908867573425348
-0.5829918436420538 -2.1013195242076526 -0.08563498515366112
-0.3592892237187826 -1.7312581122400121 -0.1278236176014907
-0.48295565267002727 -2.1026080068893718 -0.09114792351975502
-0.8585818716844902 -3.1129063748951387 -0.0860705783354473
-0.7362163980654632 -3.1343440142768237 -0.0913730055526968
-0.7826656509683985 -3.1293495482979043 -0.08960250436178725
-0.6718361495156941 -3.152117957455452 -0.094903030880179
-0.6915820422185748 -3.1563989025180588 -0.09469155521969073
0.6098560494346765 -0.753743750658732 -0.14135905751967626
0.5963913182469476 -0.7985081139427022 -0.14241930106409678
0.7134969757428622 -0.6495307944396016 -0.10662074768732761
0.6738702342208909 -0.7230022497441014 -0.14959235781930286
0.5997190000135542 -0.8519629652733793 -0.14689632943599173
0.5831734481232245 -0.9088664249917436 -0.14878293073025517
0.5646920037141057 -0.9902356000055819 -0.1526376906706528
0.8064526310616515 -0.6316259226023515 -0.0876314135330389
1.814718743641947 1.2685954932407042 -0.11503924620234317
0.9222388815791192 -1.0699277254952264 -0.12590879524696752
1.847832478229962 1.250348951835498 -0.11776079908984514
1.8298531139865986 1.1954340307163789 -0.11456813479680174
1.0466552293984661 -1.0013093175768035 -0.13741129111518102
0.9757894865132426 -1.0499737543761396 -0.13136690620929442
0.9955370314967211 -1.1343232496386084 -0.13896697300752847
1.1135259300607958 -0.9832454735825256 -0.1448797455725268
1.3323942106849038 -0.6736582717586549 -0.13024941657159705
1.3147543573764844 -0.7445571142895984 -0.14032332419188986
1.281989547295341 -0.8859263859787876 -0.10381380859200208
1.256365911226965 -0.9506551536760999 -0.11331693704265923
1.2274678345146952 -1.0394734856626306 -0.0817257580178803
1.210318875828334 -1.1476416529720845 -0.06885187156774199
1.162526332866314 -1.2435974901049998 -0.08058564839582445
1.1034914008113363 -1.284450029064056 -0.12303083033047126
1.2175028324841828 -1.162926080509503 -0.07016961390004432
1.198263515442296 -1.259501039161894 -0.07272760616881303
1.1723041845050328 -1.370582777586711 -0.07563917389400036
1.1815474129619623 -1.4173042296333846 -0.07878057948260565
1.0671976072938831 -1.7658289125527418 -0.08782236964531782
1.0462967284666054 -1.8325028204132003 -0.0900458651687883
1.021289225206279 -1.9266030020293212 -0.09374922283226676
0.9931521047851979 -2.017385910868686 -0.09719650867275507
0.8071745469764287 -2.4676779051070943 -0.1139780863293794
1.0287018428583237 -1.9491527031573321 -0.09573428966282087
1.0023101016879188 -2.0342810691269113 -0.09901231029916645
0.9722796308372541 -2.125778618787803 -0.10258573577574444
0.9486105035000041 -2.2274450486674744 -0.10753696832719718
0.9223347132828008 -2.3228944541040635 -0.11207312232846327
0.8939129408036735 -2.4200197956667107 -0.11676377508477288
0.8593532228852807 -2.476516363889704 -0.11829059910591604
0.866108144858531 -2.6173613955224106 -0.1289226471408484
0.8402271494103708 -2.6912113826754016 -0.13255780977016435
0.8587848519639267 -2.665874035738732 -0.13195890441622388
0.8400366083992976 -2.7347124827398197 -0.13577026217246435
0.8102729989632742 -2.8173946875740317 -0.13996118308730804
0.7862782604620981 -2.9144046865512663 -0.14574641558359075
0.7827716377878475 -3.012528708167284 -0.15303868282402794
-4.2821266484000144 2.403877697885554 -0.06354813507142061
-4.288544495811868 2.3921421878796645 -0.06332068395962005
-2.797737230548936 1.533723223165593 -0.015473548650030977
-2.846099568066175 1.477140935017424 -0.014726113586765954
-2.7193882007814434 1.5184174775251913 -0.008475008631359526
-2.7979385132989263 1.4944152848906957 -0.012369814183270239
-2.641658463676305 1.506839082661047 -0.001960929428854022
-2.5266642687470666 1.4964127598264714 -0.019971773357776182
-2.4236931679401965 1.474675344611232 -0.024091403162057476
-2.4586234024561024 1.4791530061829055 -0.009056019565472043
-2.3331255453479094 1.4525062742048374 -0.004816686188105379
-2.2472548973227213 1.4312107142269201 -0.005166202638979697
-1.7699448041763053 2.3086700037125762 -0.007973081523223041
-1.7865852565749782 2.245322913788089 -0.021383409335550926
-1.812473903112694 2.142376302042073 -0.02968443351221557
-1.8422795700035988 2.056358256634287 -0.02041423926000427
-1.8638279616056328 1.9889556284952798 -0.013225208123424426
-2.112078499178212 1.4927710683861972 -0.0016926783863429051
-2.1282722049898943 1.3987045207588709 -0.015801571012148227
-1.842096148324707 2.0372532160310532 -0.0182470197671689
-1.8675953253307924 1.9497182346120843 -0.008888613456134911
-1.8849252313470937 1.8399900836942074 -0.018887647172851893
-1.9050822521071615 1.748040241189974 -0.01736272354232689
-1.931400683517783 1.6540033351337318 -0.006707563190703744
-1.9507022330655481 1.5672431105973403 -0.005302086708093498
-1.9942416892187143 1.4499270937179103 -0.013613360263088028
-2.032273967662065 1.406837236762377 -0.010258333841353579
-2.2721309588150045 0.6419516249533938 0.007554382193709304
-2.3642282804144648 0.41052870409918985 0.008453451699354575
-1.9570114741222029 1.4603199676170904 -0.012762917281431266
-2.1924518113214226 0.7660427943716741 -0.014607811580082258
-2.226161277999227 0.6959926911886047 -0.011298090027385826
-2.268560460372181 0.6058671287636265 -0.009903578005316396
-2.299391690169385 0.5118007900914681 -0.007101444687249325
-2.338129538820912 0.4175423889284365 -0.008466638347914501
-2.342618061193611 0.3178086261284252 -0.013572131177093327
-2.3638511762546592 0.21773183333618262 -0.008644971936084794
-2.3809672941051643 0.1487031878001776 -0.004489812184276729
-2.344661496299933 0.0867997814671085 -0.019957219900838916
-2.3614837497478227 0.004830113429548449 -0.015135676754507388
-2.397002338174296 -0.09097520262241644 -0.014160548810875015
-2.4227954186433545 -0.1891934996718604 -0.025034822687430194
-2.4493485639123582 -0.2879056826480118 -0.01000539116396608
-2.4672903390542604 -0.38042734093169495 -0.0015112536520342362
-2.497672116574856 -0.4497180029552598 -0.010362309299788194
-2.52950851392807 -0.5729209577801111 -0.03989975361797968
-2.39832194098373 -0.410171716477372 -0.058137569470669184
-2.481152092597517 -0.4883269098252467 -0.03267256494487457
-2.5122292024532427 -0.5596428258305486 0.006940446992522456
-2.5426129908732116 -0.6927828831715483 -0.020213285037664938
-2.563554723144113 -0.7914969677616736 -0.00892798492781037
-2.5848103485084652 -0.8344437473963677 0.00760681633770155
-2.6457335119003593 -1.0986597586850801 -0.026205941982971853
-2.6664593458242 -1.1695242784005706 -0.007746148623420782
-2.686790416113907 -1.269500158286526 -0.011373209689033215
-2.7165813429274595 -1.3670993304123045 -0.022259400302053145
-2.2370290630851404 -0.3310498812846945 -0.03912295814294789
-2.465880968377085 -0.8364621287035995 -0.012232221480063962
-2.458434199436084 -0.9027049762055804 -0.018172893651240876
-2.7102089899598596 -1.3683225229623772 -0.021922041839872883
-2.7361443979410156 -1.4604353865723507 -0.03218787261753275
-2.7643659650073076 -1.5667667425889742 -0.012084655606549033
-2.786962002471475 -1.6567732343317103 -0.01680176991068137
-2.8097481866173872 -1.744143068187911 -0.0032114302140930223
-2.835908393806595 -1.8488603178369336 0.012322965551970058
-2.8633656890217685 -1.9535315615552937 0.003697220182661415
-2.8862066256525085 -2.0347642707597116 -0.0030969936708206414
-2.9588242520880677 -2.3414435626357055 -0.02854865609983738
-2.9859106114415335 -2.4446559857419397 -0.03730243022270771
-3.0007499636683503 -2.5542077126215474 -0.04617375605004062
-2.900131508453023 -2.5802164158642213 -0.044989524768014016
-2.912530795255739 -2.6434915046560636 -0.05032867355139112
-2.6563518383869154 -2.124625874669399 -0.0018765131834465737
-2.788674851291623 -2.6166897111212215 -0.044614012769652905
-1.9426279433502918 -0.6706393126024747 -0.053108340797036815
-2.7370568508686497 -2.6353912019194303 -0.04471437519158504
-2.1302446379329374 -1.513663461001204 -0.0027202487577535905
-2.259970151056052 -1.7663924264700304 -0.036564014029021236
-2.6080448543958954 -2.667621311125541 -0.04412499255849857
-2.022650551675709 -1.2831240146880503 0.027670494475237853
-2.0268964058874355 -1.3908673078316929 -0.04410446277973171
-2.555329794973285 -2.6811312261943154 -0.044047988475973646
-2.0803632982291234 -1.7965674602104766 -0.033070928791504875
-2.379334263539027 -2.716281290063706 -0.04354491240183282
-2.4241795793558563 -2.713572926273863 -0.04412283901138918
-2.3190705564582714 -2.736534404096034 -0.04428901460776316
-2.3680393565042115 -2.73147673112564 -0.044645929094273576
-2.23239307685851 -2.759599610751851 -0.04503692865033955
0.5533705269670286 4.204617195138693 -0.03247831987707822
-2.130683153353869 -2.7849468154125754 -0.046052104247846004
0.2232111432535826 3.0280648686536726 0.03126668547832195
0.23241127127336458 3.021177409955517 0.031204935722444142
-2.03736578895189 -2.8202551700163454 -0.048325178494454904
3.1826016939121784 10.664254103832057 -0.012663690305797823
0.24872960163288438 3.0285508754028254 0.03025197874704283
0.25642588371927677 2.9945951910011686 0.03140091759879682
-1.940352536990395 -2.841834173684021 -0.04964982750726632
-0.09088548281475417 1.7139059664342875 -0.008202333678315368
-1.835338778631166 -2.851595746289488 -0.05018555154068716
0.5007972518392687 2.9420412499460094 0.023551240246665987
-0.3884512105672604 0.5290641830375895 -0.05659320793723595
-1.73877377514727 -2.874563147858801 -0.05221901785498326
0.5710013706068267 2.9041776842640767 0.02204491717110426
0.6026983511951056 2.881094657993067 0.02157904916144228
-0.3678425493168701 0.5168228206836106 -0.03307965455424694
-0.7863021054919085 -0.7919141330799586 -0.0229647689571673
-1.616606976243182 -2.903176658971071 -0.05515250752594589
-1.652561673913673 -2.9055349119819467 -0.055225226051063295
0.6346651451132526 2.87643732864095 0.02034189569442612
0.6459520124320177 2.8614938159139567 0.020427012280103976
-0.7581770224688527 -0.7926597958685974 -0.013896516696505393
-1.5272087021128904 -2.9335189099219554 -0.05845674904372654
-1.5670456983434322 -2.9333503348486296 -0.05817040984129694
0.2612172558637027 1.581027779771136 -0.06343364098241185
-0.1928062841542778 0.21168607402799056 -0.03974105625634215
-0.20073978769856426 0.18705520585375757 -0.045173425490332805
-1.0639824395911786 -1.9691350672787284 -0.013651907905748092
-1.4415036959161014 -2.9593730221941783 -0.06155188712548619
-1.4946236297501136 -2.9553445169884944 -0.06069096850484999
-0.17092298335136047 0.21497187303006066 -0.0011274985627868633
-0.1702540305711877 0.13070041165356655 -0.01034475888877863
-0.19209183175416034 0.032377325317557604 -0.02162648937223223
-0.20340368858987912 -0.04947394441330004 -0.03953458538951553
-0.39449276621652796 -0.587715205051682 0.0255047989116894
-0.4040662043316141 -0.6026110611419988 0.0002417287643816518
-1.367367424733155 -2.9746226914819456 -0.06374367210667288
0.03119872062321649 0.33938685182531536 -0.026981359800015883
-0.13998278867249492 -0.003574437219890078 0.018646465090516595
-0.1609826946204671 -0.09953063660850973 -0.009057535567069952
-0.1761033142460664 -0.17609451468405574 -0.02083064856589878
-0.3264254920472962 -0.6049646846361713 -0.0032944919181944754
-0.3744309707575868 -0.615924811780174 -0.03184845585270055
-0.832408673297448 -2.001053242567327 -0.03351526305261972
-0.8456003030331511 -2.0376494694178153 0.010675381009682551
0.12761260128475005 0.32574950040388845 -0.005171773191057133
-0.24531636709193105 -0.6171834893472845 -0.019841692773817407
-0.7875217955269042 -2.0180434186565233 -0.011073397114448713
0.20727662633442656 0.31918590464305113 -0.014563554201328655
-0.16108015121622676 -0.6355932589712713 -0.012696277308367865
-0.7275494995902374 -2.061834338557762 0.004518942830839451
-1.069429252863715 -3.051064112978692 0.03499812006098866
0.7094612982257003 -0.6182173995779113 -0.00045366769767692106
0.8466315576008647 -0.6259227985873125 -0.0141252962671604
0.7949239678457956 -0.6202527841745376 -0.008872700328275737
2.1516475445935415 2.418944035759519 -0.04433858343548755
2.1581159668980767 2.3375389424514545 -0.0426512964203956
2.100118030210642 2.2417169512246495 -0.0368465237877683
2.088933099874202 2.1696409107094996 -0.03443706101852438
2.049710366970608 2.1058310008779544 -0.030575636046762333
2.0556875685126643 1.9857591278014584 -0.028190500604346802
1.108209517876617 -0.7950842337062002 -0.045325217335672865
1.3012486826260121 -0.6127890470580816 0.03439482035891178
1.3330541359825914 -0.6741918050086988 -0.0026270544995900813
1.3152283511061074 -0.7371681190490847 -0.021485966835555745
1.2807532896164877 -0.878872825327749 0.016798099552543043
1.259945379024445 -0.9531194011845385 0.02994688244569494
1.2352770006351073 -1.0504398631182674 0.02909310225147784
1.2067619387094284 -1.1474398255262008 0.028296785115229303
1.1014616848868892 -1.2883464093036507 0.01168519984832593
1.193516407789242 -1.2545863911641812 0.02608568737326722
1.1626246697485654 -1.3593068021039758 0.02482898543118904
1.0647721252382911 -1.747762872173177 0.01743275784178385
1.0492038913652235 -1.821428534114524 0.015587873986849965
-4.267897591142515 2.5054798952803226 0.06741614630782393
-4.281012415276372 2.447883900917675 0.06872268313566254
-4.318675185534664 2.4009742924026947 0.06904716849905942
-2.9423007093774887 1.4935510802801777 0.09273628936447083
-2.8166569395647145 1.5460836905493522 0.09754758225607257
-2.8593911871170032 1.491175296939315 0.09911923610618557
-2.718228156211086 1.515818909712826 0.0909073933364689
-2.6365657329997507 1.5095543494243897 0.06795269492004272
-2.53792900666809 1.5003562701237665 0.07293088129509952
-2.431169447716412 1.4768465029601623 0.07893307635210758
-2.478942916356186 1.484020383456506 0.07648308533547574
-2.3347553092451196 1.452274817566324 0.08438571624201417
-2.243686671800338 1.4311352771375156 0.08923968575298043
-1.7898069056207826 2.235083130767676 0.09216439110635548
-1.815072339542113 2.1405425356900007 0.08008038212022742
-1.8458051245185763 2.0513137185803636 0.09090124667448973
-1.8718795402756006 1.9758757514189196 0.07530247177371785
-2.0981119724363118 1.4773277870034756 0.08299026699122819
-2.128364035631773 1.395713989152233 0.06586346510889933
0.4995398524054757 7.911827524645129 0.0779623922681447
-1.8426763013510654 2.0341387163480937 0.08900105053321057
-1.872985419257506 1.9380276351375567 0.10366999064175778
-1.8881255351166013 1.8455719512254305 0.10289322301818471
-1.9048725153745414 1.7474824664989805 0.08176003783931869
-1.9349019967304475 1.656025414236856 0.08187447684479349
-1.9532312010101998 1.5499163029545877 0.07941185008382065
-1.9993569926199255 1.4471631384873722 0.06867275915210742
-2.2731817923472004 0.666021837342056 0.047221510134191166
-2.277709418958775 0.6454849642226742 0.048150866754782584
-2.331435750576197 0.5025604636512844 0.050065127672398006
-2.353501893166988 0.4423659970647502 0.07865628145278189
0.5536535077871898 7.89194082446113 0.07719134993329975
-1.9483237859126223 1.4790203112092362 0.05394040489672269
-2.18961945388892 0.7629367689439981 0.08987007035551114
-2.222157938021386 0.6950937879610005 0.09195480092694636
-2.2666299090076603 0.6044689652718062 0.09296092429199034
-2.2986357138162945 0.511663382984244 0.09599241451421292
-2.335760340132798 0.41526636208821704 0.09412750359785199
-2.341964683912008 0.3121166368159716 0.09337696155590812
-2.365446279904464 0.2146699098360182 0.09446438770561369
-2.3752633082916645 0.14725330319856683 0.09068831264575032
0.643102774272095 7.851947538939803 0.07599497118650257
-2.3460433860169694 0.08897254792969042 0.0876665988443542
-2.3643324254096405 -0.004229099881980142 0.09289750219940351
-2.3930156152416995 -0.0965877730206889 0.0880504507757101
-2.4167343817577533 -0.19095932808168758 0.08408173384504887
-2.440272424708126 -0.2868901327889529 0.09723862361069664
-2.4679411591718496 -0.3837965287019076 0.0956054557186578
-2.4989159470924522 -0.4662449754782753 0.09610088617762018
-2.5164306074130933 -0.5428017348569586 0.10780270908363784
0.7364558166374164 7.827367825082311 0.07450080717226122
-2.425505358503544 -0.42232845786537576 0.11855634513116152
-2.4969339740260805 -0.5193047872366148 0.1100359764041759
-2.5443716019212363 -0.6896129772038797 0.0754144959214902
-2.5571315946323443 -0.7746598204920337 0.07006533754603396
-2.5886586968340914 -0.8315869233158791 0.08944566739741598
-2.6430706327114803 -1.1031301398736537 0.12235744404556845
-2.668096870317515 -1.1651593652398995 0.09087689027277854
-2.689638125839891 -1.263481232267443 0.09323341761617866
-2.713014995907664 -1.3506011024576914 0.09691603049602861
-2.7365281880532533 -1.414191683807757 0.1207674243659167
0.8277116254613281 7.7925848769574255 0.0731597095370801
-2.279967504642146 -0.36272959801705684 0.09069213658418797
-2.4637300269135567 -0.835506834027122 0.06922062574309985
-2.450325237411871 -0.9000137588489128 0.06269821033687834
-2.7155675778445887 -1.37958817525002 0.06798202807206587
-2.7402464198320438 -1.4603725767038307 0.0811424949961278
-2.7612056212142417 -1.549288857496208 0.08879358419801732
-2.7896532692290776 -1.651810267984781 0.10966283730765541
-2.811054802245007 -1.7458656323232322 0.10516912380497354
-2.8373574722980157 -1.8446651857332477 0.10033590013161202
-2.861219679212473 -1.9371283535938417 0.09578949483548138
-2.8883407792218243 -2.0466479529825814 0.0903854996579711
-2.917500464756194 -2.148766846426333 0.08524996121682993
-2.9269243632461914 -2.193962786961699 0.0830233690111416
0.9341559989092361 7.762503415485258 0.0714340418278176
-2.9295076347729827 -2.214331068130047 0.08204347018313346
-2.988292916984104 -2.4586989000810875 0.06976371618115795
-3.01095253529067 -2.5309607170824706 0.0660310340678931
-3.009134945350379 -2.5984197509361135 0.06285172371865867
1.0285071211934962 7.742128373312689 0.06980111951949769
-2.8871918738186224 -2.5920217940050136 0.06471187470867397
1.1253901545486593 7.726842036557561 0.0680291988834804
-2.8146658189943974 -2.608404512761086 0.0647421567412927
1.2299813964968458 7.695569345949625 0.06628326695312915
-2.7250445866450157 -2.6374027511234366 0.06423385469616526
1.322058805022036 7.6610238629684 0.064814375671592
-2.235283734260742 -1.7834889880109024 0.03729377223094619
1.4185954200523858 7.638773743626254 0.06307416399625529
-2.201106993801414 -1.7953550733677117 0.08895908226456707
-2.553940665090895 -2.679791398132248 0.0635260009757992
1.5101497475281895 7.607886175877971 0.061528024540798906
-2.100048216903757 -1.8029622994422447 0.07525073544778493
-2.2779140429817564 -2.260971816217828 0.08687673106636144
-2.4124845148955645 -2.701238477237327 0.06325611885755407
1.6063083940879805 7.588920214324178 0.05971247327758038
-2.3236772045831966 -2.721049428189366 0.06258426122520909
1.7140540200780305 7.557680390655817 0.05777890763213773
-2.227026178735163 -2.7462791667749653 0.061496125413590015
1.8192567196925016 7.558332032369348 0.05548174884594674
1.7825050123230268 7.540970344389493 0.05649836182243863
0.5150605260135404 4.224034052614805 0.12513971948697566
0.5190126987809949 4.194042796684494 0.12541891404194008
0.4870004280286142 4.081506471869318 0.12750316833047443
0.46608735671630397 3.9967981737980027 0.12899972114951327
0.4321970788334195 3.867458596417225 0.1313276372792636
0.4053771940134927 3.756754225264202 0.13327003363309972
0.39330132537940576 3.6963486610925815 0.13427114488793263
-2.135393920667968 -2.78515819602899 0.05950152060003188
0.5137588431408664 3.756882719674803 0.1308171836176767
0.4233323825694182 3.652963428277891 0.13411451282414638
0.38555153916694906 3.5986024543118154 0.1356229842136648
-2.0423314685283067 -2.821471461554522 0.05747067842715518
0.6779186446185321 3.9256473325442522 0.12505033131466903
0.6321423261544827 3.900060468534521 0.12640645332972558
0.564448471457804 3.827871736549059 0.12881470934614309
0.6084443756811857 3.725453722301537 0.12901188806231442
0.5137132514829237 3.5695101521453156 0.13303734329585326
0.5034372805303908 3.435286738786189 0.13484741251126767
-1.9408702011030083 -2.847663141825661 0.05579698484898642
0.6620553384707635 3.799064074840411 0.12690450482306265
0.6349686552793328 3.7162547622934667 0.12850333918240858
0.5272593204120493 3.452110996654398 0.1340952071273233
0.52672646389444 3.4229493864827107 0.1344459190317821
-0.11631721430242858 1.7008561892166691 0.10039375151528698
-0.1384090752719297 1.6015194945251825 0.10525200845781871
-0.14367062290754506 1.515268967362511 0.10877392852063043
-0.2111323704902247 1.2943333287238448 0.12016413130465271
-0.23783928745232108 1.2233259418788884 0.12401768729236584
-1.83731808532791 -2.8652779040607763 0.05439652236288493
-0.08782243281254021 1.5096642673351344 0.10630391482353155
-0.14264108747510762 1.3960398779939482 0.11312220471553283
-0.2413760242599733 1.176561323539798 0.12583062942137552
-0.25415788138183115 1.1294457964838598 0.10439894050363321
-0.2885628183044858 1.0266459117096562 0.10873577258118683
-0.31325921890630815 0.929209552627334 0.09360477358452297
-0.3435566947480554 0.8266877241067898 0.10150572673207331
-0.35818749976667685 0.7271087982451772 0.10762974734829965
-0.3752586676696742 0.6302454030753336 0.09996482686594836
-1.6908174572078805 -2.87264459290445 0.053073307233405795
-1.7433067567999398 -2.87445834961537 0.053341048595880215
-0.308685318439315 0.5728256884147348 0.10955807700062711
-0.3296174874078578 0.5528694038933376 0.11227152006882618
-0.7867931393071532 -0.7897342248180411 0.07583231619226834
-1.6303352648436158 -2.8935607644863763 0.051411773002063677
-1.646813708654046 -2.8975126963472726 0.05133357011456295
-0.1496952941667401 0.6301900559341355 0.1357703025003455
-0.22748872422958233 0.5600549731201393 0.10239670482170371
-0.7651122793972351 -0.8220199916680083 0.0938367339830245
-0.8165439193885985 -0.9076698401163771 0.10885042852088311
-0.8443979601040851 -1.0064367697737266 0.1017891817046565
-0.8684614293414097 -1.1039799690328855 0.09440464313604272
-0.8941824159748234 -1.1990777419616763 0.11076420847624813
-0.9125630930155295 -1.2751487696629875 0.11094802785859419
-0.9195062076306011 -1.370385484573013 0.12552160372808663
-0.9625565240378011 -1.513762353134715 0.1187133184730499
-0.995181847390188 -1.6107003555099009 0.11410588088434245
-1.0165881235857308 -1.6655652153967304 0.111536680879319
-1.5385931141319948 -2.9220781050706384 0.048950106855286765
0.7727375169708559 2.802324332444714 0.1351998194818377
-0.0907877424258624 0.6687026532026349 0.1313564635103384
-0.6740309776687681 -0.8812221459976795 0.10316296070903791
-0.9157357379542598 -1.43638083283394 0.1217944078136537
-0.9236652325369441 -1.5056773521104359 0.11818308009544858
-0.9804416238424244 -1.6010425588902604 0.11430257485155332
-1.028049377792276 -1.7267565989606026 0.10837286550651781
-1.0463368635044885 -1.793194632584944 0.1050493097305434
-1.07056638537214 -1.8903436431905594 0.1001083195749625
-1.089864102369113 -1.9547425301795167 0.09688084950750162
-1.4401162186877166 -2.950135864628772 0.046282685101425546
0.8495532534091914 2.8058018675032033 0.13318423369265522
-0.1550063559863114 0.20831413210630845 0.08544586449486768
-0.1444156660358037 0.12627891251897577 0.077048763585156
-0.1422457103119783 0.05203416081275625 0.06124471190180868
-0.3968411326022432 -0.5698378056931156 0.08682987291352247
-1.3506936066192383 -2.97472208761903 0.04376213063543502
0.9758308304250181 2.829801151018845 0.1296551669629442
0.015839589526804643 0.32500438434252427 0.03793334425354012
0.017932469011303187 0.29538371862768914 0.1081778952232176
-0.12230313845523977 0.07087372417192107 0.09065960418618213
-0.11986614205402746 -0.0011946147135731416 0.08678792810755191
-0.1338938022735885 -0.10025241976831388 0.08783768152992186
-0.1535667804382107 -0.17643057636490206 0.0841896400002545
-0.32368590077469905 -0.5748403419391146 0.0792085884771304
-0.43104253529723247 -0.8673445117896191 0.1324412550319486
-1.2547173516521013 -3.002217567994495 0.04083578600958014
1.0682574016261877 2.815729621128238 0.12735491014136294
1.0752661630828235 2.80170842686427 0.12729959768305926
0.13443349111193426 0.2993916238426258 0.07175445741356695
0.08546522004631996 0.2805961229953287 0.10868477772890761
-0.10519254603744 -0.15048766769508792 0.13497756617082
-0.11494765456926159 -0.18940399315413542 0.13502071791805287
-0.22742802452500355 -0.5832694661651443 0.09114502122494784
-0.34335889243180173 -0.9017360551836598 0.12658355032549423
-1.1520034830799288 -3.0302999856352195 0.03761094283514055
1.1706124695463613 2.777393001169114 0.12497669436251971
1.1563640300181295 2.7744970290243947 0.12538819992229214
0.18309289363343373 0.28629009980050585 0.09210777667939199
-0.14875322063035845 -0.608715165487082 0.08118818868341092
-0.2583559930814011 -0.947480181689266 0.12032173056557732
-0.2279407075469395 -0.9753127400989419 0.11759780497981029
-1.0971803098074426 -3.0385960806840324 0.03619974695325837
1.2325108015416009 2.754907371207145 0.1235106591330421
-0.17521695087321554 -1.0033942814307493 0.11370705535814715
-0.08566596219887135 -1.049653192462645 0.10712909178430723
0.015828489364927867 -1.08214517287407 0.10043454150989627
0.12560527304348157 -1.1060673683472386 0.09355164284370095
0.1000034036310764 -1.1035939220987423 0.09504557388259861
1.6603205362189761 2.557510631191821 0.11322292491513235
1.4363976978869764 2.073702893735155 0.12310226635440003
1.7060526555492987 2.527536316271412 0.11213502368942632
1.5205919846644205 2.033489576363174 0.12088450242070284
1.805107858581026 2.495852664433734 0.10950837214237744
1.6134443603799584 1.9902537723637048 0.11839422305728625
0.6769452077122606 -0.6022242161661353 0.07532505054072486
1.8859585679943025 2.481801213664737 0.10726056865773048
1.6624890676632929 1.958239791820789 0.11711558630496954
1.6964971499761916 1.9155663493036543 0.1163297641586751
0.7586235556792718 -0.5923547384696027 0.07024841072517331
0.7169811039050762 -0.6072211170867917 0.07263044658076197
1.741667479322955 1.8723935710899111 0.11519704349891195
0.8333277232213896 -0.6018844397829356 0.0652037174349668
1.373483961290021 0.38478034431476993 0.12986715044032815
0.9958513284093578 -0.5115875438080516 0.05627185113868519
1.1074807846773276 -0.47256651776668807 0.13443142938949684
0.7672738956090017 -1.410992927712716 0.13445048759759137
1.5846966505276179 0.3835296692157014 0.12298783934426123
1.5796456953026239 0.3635476264418041 0.12311181921395709
1.1828141827435468 -0.4551965256823621 0.13214022983590995
1.2077354047349262 -0.6154963810641602 0.13003857204089517
1.1526126054916854 -0.736770616585861 0.1306963661650093
0.865594809136371 -1.4730558263449482 0.13069682728989573
1.58748590366983 0.3398875826060328 0.12280449352012725
1.337690949869643 -0.682204226475213 0.12530549237894675
1.3032624820024672 -0.8086153932714001 0.12523849830190004
1.2909229941389404 -0.8596968757799219 0.12512786992494862
1.2673489195441074 -0.9567816233301993 0.12487705410744927
1.242703549252581 -1.0544212504483526 0.12459285351641927
1.2124972765951834 -1.1522742789744322 0.12441380703071406
1.1908744955055155 -1.2205997495782808 0.12426884391283163
1.153636485538404 -1.3036306272607203 0.12438042412914291
1.0156610526620196 -1.5659094379539709 0.12499338602056884
1.2278325784092157 -1.1372906900325557 0.12411625816560916
1.1906550758266723 -1.2540865850668643 0.1238661546046195
1.1757138355635453 -1.3053838024596154 0.12368948571645094
1.0993306624685435 -1.6020723933826544 0.12203223704144259
-4.2858619500452475 2.4424297999383904 0.2028081005589264
-4.298954610704745 2.3885081269049935 0.20319290200048368
-4.271897733251669 2.4010072101508473 0.2030734550883792
-2.8691412556743385 1.621089785440062 0.2062972062638257
-2.9528498499780884 1.484556049124037 0.20752601440341872
-2.8472741037696983 1.5603233011597233 0.20673446783246752
-2.877594316487626 1.500224483374376 0.20727090646218133
-2.7069145877121157 1.5130572556848185 0.18033176514751548
-2.633821887670865 1.5151666125179608 0.1750081214775323
-2.490371626954216 1.4954411354083748 0.20624192037705735
-2.5314644408025626 1.500567791219547 0.16895634967838255
-2.419516523634183 1.474931239212204 0.16725285661440634
-2.453076024086875 1.47781179568334 0.18469913608255656
-2.335119373459992 1.457729746730798 0.1769915469906641
-2.241792398090385 1.4316535509495172 0.17357334441545225
-1.7916986553867056 2.229435551834075 0.1926168121418969
-1.8192078890349856 2.1435987161184737 0.1940330159774764
-1.8511635704791545 2.0579273363633637 0.19547306207948234
-1.8677738214634791 1.9935359327379616 0.1964663146946456
-2.0995581874804587 1.4811664852493738 0.18167743416077903
-2.1271402317629073 1.401890117171275 0.17951378571811766
-1.8745156096386517 1.937933789655355 0.19724141742041945
-1.8823177985350248 1.8495618729066219 0.19843493800677947
-1.9087649169767138 1.7482654956507064 0.17198025249958168
-1.9348062379219002 1.6529756071132669 0.17167722040316152
-1.9511283092941147 1.5569409825642446 0.1743439331290567
-1.9962075777683643 1.4547316385956115 0.17578588482880958
-2.093039426361792 1.3827525417036957 0.15173874101954282
-2.2643562639236112 0.6676270862362362 0.1713033659363904
-2.28021583693977 0.6350865474829156 0.19169053481227072
-2.3569274140973016 0.4242788505415328 0.21265968193339813
-2.1939346038206224 0.7669720068234436 0.19115409873548528
-2.226624520429029 0.6981008072911647 0.19218048600280763
-2.269392670064396 0.6123745537141105 0.20778378789141683
-2.308516338577177 0.5157727593831244 0.21253833200339378
-2.3325432470157876 0.4050846772358656 0.20095452576460854
-2.344695438003086 0.3155799454833841 0.18996938537606045
-2.3663434739958857 0.21879725265528488 0.19187935772773912
-2.378044456525843 0.1464119047105636 0.19526394674597758
-2.3434151037257265 0.08445412125081526 0.17691525345947418
-2.363894300778683 0.003365524711801654 0.18730172519661853
-2.3953740162359676 -0.09645537669537423 0.19053205546665924
-2.415612825807409 -0.19451488920760823 0.1900616536141947
-2.4450556713303393 -0.2893886948669982 0.18830617823318707
-2.471430507966697 -0.3817381672103106 0.18510182481772097
-2.504434662237296 -0.5010249892132468 0.19116600629990685
-2.532862854368779 -0.5590815900829257 0.18173321222898392
-2.464512889347157 -0.43431324014230616 0.16189869036935084
-2.4930028724133115 -0.5133207090713029 0.1751736018146919
-2.513110845207305 -0.5976254516091308 0.15594824340781574
-2.5428249134886336 -0.6855812377473677 0.1524320399322473
-2.5631205706595734 -0.7796544424232088 0.14884217402225347
-2.5810192393125337 -0.8437788073300658 0.1462095546831933
-2.2416362402682757 -0.3375966198075884 0.20932683681277875
-2.4677399954218124 -0.8385946042228625 0.1494396577159273
-2.442245067865203 -0.8937225846050527 0.14809855366993596
-2.9395396478278935 -2.255048545956409 0.18105345853349009
-2.9675257122497025 -2.3561781262540733 0.17937355908586497
-2.9870734810338067 -2.5761997418209646 0.17546325453773487
-2.833527520442472 -2.3967621805325443 0.17789227687320097
-2.9003563033779267 -2.5888354685704007 0.17471605902526796
-2.6656979603481537 -2.1676545004084815 0.18115337125441694
-2.815895206324091 -2.612059338246538 0.17375237405368268
-1.971474454655883 -0.6158736787120562 0.2053815072665866
-1.9697999444702003 -0.6554768836583916 0.20473491843662683
-2.7313075744538007 -2.6392100386320525 0.17267162697499638
-2.021767774041222 -1.138399472500185 0.1457003259926241
-2.608400274645307 -2.6717890927272565 0.17115839334196345
-2.1772325980398977 -1.8004561650125823 0.18486868219564742
-2.574006395684841 -2.68625327280991 0.17061551564190444
-2.1148960328369855 -1.7956222325540114 0.1844860215314934
-2.281142508073441 -2.2587109545927047 0.17669496953027236
-2.418195859113623 -2.703231799122985 0.1690197957634177
-2.410842168147896 -2.717739873450083 0.1686669378645566
-2.322204057232514 -2.7323664392583598 0.16759429202374437
-2.346653770333953 -2.7384455329663213 0.16769371096217006
-2.229095224935899 -2.7547826167515916 0.16627727801305206
-2.1346725206318062 -2.7856374948931957 0.16472231990223013
-2.0388023788097893 -2.8314988284893694 0.16278397740252137
-2.093515175093743 -2.8320723059674644 0.1633499811757702
0.4056654917312452 3.1702212594957366 0.14021516283489366
-1.944737501917639 -2.8447009863252255 0.16148197974939138
0.4326069748079058 3.194294728510968 0.13930273687021538
0.3996702385565627 3.0960750980646865 0.14121104119405647
0.41499294703942113 3.015382014851775 0.14176798907048507
-1.839862093762456 -2.855071170539755 0.16005934748155198
0.4733426488514052 2.965632695328663 0.14092517880734842
0.49625928588118096 2.8922410692154794 0.14118100755118174
-0.31313942221732605 0.9222798758561036 0.13796207440384375
-0.3032908115442471 0.8606407632321005 0.13927385282073412
-1.7051913410000776 -2.8682780795150857 0.15814628334252476
-1.7406802695070045 -2.871630687324245 0.158515828464695
0.5592221622763975 2.862583773713782 0.1399522000285643
-0.24831602910092143 0.77907012933738 0.13837382698377929
-0.22484289401201263 0.7061522054807073 0.13876650330518392
-1.6052475715442647 -2.9093650452217275 0.15599455904477497
-1.6568356699119637 -2.8997066534211955 0.1568683578303689
0.6527394469375445 2.825937464527974 0.1380052781172582
-0.19722231723289718 0.6957549398742804 0.13733003259726712
-0.7774506250261528 -0.9361722689289542 0.14425416123056747
-0.8372094952136775 -1.001712132630262 0.142965024474156
-0.8712668168600154 -1.102145811532225 0.13871640650146105
-1.533324340149838 -2.929600926253886 0.15460386574793455
-1.5651462189182854 -2.9311600424630395 0.15499987851287977
0.7228238288132576 2.8039700460289403 0.13645913955846833
0.33248515588465044 1.7093820852931971 0.1572847468207939
0.3080073886150103 1.6844093103624 0.15817523464022754
-1.450513482633549 -2.958400892545303 0.15284816288481462
0.4435945436630986 1.7181995051351788 0.15414334801518523
-0.07390373444471632 0.2942575095985392 0.17677544506478193
-0.11937947219364653 0.19103581300500772 0.14412640328428747
-0.11604702145983836 0.13901635200719015 0.13809393477218523
-0.3784452263269521 -0.5550300028713056 0.14204738114571935
-0.6122770661410275 -0.9974559439715414 0.21388693896914496
-1.3557127395564845 -2.98688510923068 0.1508847892934299
0.5490641596658572 1.7153194021422664 0.15121414391502613
0.25300472383595807 0.8240513639329111 0.204329261751851
-0.009961381314532947 0.27425007635017695 0.17467998991978761
-0.08581434970403035 0.16480222009068468 0.1769363786127784
-0.0902893452511595 0.09103946423474926 0.16043542593742804
-0.08576051317362277 -0.009224153531183138 0.158784378844526
-0.10826525093666384 -0.10142543163481436 0.14612983582125416
-0.13571014446943497 -0.18061529478202815 0.13653133843717635
-0.32137912148703185 -0.5503814613217801 0.1580583829546615
-0.6921062972261616 -1.6082300499844397 0.23106952782175066
-1.2593563813372737 -3.011961462288281 0.14891832275458247
0.6426707448765112 1.7241769189669898 0.14849713393964845
0.2997793311136805 0.8760500055505703 0.2043206834122413
0.29147241770073595 0.8086532873404991 0.19118357466536484
0.08606320539352619 0.2555105400121488 0.17153239204928042
-0.08509209214674618 -0.123252433536071 0.1755134937380881
-0.18667141128571252 -0.5579596307107876 0.17434070995183826
-0.24089586951272135 -0.5467357797730052 0.1761145388350842
-0.6540684471408136 -1.6140119760783238 0.23077699016777425
-0.6721099134626721 -1.6723370519223946 0.16684170414256821
-0.8019421958579236 -2.097287586984338 0.1606032399223639
-1.162020316989146 -3.03376971468928 0.1469528060751798
0.43758123709473384 0.8160206395752001 0.22388961370122273
0.4012767233574055 0.7487941763201135 0.21446062386387738
0.2743712675735268 0.43828422511541437 0.2201810044618685
-0.11469624856082306 -0.5831148242997453 0.17184900150902838
-0.583446190497152 -1.8956928755880926 0.16045948611794064
-0.5999922667380734 -1.9158980854508856 0.16038962491540365
-0.7091899870204513 -2.1330498738635457 0.1580948418614414
-1.0627536515306404 -3.0560450879603667 0.14489454342691827
0.44407709544061236 0.7100087985454815 0.22281553830286832
0.3846408090821951 0.44268579829868454 0.22041917977085906
-0.06403694601537757 -0.6021567515143835 0.17007636651229868
-0.576404958613642 -2.0133289999640387 0.15791675495246854
-0.5751826695548852 -2.0963377763168958 0.15619417521224324
-0.6204390392614091 -2.1556566991494175 0.1558851857514763
-0.961542470109788 -3.078221616513093 0.1427525945992086
0.6508664670499975 0.7484548731380073 0.15320089701141065
0.5055186701134249 0.4198108544157195 0.2204883380479623
-0.3216462647515712 -1.5798442824833854 0.16089127787056157
-0.2806338255668739 -1.6393751174540607 0.15878580385838392
-0.47601336382675263 -2.0901825860655947 0.15426514031466568
-0.8640171630684346 -3.101898458829554 0.14059038113983457
0.541391294884991 0.38207677224031644 0.22030880879535508
0.5596639097979099 0.329202576792647 0.22000863405759474
0.02328112685211492 -1.1707774378386653 0.17492055942699816
0.02016752259460408 -1.1933810380385568 0.15899849299882932
-0.31168878621393215 -1.9968248027413358 0.1525676082111922
-0.3680045056941934 -2.0480081374787913 0.15279553581977523
-0.41476936979569656 -2.13519362660004 0.15206000922990426
-0.4428309852984478 -2.183419555544522 0.1516821168774542
-0.7286757040431572 -3.136576470970756 0.13747282962830007
-0.7753900303378282 -3.1298640471271515 0.13844748512718125
1.1053431651888304 1.4610626231268287 0.13653045958902543
1.0355263335209963 1.383792353862186 0.13902693577570507
0.9243706359991515 0.9894499439858141 0.14399581217590152
0.15604691197511422 -1.1024543408906973 0.22107578734950845
0.07799495361441111 -1.1502465799010126 0.16512561352953892
0.06462549927496375 -1.2760993151649966 0.15643287184346982
-0.09799309322837146 -1.7353092284341258 0.15257620423534238
-0.1585197434723905 -1.8894311064452973 0.15113067019605908
-0.22802282742280655 -1.9967904093801874 0.15067314113742675
-0.6681042330492459 -3.1485280384569205 0.13612314788976115
-0.6963473123719985 -3.1559933496327295 0.13648053381926256
1.083714377134618 1.0644649518671547 0.1387858952237381
0.17855204590357454 -1.1130105026637889 0.2211129836154464
0.19191178705639866 -1.1681664178130156 0.15460039082143456
-0.07214179712310331 -1.7544141212259359 0.15158724326101736
-0.009493462894909488 -1.8306041083340372 0.1486363446717621
-0.14308411159860857 -1.9590001683038731 0.14943694526051393
-0.16197724557253423 -1.984360602023696 0.14939236359263855
1.1472397488501624 1.1254032344496037 0.13661319003945177
0.28566097220478603 -1.2273373332681856 0.15103795085305077
0.10127909988132888 -1.7138707971326046 0.1479630580882121
0.045982317299696485 -1.7720082861730229 0.1483237794680413
0.01677314445859257 -1.8349358667136955 0.1479067865689011
0.2636178459054166 -1.5613802342966099 0.14631678114786004
0.26267714995288727 -1.6253573331119175 0.1452694099306424
0.19761750919520482 -1.7150913600478312 0.14544726905241256
1.1064266085888226 0.38408068783718097 0.22149735413890587
0.7383825968843751 -0.5670165576542049 0.14543418423393567
0.5327601184704023 -1.2605457904657733 0.1434350325074179
0.47169666409676236 -1.2999628082585937 0.14462474248357982
0.293235047427274 -1.6906977330898796 0.14334728396782537
0.2781503133056935 -1.7172542593661104 0.1432938767039658
1.2148535358726174 0.37568286241104415 0.22167975225649011
0.8387741543981506 -0.5685508257415565 0.1422274611065226
0.5367065072239818 -1.2882892747635217 0.14292100569367613
1.0291292077988994 -0.48754760538261904 0.1368315835233644
0.9946621520230521 -0.5292663611023889 0.18065101038767634
0.6309593592942624 -1.3195734453643708 0.13973001370517574
1.1188495186496838 -0.4967646866587461 0.2191456089114761
1.0496066015295045 -0.5093829287278044 0.2190328240269021
1.5980169588153241 0.4046227339452679 0.22267016601120243
1.5584444483297866 0.3127243305616922 0.22208699394709713
1.260324938662839 -0.4360157061379833 0.21939595267398349
1.191831666944123 -0.4702456214186191 0.21926814737979566
1.123823242294639 -0.6221942712278234 0.21925885890997143
1.60357662217211 0.3804324673797996 0.22254714045074214
1.5818069423245908 0.3197205642876745 0.22217711618310132
1.5558484539393544 0.2195116926127278 0.22163162361053673
1.535569625915896 0.12223509362178182 0.2211712316695313
1.5063512700377506 0.02187783622188578 0.22073992641501627
1.4796398117936074 -0.07732923791359848 0.22038087278014384
1.4563904561373138 -0.17029975151334625 0.22010691792374537
1.4318843149300562 -0.266493984298409 0.21988376590647668
1.4060280217483954 -0.3572652269741079 0.21972378798726006
1.3124241331817024 -0.4055861600892363 0.21950514556013123
1.3313968970736083 -0.6992007596145638 0.21967133611157091
1.3057775403088676 -0.7547810583549692 0.21972186554223527
1.279371497155896 -0.8547498138400935 0.21989067109415772
1.2547457082359619 -0.9508616481934937 0.2201176504689321
1.233188494834127 -1.0493325851429822 0.22041733496129312
1.2079404904051307 -1.1459459550152618 0.22076947750025572
1.1784553962290374 -1.243621019533325 0.22118719306305373
1.21761872342857 -1.168453778224593 0.22086317530176336
1.191482722378414 -1.2441867313693749 0.22118958175647252
1.1605252096030056 -1.340707760090187 0.22166068615875056
1.1488694181329688 -1.4489469609552414 0.22224814300093898
1.1166573038591194 -1.5462468847700315 0.2228437099340439
1.0871408560838967 -1.6419337528164641 0.22348292184621926
1.0623294999605173 -1.7382319412463518 0.2241736106746241
1.0457810185872674 -1.825454795316028 0.22483021277845572
1.0155069529423575 -1.9431784435731356 0.22578889908977434
0.9898287083768038 -1.9985648185817455 0.22629077477610843
0.9416024563267149 -2.1551471781494733 0.2277384463920744
0.9976437419851061 -2.0276782493747403 0.22650939630545097
0.9704663505292761 -2.1294228518165887 0.22743231141005804
0.9384223947323453 -2.2305186169061413 0.22841316274559215
0.9136266852750747 -2.3193020618212334 0.2293010311861977
0.8917391593589354 -2.41479694748971 0.23027379157529815
0.8727085269346304 -2.5180741644694233 0.2313428456155665
0.8559434492697016 -2.620292895583366 0.23242455869694956
0.8376148169997224 -2.6946813177724676 0.2332583044634557
0.8109283314687985 -2.772617149620365 0.23418861454588036
0.8265165005011876 -2.7522466544613735 0.23390107772870972
0.8044191008680996 -2.8262992268982594 0.2347820423931924
0.7844022711957759 -2.896123559848759 0.23562437638803468
-3.038211618217031 1.4836946289331348 0.28675035156297657
-2.8901516307968897 1.6253877975246005 0.28467803324737856
-2.9364746056117044 1.4670257516172878 0.2835698581273246
-2.986252392203526 1.4428882589600063 0.28465346591951396
-2.85865232027769 1.5646325876599845 0.282845301751543
-2.887101063968739 1.4989364272545957 0.2826393054700742
-2.7123867902912497 1.5022105302021571 0.27777582251400257
-2.637566936609753 1.5064495425773596 0.27578003019098163
-2.5372510740783807 1.4935197669910178 0.27283603973419573
-2.416758714412306 1.4696610279708753 0.30714972114953154
-2.4485538580454724 1.4724196323459398 0.2860313164479515
-2.333911244438557 1.4512340189611646 0.2971356741326332
-2.2414242937418933 1.4258826788246763 0.29128631587866405
-1.7867251613352888 2.2284522539566396 0.269463650111322
-1.8113415717144243 2.1455577430719823 0.2682315048218314
-1.8373404475857313 2.067273688506089 0.26713834845112144
-1.8647331598793624 1.9974221010558102 0.266264550976689
-2.102914038665417 1.4765185593917758 0.29281482743689785
-2.12766357001825 1.394152394707993 0.2887204675309501
-1.8419222283622907 2.0376073357923894 0.2666224105375652
-1.8646522221257513 1.9466026479966907 0.29920397957502004
-1.8782765725983173 1.846729478543691 0.2981783115477989
-1.9035969017375578 1.7559823128471719 0.29343258272857103
-1.9300343187747324 1.6576751648199621 0.28923569970721125
-1.9492231070226453 1.559884634205354 0.2891844299367771
-1.9963785081657195 1.4497952075770202 0.28364573954390876
-2.064598109471385 1.3927061948253923 0.2946497044262233
-2.288411017934287 0.5970856466579686 0.3132418090918217
-2.1854685104939273 0.7610710088226816 0.2894545610577063
-2.220927385058489 0.6937871959710021 0.2923511019870633
-2.265445457321981 0.6046947585343305 0.2913990985663192
-2.296016329180858 0.5098022567437538 0.2914520163615031
-2.329304825269187 0.4148444133922597 0.29169877905040514
-2.3399724812167824 0.3135816514383243 0.29018029625540753
-2.3598839050696494 0.21452346385481397 0.29033716952275834
-2.3710471127925423 0.14719590380378456 0.29548867383227095
-2.339504305419699 0.08608931883264052 0.28801044600964565
-2.360924860426515 -0.0019118925135001158 0.28871377528166553
-2.3935817690542858 -0.09535912393112138 0.29348548312055844
-2.41205282071384 -0.1899367050569825 0.28061540980706307
-2.435938235436838 -0.29280675500532377 0.2737620730639168
-2.463161092871813 -0.3877478721091444 0.2769270717116992
