ply
format ascii 1.0
element vertex 844
property float x
property float y
property float z
end_header
3.9920747177459286 34.200528438759704 0.09045289706344255
4.817540609936465 37.619940582022295 0.07308177225313083
5.026898402264681 38.462203314513374 0.04529092004864338
5.02639817091752 38.470160141900614 0.04977502318475053
5.368492289594282 39.84505464204681 0.09157782184656876
5.443717748184948 40.60594451406327 0.050109545609507714
5.445722579146677 40.63279912297057 0.0333789259841414
6.521355079954831 36.26389340242874 0.16988799883965766
6.600929933923247 36.42916848646475 0.18095733831766103
6.60239946813622 36.436517125680176 0.13955519462830926
6.675348545219759 36.7169747113486 0.12160262120171787
6.680219822960936 36.75175659184572 0.127416297172227
6.699852174270933 36.88855437372752 0.17600951404207094
7.572613680878224 41.08935605755144 0.15854632295291962
7.620594246297012 41.16576934311413 0.14886459735065063
7.6646986083463515 41.381264101565584 0.1560799177766267
7.701360380329505 41.44257810613641 0.17525010596437027
6.111833497290399 35.60312561087672 0.19442650506439013
6.469582230514378 37.001064580482236 0.1610385453543368
7.285262207498153 40.34518782365188 0.16916723720676485
7.327729195266232 40.41252535113482 0.13370397484416605
7.443622157664349 40.83531090209192 0.10955291919075709
7.4719965318599275 40.88951995974019 0.09736129150211413
7.5183086590424555 41.1375146075274 0.18495693671481703
7.54706229061139 41.18857550969287 0.14464686266350016
7.591679061431866 41.295432441372974 0.12357310627373368
6.4472426492335435 37.0575943159667 0.16294361421130374
6.457999715483483 37.09035210696917 0.1616300902808674
7.142000919173856 40.168692984347764 0.1728689386311761
7.396827229121875 41.5653335438064 0.12459648472036197
7.41509499319954 41.61490563379313 0.14308873986798923
5.9120748497723845 36.06614388948735 0.1467144062678892
7.263269377075876 41.59377035339381 0.12013258128631166
7.287680562247951 41.64566749980161 0.15973323947537627
7.315005808499586 41.767708549021044 0.16674035472617474
7.359365248923958 41.86751805917056 0.1563618434906935
5.9088534861528625 36.068769398404896 0.14265357814114174
7.211111217351064 41.491813605085355 0.1285982259194026
7.239634242591928 41.60024516847264 0.11888360156566179
7.265888013178987 41.64489086748613 0.11730914098916012
5.590793365298175 36.14078603339792 0.13179624469514914
3.7874863996989476 33.19136159215576 0.16598882128238251
3.819120526380756 33.22581310251944 0.20731829788936657
3.8682498691942886 33.349581766736996 0.21218578163258978
5.080421772649929 38.51973170439807 0.1656071361770472
5.379160285752256 39.75402006682108 0.1571373333502455
5.579303132056325 40.55479506293749 0.13506329207769174
5.580322389666939 40.61313977018933 0.1608498434452734
3.949640377750075 34.134019642215634 0.2015227325854291
3.9956289034659096 34.209262873976876 0.15402388094374672
4.354256711789805 35.635999590679404 0.15059898067788136
4.813398497563185 37.64366876825519 0.16887207377650235
4.815157085015164 37.71129221591517 0.1908570780660845
5.371122940951095 39.80730107233969 0.1452494139289283
5.356179884861237 39.90262865842268 0.14577722905553397
5.5611782243725525 40.628528838244904 0.13380067792398934
5.448367573295922 40.56448917732291 0.15487814300759786
5.442728713286224 40.64362391158044 0.14954922202888823
6.533816085214648 36.29713533693362 0.25732758970261094
6.587600858895532 36.3977327925064 0.25833818629513766
6.603397193808055 36.435463900555135 0.23411711040615119
6.693470464595224 36.89017166135684 0.24751386668365918
7.5073017024975055 40.92728037944263 0.22929498093131773
7.539470823088696 41.00333468403772 0.28225356197039797
7.5744080987333176 41.08634779435504 0.20210655534057878
6.127576016707258 35.590203860281086 0.2538746856716815
7.28996658277874 40.35385596902486 0.2429504172572879
7.315092330794967 40.393957596605034 0.2597408361187254
7.348093696927066 40.62799946898101 0.29120840716676916
7.427024311674826 40.783776255897024 0.29161346038470554
7.49083254463717 40.89175321710389 0.21650583416767522
7.513143834225854 41.12070464105821 0.2341379781446504
7.545002391728615 41.18662203830583 0.247686756239946
7.219581913138297 40.34650393690394 0.2822370280951517
7.391190712321311 41.56778065119863 0.21998617909162263
7.40651976839889 41.63665434686901 0.2324347223380261
7.420104895505085 41.710033170992894 0.27543897189455785
6.580877274653918 38.778561586439174 0.2684596083844783
7.283073848092908 41.616605079844405 0.1970018110727964
7.300653833455255 41.64313554675868 0.2439881063587817
7.34731336256314 41.75966781505238 0.26598205141036463
7.379429327370284 41.84816569600393 0.27070344776476457
3.8169350131930186 33.24270749120195 0.2986342830969345
3.8602510484751598 33.329809705139276 0.2925714929743364
4.033953901386814 34.2611293607182 0.2991266687712433
4.0853995563791 34.34113801275198 0.32426169904711644
5.0746416393973295 38.52861700979893 0.24514039043384206
5.57764904207939 40.50126292050428 0.22035910606808023
3.912763115007447 34.07302152967036 0.24351105834402786
3.9669000481049563 34.15339783494579 0.29825403043280113
4.794040909883658 37.6477612139112 0.24574204354875923
4.783750503882586 37.73388527566126 0.24459608131079685
5.3490279208452876 39.98262940226223 0.24874067938254912
5.352207889511062 40.07123238969446 0.2577987814396296
5.4227753217010815 40.29575336270629 0.26587017979092553
5.450354504748589 40.385910291150765 0.2418737939294749
5.446262109836765 40.45395339213059 0.2417878900859327
5.566177451890428 40.59784365358608 0.2954006903574479
5.566981594333855 40.62628188923834 0.24473935278978318
3.8134729671331815 33.89521887011812 0.2974982230585553
4.757907223994465 37.70088830478804 0.2401960507772249
4.763271521590096 37.71594754226688 0.2413367209401668
5.375203903516256 40.281658649699324 0.2833031096865382
5.436335997394707 40.487287356999396 0.22585271167711743
5.446114107796702 40.58752131518947 0.2161823342042248
7.2532429850525855 40.27096077306956 0.3744249024073974
7.259570120530322 40.29499315349982 0.37570111921738397
7.313447028211992 40.54201259382976 0.3328289909256519
7.351607398845108 40.62116266429171 0.3520116196493744
7.394626892667608 40.720662069378115 0.3358178719037214
7.433804600319675 40.80056082980308 0.36784261347211045
7.466330186243428 40.925442183723 0.3661895736011943
7.465345320497539 40.992776480938296 0.36997862533607156
7.499681350662829 41.094199670076804 0.31484591060546946
7.152576180091322 40.198616533213354 0.3124696925444988
7.183318150155826 40.26211814777645 0.3290828371774308
7.218853674083578 40.344214200474354 0.38417827588518927
7.2898957273761456 40.484315338047026 0.339820430278771
7.300416414811029 40.513219548393636 0.3189263839479096
7.406961767986047 41.63245311524113 0.36059667405208984
7.427440750883109 41.71752262967088 0.30920339541999114
7.355697062168476 41.79419409794222 0.3415692835687182
7.37184339377675 41.83880754457519 0.344726997690049
3.775118199420807 33.188621821401114 0.3854829378918261
3.811582071347355 33.245892936651124 0.44347085749364484
3.8513683853967597 33.32146234668622 0.41905277468948804
4.035868114895376 34.245917229530185 0.4046512396533226
4.055184024198424 34.282528188082736 0.35399366937455595
3.753168784566292 33.14585481418039 0.4061741056735166
3.988526457219189 34.17656782457235 0.4092232014191683
4.015664791426083 34.219924704892065 0.38546230401335896
5.562764210385126 40.685560498473635 0.3764845580808218
5.556674559517697 40.71086237619009 0.3974044767690787
7.251540302218599 40.2511717912698 0.4396445398369518
7.283858735634067 40.33499786268139 0.4540782065032713
7.310629806446936 40.53401567436945 0.4347040419593438
7.348205669662731 40.61189350509342 0.4560837020103107
7.400484084801812 40.719343857223656 0.482113295906992
7.496820657249103 40.94871107236415 0.4061898825387364
7.510766927316932 40.973848986990234 0.3962343583634797
7.209536581101088 40.19207925894927 0.4864581829009091
7.217933315092153 40.19867528650374 0.48253202689135705
7.263922170664458 40.438034221895904 0.41152676178635034
7.427616416339677 41.658477845007404 0.44569483057503295
7.4406475836772294 41.717266737424765 0.4363489568026069
7.354883154876502 41.759522735405724 0.4157034587991374
7.384654504721448 41.85827641349913 0.43742984883606245
3.7883158743582452 33.194814274751494 0.5039256667762393
3.8077151314298003 33.229155436164405 0.5088167057110944
5.622386397435612 40.68029674904289 0.5007382860181325
3.7244271430287026 33.0493543252079 0.4660208136801196
3.8829560681811977 34.00339897356497 0.5280960261517078
3.9276017471388487 34.080113100738195 0.5205250656832239
3.9640408546253236 34.16389977024456 0.5171465759911752
3.9853289808810537 34.21511084400155 0.5141601678818994
5.339316365312136 40.01089353938051 0.45109830250969485
5.365101628578073 40.0912446500552 0.4370514966956199
5.401312790090148 40.17422236956259 0.4278884725778122
5.43596213858541 40.24704721788686 0.4287970744142443
5.446694741446223 40.37024152109622 0.45580082486134504
5.449929287060454 40.48914211257375 0.49169452780231926
5.5579921036471225 40.59506356669988 0.46419018526575817
5.554913393941951 40.681789620500375 0.44736927821508693
5.558000235108698 40.71615385647323 0.40903267915517877
5.3271515111664 40.04830957332007 0.4651990467099025
5.442442207531139 40.56449927252599 0.4912718798129111
7.552643103307895 41.039645984289166 0.5891016015649919
7.337420695226214 40.532287022975474 0.5427280934496388
7.372786569783947 40.598883536878944 0.5431587871374657
7.414776593505929 40.70886061585437 0.5569208779010988
7.455032910609292 40.833599958901424 0.5379603292879166
7.490228066161373 40.9111019960529 0.5569524421985627
7.52700969390166 41.0407414896072 0.5426800001123041
7.051845354018516 39.897716057179935 0.5588294106332146
7.075982259397944 39.9458477183611 0.5776397484184708
7.228586635281375 40.27067691396654 0.5062552769000535
7.035638935735303 39.86365834836571 0.5394520241904879
7.496041968642122 41.92999405296538 0.5221764949024025
7.510761439592313 42.01320376070143 0.5262093360473462
7.3468891915120595 41.666430986609896 0.49984765675860515
7.382059695159878 41.804197795752316 0.5103631613890024
7.3861794456112095 41.859171709536824 0.5115410914037103
7.416547230898631 41.93919325599286 0.4982874100737272
3.771091924332802 33.14572872529801 0.6242480105855062
3.8038479656722464 33.212417008778715 0.5741625000557422
5.593047407878002 40.672536054581535 0.5076145220385424
5.625862451723462 40.73748588350842 0.5604561322950311
3.9441462839049954 34.13224230333997 0.5620804691462659
4.003432063754241 34.22608540870105 0.5605148221569756
4.033655197275252 34.295663270611676 0.5539756591409603
5.5527189750291175 40.59345537835087 0.5725484586941246
5.548328465498671 40.652194476274 0.5541025207180552
5.597022496510088 40.74196681062544 0.5559959954733761
5.4427136729536265 40.59671683047454 0.5547402468452072
5.42499389793642 40.65453672464839 0.5833222700949542
7.60317201503458 41.14447980646209 0.6183060126454188
7.09783387896892 39.982763206461435 0.6213171082164927
7.131497469235732 40.18584211931352 0.6164664655338448
7.1504928633569875 40.226280844791695 0.634270178120872
7.228326742130932 40.38503602467718 0.679026315729776
5.539188451591931 40.661484095314584 0.6500838238120275
5.449339686047935 40.58834394114781 0.6334830259064026
5.425614948328525 40.68593745702164 0.6482306600114472
5.805315598392774 41.091671597600225 0.7857599444595964
5.911345814466873 41.48021442047701 0.7515915898596484
5.792703306009476 41.088335442275856 0.7887159718536283
5.895781116775254 41.52523911579838 0.7511679973391069
5.8821505311135525 41.580695333103236 0.7715025521602055
5.880102172350691 41.69379963389686 0.778882573112404
5.539600149764503 40.69391319596878 0.7191163075285208
5.5796231012670585 40.728200971482345 0.77942675227687
5.569875326100963 40.83814829505927 0.7652045534690158
5.44082588968302 40.51337054401085 0.7858880321864671
5.42917040163144 40.5838370194955 0.777287858387404
5.422966571695175 40.67981365943419 0.7388280031068772
5.534345348036949 40.88538687469702 0.7779119300376393
5.544995467557918 40.92173242204465 0.7929550668511224
7.563925302684732 41.19277087376204 0.8755108409680845
5.805943917145831 41.126945303001115 0.8042079564631698
5.621916522514655 40.67761190632011 0.8230950541050771
5.634587709203696 40.73644874747628 0.8394646280125229
5.68041472532043 40.848360234448194 0.867749172495149
5.676007192982815 40.92713805791375 0.8764895351505402
5.687657727922993 41.036525019139425 0.8831599833075521
5.757138263102645 41.121283255521945 0.8322399148200548
5.921828306816805 41.682160249754304 0.8053860883907301
5.933286694682713 41.9923671917238 0.8742946775094004
5.595625313287506 40.73378350064493 0.8203375904760932
5.87755494960493 41.89993676024351 0.8017473439135046
5.8702210757479145 41.97568571429749 0.88907554606048
5.431334681100024 40.58603047155674 0.8467829900026491
7.598301674779685 41.205662293249226 0.9094508504828747
7.640631408690178 41.27566042294266 0.9586984427425927
7.6615206273304075 41.39360807393283 0.9570318950622294
7.689726568674466 41.46807060849105 0.9896773346528158
7.163320491499493 39.89184139726979 0.9155799233486619
7.18451495871181 39.95600047751081 0.9294818447996912
7.201817466889516 40.03274825508392 0.9444842974098558
7.23536345526377 40.12668259302127 0.9601339438638317
7.269825342092253 40.26204002031917 0.9651429540058151
7.282779882112098 40.32279566296018 0.9482855831066745
7.172330150893817 40.069699708475355 0.9494122551120192
7.18302431671304 40.129867241586055 0.9467606594591262
7.23374606248114 41.35653156282012 0.9905536290313994
7.273503942141802 41.44085164957584 0.9914406742239403
7.361718351472712 41.66474435155698 0.9787519363459488
7.378797745062257 41.74821351108104 0.9794297642488438
7.37422378550211 41.858472095227555 0.9801760559682545
5.578689279817494 40.605788316208844 0.9853745724201525
5.68290764865061 40.932590380931394 0.9422855979753864
5.569372325405925 40.59878628421755 0.9296747535666846
5.574291855569744 40.653768447154604 0.9712977778436035
5.568479593405058 40.74845276971925 0.9885150739626216
5.854008697279932 42.01849558071148 0.9018054201007107
5.951949059549547 42.24147059893825 0.9162165609178263
5.955060383782864 42.35458394942578 0.9522308560385019
5.968880485081475 42.400934823176705 0.9610824324705021
6.014320280263442 42.49437621205733 0.9305242665675357
5.430091819682019 40.58992001760001 0.955054053263982
5.422331547175015 40.671240844876394 0.9282262849917754
7.758417797131125 41.48401064844752 1.0559868944980964
7.776226811108089 41.59214041093111 1.0842357503446882
7.694030290506091 41.353470508731206 1.0221651394211935
7.6844229514090605 41.48368731492663 1.0369795216323416
7.745121297589608 41.56233291540271 1.0702640837933732
7.536329475267807 41.42083355131017 1.0560981452589289
7.573986156556138 41.47969928755963 1.0790948071916109
7.215642716948437 40.24147384169494 1.000693561150569
7.510836290122148 41.45165107257405 1.061405782313219
7.221840903714584 41.22216958564855 1.0820529616224248
7.23012072512702 41.366880083587546 1.001638281007958
7.267315887767744 41.473543763921946 1.0204306137100723
7.306063596577473 41.586536776551334 1.030002209158457
7.303119262286799 41.66489418007646 1.0803599200379417
7.3939243340516 41.754069439999874 1.0180833382307022
7.364209723875695 41.88843935847296 1.0118138126391396
7.3828474257713035 41.97885372290868 1.0604634054666455
7.159800107708949 41.224300282222686 1.0348138340220439
7.18547120455758 41.33233942134127 1.0694726971799333
7.198452810772433 41.37014489690005 1.0906378214809582
7.310416061263567 41.86167969099 1.0470017191179382
5.576080348482584 40.60491971634032 1.0324737029134616
5.568103675600951 40.62749791595477 1.0470808485528351
5.547681367044778 40.73752418026108 1.0313339238933013
5.996547760014174 42.52182417571575 1.0123747571007884
5.424424651661277 40.62077459437485 1.0588257782879722
5.423383967967835 40.64726516158727 1.0253086587734386
7.641298236843041 41.24476176747529 1.1113838957366746
7.678068179920611 41.51325076226864 1.1367072780166108
7.700027167512636 41.56363629201513 1.1291827352373758
7.714310871730355 41.689509287383565 1.1361231400248732
7.601321934031298 41.500054040362855 1.101226198432244
7.6135398167217225 41.57325535014505 1.1178719083432465
7.619204765014236 41.78360306632953 1.1679128019724583
7.490615697998906 41.62502580274865 1.1353446258796016
7.54124674564417 41.73050898398415 1.1642149133426292
7.550323891187736 41.77801039774146 1.172802842371026
7.333250302994755 41.36648429108152 1.1238338569143438
7.370008367593438 41.44123731488271 1.1478883926739611
7.435725614676706 41.576903175406365 1.1367019298786663
5.437420239962892 40.57647836686296 1.1538712450103095
5.420370375124193 40.662997113414754 1.1404740175452748
7.673295255904717 41.951552765072464 1.2127160070493794
7.613974081165639 41.83419090909935 1.1975095604807995
7.633788675520686 41.898162309309704 1.1984652049464977
7.39379429897508 41.528443537143936 1.2158168852679156
7.494060725058056 41.82781900707813 1.3345415849965234
3.134935676255298 39.064731263469284 -0.262650041383977
3.7911812852543534 38.885879556302704 -0.27866152738419797
3.871591719069862 38.873026820579604 -0.26767780817166537
10.989121007832864 56.43292469397589 -0.2696531159369022
6.623087420679283 44.746862279873106 -0.27948901664275827
6.571511093300305 44.531679855461455 -0.26705976690034233
4.37438812253014 38.76064799540033 -0.27679281582630244
4.441386276412647 38.755735247918416 -0.26770905142246676
5.884761903962075 41.727178206657655 -0.27150859976853425
5.857269426029754 41.631377848207336 -0.2626515552103516
5.574017979889314 40.45375900783487 -0.27637396653165397
5.549225592028794 40.3525268984629 -0.26367840816891897
5.102962831717123 38.53721969200723 -0.27961092801311743
5.09017910960613 38.48528870661339 -0.2680695565134247
5.263775929134016 38.556514306661136 -0.2771931178822456
5.4785606514474905 38.85431366332655 -0.2754038062456907
5.465759358616503 38.80922664013187 -0.26531107861676173
5.396625635847532 38.56746798360667 -0.2711256084707412
5.336255625863947 38.5402021261028 -0.26764278412462755
5.4044246225005 38.53290094978127 -0.26141959208435755
4.480259410142592 36.030622651707475 -0.2701895277871729
4.464069228382041 35.97683767140256 -0.28247546629198583
4.189198524512123 34.83343954511432 -0.26108714984303677
4.179508190342959 34.79443912747469 -0.2668993149930818
4.169739675518205 34.74597951289988 -0.27393743295227535
4.1520379259399425 34.69350830468871 -0.2822124673223483
2.7336464957899764 29.095086272447293 -0.26111489393566534
2.6716165677455237 28.71096765581743 -0.2799156292937403
6.525391577220567 38.4396717600899 -0.28109725750272896
6.509210476993437 38.39452305738009 -0.2682350354226462
7.192254022187962 40.064658980103324 -0.2658301772218283
6.0164881712952 35.39385898658876 -0.28077746106388934
6.068857621294353 35.41373772602552 -0.2781159946865187
6.028467378293099 35.393023205937205 -0.2815287244802622
5.990919995489829 35.199857786459816 -0.2616374628165741
5.977282333836954 35.15163769498935 -0.2721042782914507
6.354279425354076 35.533434755800684 -0.2695157788276084
6.340601585217978 35.48310887758136 -0.28048637209577687
9.511732238189023 55.629244348920615 -0.24793504489757467
9.608560066839438 55.606280434556105 -0.2477030800196902
8.659810781706803 53.00697473937953 -0.18952267400396025
3.258429481015267 39.06119405564422 -0.25001338828193836
3.2342316189178786 39.030880362549226 -0.2499275561208929
8.748124371452015 53.01595350273727 -0.18992726228006324
3.417287452476897 38.97983614347287 -0.2275760413637975
3.325552002720923 38.98639112322582 -0.23720195495088914
8.83056241417545 52.99308254114434 -0.18963949411091413
8.408048314942171 51.924757742281486 -0.16570438596136836
3.4946316389475593 38.962533168593644 -0.2185714467968161
3.4365190116087367 38.94382546874089 -0.222692757074042
8.887445866765443 52.98809268116481 -0.18961184612187917
3.5505824200129377 38.96128321230848 -0.21305301746964675
3.6779612375586876 38.909724701913 -0.1964106792873696
3.7568792403107327 38.89675961714189 -0.18782832837599125
3.8687949078534105 38.86967832287 -0.17502334485883767
3.9779767949751523 38.862544858501025 -0.16446021861993607
3.9602163171912244 38.85254366516045 -0.224855455347658
4.0792772638777155 38.82974189485924 -0.23873285515427323
4.026895054911662 38.83575255456192 -0.24535827834681356
4.170678969465511 38.803493278378724 -0.22539905775003485
4.2632397645065225 38.79017834537461 -0.21374777856191052
6.523847057823066 44.33801458324294 -0.25591321722224497
4.3604485077211494 38.760423172469935 -0.19975236634084043
6.479624475370653 44.16402311548202 -0.24585671430426437
6.435927553912814 43.97980068880922 -0.23526949675220177
6.395756291233941 43.815258535791614 -0.2257749388599613
6.355202315217447 43.64058739771454 -0.2157487300133618
6.318754295352196 43.503603960092214 -0.20783704331951725
4.455765785087537 38.74137492321298 -0.2012618049861948
6.284034433996011 43.36833512630283 -0.2000703162579629
6.249623283316528 43.218982387199205 -0.1914757887791735
6.216144826966923 43.07143149065015 -0.18302479842677813
6.183573239691619 42.92578629073154 -0.17465439846147707
6.155235867029805 42.81974829293151 -0.16857783410516125
6.128438449995656 42.72158614898311 -0.16292349652791338
4.531533654894674 38.71918183352817 -0.2080967911871608
10.044192316706745 52.72994036320411 -0.1876897256393329
10.120299439996632 52.67978170805092 -0.18691367833545627
5.83125347732309 41.514454353455484 -0.2518814897994461
5.80622640465118 41.399394367964575 -0.24129236257717301
5.782229256119213 41.31011038952544 -0.23307049786462053
5.759418080463248 41.21672301911589 -0.2244816925790091
5.737731243030205 41.122184086415345 -0.21580874309477618
10.201830473731249 52.650521882745814 -0.18660706969263227
5.709764026245034 41.018560217493636 -0.20631134327269837
5.689523712786186 40.93572863139453 -0.19873343998184734
5.670316427961861 40.84684171947712 -0.1905959779674736
5.645349284923594 40.761692137664326 -0.18283235341105025
5.616902678454665 40.63670901538079 -0.1714373592040359
5.595586916230496 40.546940449348504 -0.16327748903043798
5.460954680654329 40.16232605205385 -0.2403531929237374
5.4119522922191585 40.10217317386643 -0.2333341532465354
10.149994465820457 52.26800439126312 -0.1783525352677021
5.526411049881811 40.25574993235216 -0.2515715034733294
5.4997017632004725 40.153838743751386 -0.23886737679153935
4.868527180971299 38.294671106948535 -0.19717482338927542
4.984115769278242 38.30025921386803 -0.21003893913190558
4.939866214986555 38.23469319182995 -0.2033431921493924
5.143779843727843 38.582022614247435 -0.19710140652644223
5.091706465299803 38.483342187151365 -0.20952443631486495
5.066932728325404 38.39063249841535 -0.22115664970566007
5.028515930388069 38.29998355099276 -0.20492725448371663
4.975299519087158 38.23458748844046 -0.19694022614244572
4.9396961011785185 38.03368794414971 -0.18421535043195186
5.24106658406753 38.56969683981419 -0.2069635868022368
5.477874039720716 38.86401575563767 -0.2095132597919089
5.454021061618855 38.77616880049832 -0.216443128902916
5.4314780171369605 38.679963977464304 -0.20568519454903825
5.397739809174891 38.574067738909434 -0.20770126395990932
5.338460679011995 38.541914554868114 -0.20940619261778506
4.617473222314554 36.58983353719713 -0.163396368043984
4.603334066254005 36.529686287680875 -0.17304968685490535
4.582336664941428 36.439767486814965 -0.18834900865889845
4.553642709707758 36.34027353184447 -0.19467830158482385
4.528753912320688 36.26488322476296 -0.17045234691639766
5.405265564608104 38.548510121539906 -0.20733005001957724
5.4007400078448455 38.524177138216224 -0.25931220918516673
4.57637841384817 36.38142431664282 -0.19697641724656106
4.550262178218248 36.30663712056586 -0.20552110887114133
4.530085607469004 36.23683262609448 -0.20400785776546318
4.507487783712237 36.14384385822191 -0.21699928592163584
4.484068648914247 36.05020069829668 -0.21589945491362528
4.461541309398473 35.96443643506588 -0.2079958757358197
4.213147678704712 34.915825273946055 -0.24851007661002744
4.195801575385757 34.86019898402818 -0.20938559719897223
4.181182913516385 34.7989342692337 -0.16904421434933206
4.168436434453862 34.746223621044166 -0.17508955197071172
4.1546387654176264 34.68163246174654 -0.18239302585437875
4.129398816681094 34.57887457928388 -0.1942924957017884
4.101834162267077 34.467864215797086 -0.2072233744822115
4.081577984477352 34.37428176130374 -0.21796651475307455
4.0556245644809925 34.267482503955534 -0.2304674999861993
4.034407199975045 34.175981883852224 -0.24114054435044363
4.027421967272745 34.10632434014288 -0.24872083571005205
3.9948813426751366 34.02651503262413 -0.25893871988153866
3.7321549671838063 33.17695144013472 -0.2096537776388764
3.720716541563024 33.121291696883674 -0.21425882356935116
3.762147785586545 33.08453192807201 -0.21533458267121722
3.769178898760744 33.0465302170783 -0.2179199718844957
3.7289890502454215 32.90868631288362 -0.22985212403089744
3.720552426569464 32.79703113146075 -0.23860779115673392
3.7932071041478106 32.778984137868214 -0.23726646409613056
7.159662410308484 41.322213551999404 -0.25312200550456027
3.893043825041214 32.766246651065536 -0.23465051996874958
7.254065904031287 41.30529648491256 -0.25425806821273705
3.950646599137394 32.7561123654145 -0.23344126096980194
3.9234934187530373 32.62393725100116 -0.24460260540379025
3.108315601873387 30.540019873647587 -0.18795069026102842
3.083628045527267 30.412112278238062 -0.19428430467252744
7.353129546906921 41.32254410474603 -0.25864593941788216
7.3207901038653675 41.326113208088486 -0.2579843098930131
7.311210292491927 41.08414708301058 -0.2368454043514459
7.366783498296833 41.03952979739765 -0.23478069723338713
7.42252337467503 41.01616907212514 -0.23460759960438765
7.432950748048189 40.89163318745741 -0.2244154448359956
6.554250217014936 38.56756388448908 -0.21806129127094295
6.531780145710063 38.47340131461204 -0.19776757725803334
6.504884093925033 38.36577980154489 -0.22454483769705175
7.5128381606073855 40.88875082247501 -0.22696866679895145
7.175063902841477 39.944585339113345 -0.25112664655545824
7.1509257597888825 39.834700482605484 -0.23726522103729453
7.129758437947277 39.745310231466085 -0.22593128793824624
6.513409753165167 38.250329801508734 -0.20855481911866386
6.613531882573938 38.22043053476338 -0.21480472073130344
6.7072368817502905 38.18798863001794 -0.22261508259882343
6.710987027608803 38.08386244302076 -0.20264585551200415
6.689982032321014 38.01105256664769 -0.20103175391485087
5.846271639812928 35.82982911484915 -0.16108347914548501
6.6805819206036405 37.95961052552377 -0.19424659959672905
6.6666371307515 37.88290782869004 -0.18344409942887135
6.649379840480933 37.81009671475188 -0.1666763434369925
6.008090037171415 35.371981802303786 -0.2235398429456716
6.078297417807404 35.40723209764656 -0.21491099688752224
6.013894260748396 35.362433496885465 -0.20518684661660863
6.001134572481343 35.2373965237545 -0.21353888388763173
5.977925961865379 35.141651882779975 -0.20461630459311644
5.960362247580276 35.06357637400193 -0.2190194277365982
6.488923318669755 36.08350451978871 -0.16127136250440224
6.475945783236208 36.05597241378133 -0.16492155036266906
6.174567543781164 35.38507448463248 -0.197151195695361
6.472409208608922 36.00518352295298 -0.17516640270243786
6.454890598094396 35.92742960515547 -0.18947890682256988
6.43161841115665 35.825986883635835 -0.1958685211886667
6.413954506846692 35.737474425669944 -0.19887235495951075
6.385026700736411 35.64003159211012 -0.21629263982432925
6.353260919846962 35.547958965301056 -0.21099378636887972
6.324974188822958 35.43282053966422 -0.20370795397855315
6.274367571415559 35.36094294457307 -0.20663595947742103
4.224446661609064 28.817736294117488 -0.25091586394845544
4.1693400354320165 28.67353367055098 -0.25844057660834174
0.1486991585294435 13.208710958411015 -0.19013755362316248
0.2710605513612583 13.169072744148398 -0.189923714129091
0.3901658580391869 13.114381636612148 -0.18994062335965556
3.2006714612037794 39.06617156709703 -0.14201381861717335
3.3107373433009006 38.999868041825636 -0.13011815018004957
3.4015717311055402 38.99788501222728 -0.12352969449578972
3.373352716633143 38.96334685451365 -0.12344529765254426
3.498031069688772 38.97238260498402 -0.11515858383154674
8.221774080123925 51.165847544815726 -0.1489084964669538
3.543994684581755 38.97184910667015 -0.1119129910464844
3.662978618947657 38.929063694914014 -0.10099461781833333
3.770266679421768 38.895312979669555 -0.09151843685984086
3.8716012969787204 38.87148994816576 -0.08317902953556755
3.9947775699592167 38.859236199019826 -0.07429340990912169
3.950865058018551 38.85759053221956 -0.07703093182787502
4.077146420873409 38.82671506612157 -0.10089520592642948
4.04110346531678 38.82844380997728 -0.15565328062208242
4.1526732938573785 38.81359459370834 -0.11400823222730562
4.252297473675611 38.788980982973904 -0.1336508247246215
4.356072179528463 38.769059005415514 -0.1231313136211709
4.468674255756414 38.740203010605555 -0.11125354238707237
4.546429383353336 38.719429790544446 -0.10313372055694821
6.100894078940921 42.60934504435062 -0.15650334798760535
6.07415989238168 42.50503628746208 -0.1505075948876925
6.048529647789229 42.39453685440415 -0.14419784059148724
6.0250292695986145 42.29589862561038 -0.13853945793849026
6.002576786535966 42.217092186723264 -0.13403929935332728
5.978803141037027 42.11434633000294 -0.12815322616609534
5.956674419731631 42.02139911637622 -0.12285747253028632
5.935191381727517 41.91841785574279 -0.11696924159618229
5.905660625397394 41.80963774698429 -0.11076606597765044
5.8765582430351655 41.68873529083139 -0.10388053474493344
5.858166167526974 41.6173798122523 -0.09980357449440545
5.8322641777213855 41.50614715223813 -0.09348118957751822
5.807681286234389 41.410759946457766 -0.08806359839636779
5.791177056455773 41.33515039222112 -0.0837572807726032
5.768004940269119 41.238538275560174 -0.07828032518386074
5.738887715933892 41.1278569473479 -0.0720084857631765
5.71093788505735 41.01598715938346 -0.06567751688941492
5.584533147124431 40.514627823882094 -0.16034684607752644
5.5693716087020215 40.445146884089084 -0.15404162479635616
5.544533919329539 40.351114143291476 -0.14554033923482085
5.5258268278445675 40.28019578509389 -0.13913545876351624
5.456608979232934 40.16068545223382 -0.12868747012176973
5.3973758007283825 40.0949194262281 -0.12321338482450538
5.518009427160673 40.22577543951065 -0.13420090394094547
5.4947879068661845 40.158241567497946 -0.12816318490803852
4.9824696941902475 38.29619190480767 -0.12977032222860743
4.938218246058071 38.23919082022474 -0.10054950469489377
5.142921965353292 38.56600553571417 -0.1068111022607341
5.088474810203882 38.485541118025225 -0.12506966528989188
5.070176775918341 38.385384829545806 -0.11152010650600318
5.02672646140344 38.3017994937416 -0.09796194521542695
4.97789838132463 38.246222488968776 -0.09647969807138042
4.817875769180639 37.71439833455878 -0.06534936807890249
4.787965650948998 37.61644641311269 -0.10923650787278029
4.767682654834891 37.539804641019586 -0.11596348271857544
4.760741823224198 37.45223628779519 -0.10966113039172574
5.25345198590922 38.56061753163649 -0.12336974092867557
4.798035632091454 37.5014481889382 -0.09864714281133356
4.774313163765641 37.42186040353499 -0.10068347562631774
4.777885281788715 37.334738634798 -0.10073568417384766
4.766682211803629 37.21084898116442 -0.09631659327203343
4.741434639010431 37.13472179080984 -0.09403993061498439
4.7044379481902165 37.014788178352134 -0.11807992028257515
4.680574537191003 36.95001243324477 -0.11223556093478702
5.482873175234978 38.85937636910855 -0.07513100313483591
5.420683260597712 38.62908285815062 -0.10597044158185533
5.406993052486994 38.58135636184359 -0.12749486362268403
5.342214065989039 38.535647796626364 -0.12127047129511072
4.7452520470675426 37.09001105337654 -0.09172703309992396
4.7248488565838525 37.022383570518066 -0.09270216724588362
4.700779389525205 36.92077765031895 -0.10049344965539514
4.679576103784718 36.82358999732958 -0.10957289877692013
4.653662729026625 36.72334719858252 -0.11420561095017277
4.630882513193891 36.63447015327083 -0.10776663437097846
4.604596748737463 36.532566794096866 -0.10312725077670593
4.5799157201606295 36.435638668803996 -0.1179871626906686
4.5548403856099355 36.34754160269904 -0.12511061677859503
4.533560706471736 36.27502846651141 -0.0904009268192099
5.408790555359031 38.544084199735856 -0.12096220083702043
5.399933172585881 38.51878916454367 -0.11129361226051625
4.550820203461664 36.30900874965117 -0.1015694042220722
4.530663326520363 36.23405617337496 -0.09682154102336014
4.5092828154142985 36.140255768875775 -0.10595916254924596
4.4834819434269395 36.04277910535394 -0.12079976930365084
4.463104621987418 35.98091117992419 -0.14001011162580312
4.576522823458321 36.06781484822958 -0.07800840813037697
4.195548256658566 34.86178210589795 -0.1144003463105235
4.179164389500904 34.79809599299047 -0.07288380525161997
4.858708940796538 36.2848659186904 -0.10620761626462401
4.809399371682598 36.25377921347239 -0.07506108217403797
4.173601541158608 34.75593815191725 -0.07605619738926503
4.148372420253121 34.66535191790728 -0.08356733651436626
4.125642654562946 34.565929714178765 -0.09159655385979738
4.1012358179636035 34.46944178516929 -0.09954376315253721
4.076286087401171 34.36821489436217 -0.10787243983654164
4.05644138854333 34.28251478560497 -0.11489242983287697
4.028588949738024 34.18022953371155 -0.1234902779888228
4.022068893008313 34.11152349263717 -0.12872356097952412
4.89994516310548 36.28810054350636 -0.1163032135823356
4.009268533340452 34.05441336914401 -0.13341349515277073
5.028234782328467 36.38287026302984 -0.0980172230439566
3.762004317605099 33.036172092034846 -0.06235138111896228
3.7243023605096366 32.903402645915406 -0.06904045190405221
3.7206376829104912 32.80172658352235 -0.07358852230198326
5.1537867087089735 36.26947898315367 -0.09750223777223845
5.155341507275824 36.26584990158049 -0.0980115014935187
3.794400044217639 32.7861112795963 -0.07261410913598956
7.15898354705635 41.31688270784072 -0.09360446937167316
3.8914254632544165 32.76701321662663 -0.07135501744142406
7.30135693275748 41.33941744301475 -0.09715572258857134
7.2389276446130655 41.30706627049702 -0.09436741549774794
3.9462318812225523 32.75048226304335 -0.07095685727792618
3.927418272405428 32.660990033354054 -0.07535830772981207
3.9044801632118 32.56023017665128 -0.08040633335059476
7.341792402696905 41.3344772512107 -0.09759131379686992
7.296007269487688 41.06316201143866 -0.08230772428914927
7.3645118769272315 41.0313199437342 -0.08189120395424779
7.371924205032457 40.913091877299465 -0.07579579153307842
7.413963186505226 40.88238582940546 -0.07501616147509783
6.552471873438067 38.56979413233846 -0.0977197528615391
6.527705219547427 38.4613864825245 -0.11534125929468507
6.503282815894475 38.36601324869133 -0.11822732188032346
6.485133641148318 38.30387479161818 -0.13369162222212796
5.5855371718516444 36.05673282138053 -0.08749701023418884
7.6183603363952095 41.096808869949214 -0.09041968227065589
7.487636404785706 40.88432915898482 -0.07662215779713193
7.190030817856319 40.0584376433187 -0.14585292715610998
7.176756789705147 39.94647489376438 -0.1360534444431528
7.148461047411384 39.84043879551182 -0.12620532441586832
7.130866050039735 39.75783060678667 -0.1187163546512895
6.5116141432777095 38.24412699920618 -0.09889729251715675
5.702593107285424 36.061822118892074 -0.0845167765600236
5.709131551145143 36.048655772605464 -0.08041717419805891
7.770459956165603 41.385081042846764 -0.10859767608295402
6.611260597564948 38.21420095083317 -0.10551340905827526
5.7697677306738235 35.94816930304552 -0.09951855163251667
5.747788794865739 35.91612688682653 -0.125461823917002
6.704558851184388 38.181987831411526 -0.11246498117637156
6.710132717099571 38.082565398841155 -0.09639127647536458
6.688004693505487 38.00224461256674 -0.10407669299764911
5.811481562306863 35.92666823855198 -0.10744167303377934
5.8267780977301955 35.888990755096486 -0.1307809548588749
6.7056452610673345 38.03249467041266 -0.11597497311401518
6.6823071349219285 37.960226024885095 -0.12703663562051742
6.666756545506445 37.88248252960696 -0.11116845245920594
6.639339121395282 37.7781916962478 -0.10580951731530745
6.617493717570736 37.69325123890117 -0.112967078952679
6.594984027322311 37.60122093151834 -0.0965560092536371
6.584237022827115 37.509895184751194 -0.104417382144719
6.007806626778144 35.38407779901518 -0.09930110926940185
6.074224115815934 35.41788171108504 -0.12132312380329803
6.023624102665758 35.39312821905456 -0.14644409851698012
6.0013710181262505 35.251282598933955 -0.11944581162503339
5.9767579681179885 35.153291421737926 -0.10940241567005503
6.65696019673801 36.68843143774034 -0.0855355690771903
6.6387879739855125 36.611018817275756 -0.08701472259086972
6.63612034378938 36.50501174808625 -0.09609822999146918
6.604184753582169 36.411285078274766 -0.10398464108352241
6.5805288468578675 36.338504884329055 -0.10828165222266807
6.534260721302064 36.19930574036719 -0.10322216563766526
6.500502719511514 36.13053601008046 -0.11147287076013977
6.471402825182583 36.05270245025708 -0.09887841195959489
6.181987298899123 35.39992646041082 -0.10242916003069108
6.65347734123436 36.48946620058357 -0.11797027000263051
6.584073915542136 36.29443906257434 -0.11056856547137302
6.5467837524624235 36.183408260900464 -0.11187556246649459
6.526040989545897 36.14968345100102 -0.09290841382611245
6.4744214083644565 36.01308803461931 -0.09741714576149964
6.4567708936578025 35.93610101425792 -0.11494209770606449
6.448398893584941 35.83146244444314 -0.12385131999265046
6.419478452357928 35.732401987934615 -0.09233811198241333
6.393523119897822 35.635729493559445 -0.11081768467631826
6.365642325000891 35.52895130638841 -0.12105681016409602
6.323253152912429 35.44857442488746 -0.11384823220109451
6.271302760682332 35.37272644392028 -0.11028625574817151
0.8362384055432415 21.11567069001288 -0.08177267438453294
0.9434300267923348 21.075751386625598 -0.08159719918657446
-0.08096496422716815 17.284882059537754 -0.13806771584288982
-0.004633472012143258 17.287521058460317 -0.1374843248150783
0.05798076166207444 16.97619875418628 -0.14110922519163938
2.2157595031347546 20.763944230329535 -0.07750309213881085
2.2975685440666216 20.738312116916955 -0.07738483172198522
1.3218397450329427 16.959490815586584 -0.13335280009685777
3.29641472451391 39.04352090648825 -0.023500230257557934
3.400718054513624 39.03123259148398 -0.01844861731768326
3.4665132033496544 38.99616405635859 -0.014214066109458672
3.5888570466716185 38.957057347928696 -0.007392911953012879
3.6661107993244917 38.92759890495665 -0.0029182732855301957
3.777468191671436 38.89655168919672 0.0030364678834009853
3.8640813840662673 38.88444900967686 0.007120338216067739
3.97123116314307 38.86573175935478 0.012265647179241852
3.9665055315833904 38.85195829678567 0.012663807224118355
7.226178680661353 47.04244370947194 -0.0579977216289537
7.158771531341432 46.940152929011475 -0.055695310203103005
7.095371834628868 46.7411611606168 -0.05126215400661764
4.080915559200634 38.8319482801632 0.018082344262255183
4.042408550627536 38.82986270729978 0.016658747238290833
7.3109925702094225 47.0176137860401 -0.05759265536280593
6.866056329972425 45.77131968473319 -0.02994583607124555
4.1812213445363025 38.80888545567335 -0.006614962438155698
7.3989754812148165 47.008084007783076 -0.05754520811817462
6.896492426625891 45.771386631037124 -0.02996038524110838
6.7984859080659135 45.47156171634647 -0.023333295214607464
6.739458711528858 45.22902431632484 -0.018021559646409984
6.681248661344262 44.986338748433695 -0.012662618682968484
4.26611727346849 38.79112775985632 -0.010056296838651387
6.628237396035515 44.77308817257711 -0.007995091905543407
6.578718062831727 44.57750376692715 -0.0036732751065596744
6.5290794036795345 44.36769819567153 0.0009143819029287757
4.363759519430605 38.77347471841654 -0.006900351721759346
6.4829983157979205 44.177581727787796 0.005109836207343323
6.439747021750721 43.9990953813208 0.00900965284688721
6.399637475270584 43.83633034764256 0.012600956339207308
6.362084463486237 43.69327394093878 0.01572329140241667
6.323381546989537 43.534227044362545 0.01922995481645083
4.457378276943282 38.751024400534156 -0.0013292259018108342
6.287539185785455 43.38883781015465 0.02240092669626649
6.253166659215298 43.241287462149494 0.025650335937873157
6.2202557197748405 43.10151463064334 0.028695180705724292
6.18860753973198 42.9696402777753 0.03159912481200536
6.158859184487524 42.84752670020799 0.034256540171058225
6.131218678693067 42.739270192940936 0.03664073150276549
4.533617860790739 38.73052741941268 -0.020622774851885763
5.690721589368989 40.92795461367403 -0.0607050551732235
5.665021077425406 40.8310726176737 -0.05523358632853462
5.640640048479195 40.727366454703755 -0.04939375783390072
5.617934237118705 40.63550697409204 -0.04422126441868143
5.591105717303275 40.53098308351397 -0.03835711724913181
5.570638331776094 40.43914738913163 -0.03320465178023399
5.545743153263631 40.34721081494223 -0.028073407177510817
5.457331260099999 40.163776242281024 -0.01806291911486178
5.413092900014546 40.10853207428848 -0.015182345250502587
5.52771323482814 40.264821792443136 -0.023461674744776177
5.500591335491937 40.1675532608277 -0.018063874389428036
4.984825134983159 38.30504941944119 -0.0014632182431912576
4.942196094191263 38.23475336834049 0.0037009297651798105
5.1481194264402195 38.575291202344296 -0.0185721432305521
5.090884707231373 38.48257989271953 -0.013443281530095389
5.069374301176423 38.389861958801184 -0.006401824086651912
5.030661751056773 38.29967907625674 0.0028640772086032107
4.980862222053199 38.243621510569945 -0.0026951261558706245
4.9063158001831875 37.86791782921315 0.011162485005686009
4.84155251316188 37.697459655509384 0.004891366236655266
4.814453475502717 37.62636709195523 -0.019220380230920774
4.7862374088343955 37.52996533270064 -0.019416119702383185
4.762923634876819 37.45265713963819 -0.021166823085312248
5.248826418440042 38.564577588042525 -0.016978793840579157
4.872144594279854 37.69510004774888 0.022416799993027814
4.844674512001956 37.60883764438058 0.013726206580511942
4.808596318921326 37.52241226112018 -0.0015552304053275262
4.7744083103346675 37.425137494440314 -0.006027245492070198
4.7590766111112766 37.36856276879829 -0.006478092200766141
4.756219033957274 37.19465547440885 -0.034993903428452336
4.739681258250166 37.124799499293786 -0.029665487463612628
4.710692215739327 37.031422257783284 -0.00807477358299704
4.682547741418723 36.95880966065599 -0.027965795617596833
5.477129338348576 38.85775272573729 -0.009351318017175567
5.396673291998376 38.549180116239285 -0.004810867680935138
5.3410184470676825 38.533049929070465 -0.009093816204289899
4.742623256629841 37.08594722689057 -0.018476025107058664
4.720915468117264 37.01775807160518 -0.002103581030543842
4.70015429319241 36.92381513339759 -0.005222094716910916
4.677097513146728 36.827216450932944 -0.012343892956373465
4.653832903878926 36.73085428374507 -0.013015753504047722
4.630759754048068 36.62816786385429 -0.005168444420870066
4.609840450202036 36.53525499549818 -0.013669495059758733
4.582559463927991 36.43600769843067 -0.023471114960767103
4.562084854294568 36.354851800580384 -0.02763390344490393
8.419386587127871 46.186828619816794 -0.042989760395744855
5.404580523051886 38.53792076861028 -0.003420648226669539
5.395240122381584 38.520849695996915 -0.03457099055069343
4.579143453437297 36.38787786352318 -0.04986977424123325
4.560562750496636 36.32374202704513 -0.01755666658104491
4.535372142791332 36.23701187487344 0.010311608074670943
4.510464918445374 36.14129895691815 0.001576431048375123
4.486931819905036 36.04929384016825 -0.004381887271453555
4.462847406334707 35.991139337933404 -0.040674677585461505
8.425854517738331 46.0973448050177 -0.041146781465637675
4.190194864681007 34.840982308156434 0.02495888844592544
4.177359781266167 34.78907722950212 0.02251819775021253
8.365728728502457 45.61525059579844 -0.03074266216445762
4.849373416958618 36.30573483977548 0.019786593709569276
4.1594643751305505 34.728620046638824 0.019561570398654426
4.1505878023142735 34.67998340605796 0.017356915727252693
4.128484461537646 34.59153200296882 0.013135477146322322
4.102038366848183 34.48292825363388 0.007955835854968245
4.076121978599108 34.37055582695024 0.0026145465510692065
4.054956494012355 34.282689482032204 -0.0016080795756769975
4.032876593840287 34.19023399651989 -0.0060607843172958975
4.015308342147805 34.102742414801334 -0.01019066655601986
8.454623672805457 45.58549352389102 -0.030511395980379923
4.904831396984838 36.30353578782742 -0.010850671675516028
3.7322693292793225 33.18111369543617 -0.056773583842104985
3.7198702093322256 33.11509404369527 -0.05992118093300783
5.006652129029375 36.354904561552615 0.0024835998332523417
3.7643653637941643 33.093017362581314 -0.059803161629444865
2.7259983011859314 29.12632534338377 0.03614943938557444
2.684862712420608 28.757305932874047 0.030994602207450095
2.6126998938836072 28.468559431493055 0.026782710401095672
6.565688112494286 38.621788575300236 -0.0032313692462784434
6.548376440303552 38.55306091890331 -0.017209609814505086
6.530916712328103 38.472369235445356 -0.01582177397120561
6.5058188901115805 38.37759061915475 -0.011772232930795563
6.487039879448001 38.310870346635205 -0.027713133040870152
5.577156549342335 36.04940912726705 -0.01661015618532576
2.5336691585067674 28.154702504506275 0.02209349889602986
2.4581850620152514 27.84400825375953 0.017570469089679294
7.205269472315833 40.09510408936436 -0.029687527563640927
7.19460398430168 40.06399071381505 -0.027850511633891097
7.174427605470065 39.940275453011225 -0.021033882868386148
7.158124234859849 39.85806671728363 -0.016452669941889337
7.129114902504394 39.753017580214404 -0.01042282268669496
6.4970512779377305 38.3323421328557 0.023051425170356965
6.513074239341434 38.24764253582931 0.003936693702161927
5.70742663370254 36.05757252766115 -0.027837054327021247
5.710283807324244 36.03783077054518 -0.009913697718643692
2.3721435356959333 27.49892133618234 0.012414908655281455
2.3624285290815865 27.314844892385544 0.009941556341458725
6.6142420325422995 38.2193918907319 -0.0007813734452838707
5.766604820900941 35.9522815116992 -0.00462676423085253
5.741829236467153 35.92679810109231 -0.03258897215261171
2.4578999568859667 27.30933848969741 0.010457975330950345
6.705463657049249 38.18433733993513 -0.0021243861948808916
6.706629155876417 38.08155881461022 0.004382536031707223
6.683813789415585 37.99444073058974 -0.012643885911198773
6.660880685838213 37.92805851113935 -0.04813320685897417
5.829055142556484 35.933462168167104 -0.007923620205666
5.849842882343295 35.89054096377367 -0.060283196621399485
2.5464695917622158 27.290754531150846 0.010723092075068174
6.683029388487463 37.96803486427989 -0.013870311260834347
6.666157828688738 37.88595295458255 -0.022038290560286885
6.643527766293943 37.78533702315985 -0.00765521137997939
6.617480697723641 37.68512890346575 -0.014226739806758506
6.594073988801107 37.602088849207995 -0.007812323678021479
6.605746013824116 37.51567102965397 -0.036067070483651195
2.5172550026847507 27.023733653278455 0.006951317881448069
2.4532186376109655 26.699919628202665 0.0023059762017763365
2.396723696608873 26.39266732663365 -0.0021994139273496492
6.012032552499317 35.38368173894355 -0.020003566377105975
6.072242350567326 35.41437928401937 -0.008031854792667662
6.013848247482724 35.36838981847141 -0.0041053376937063395
5.999653942892493 35.245264125495254 -0.02662683096219404
5.985417239233635 35.17358470898977 0.0024259052340622513
6.6647055780938365 36.68181914101992 -0.016060161510613232
6.64251281619528 36.604452636021925 -0.010975881740835667
