ply
format ascii 1.0
element vertex 858
property float x
property float y
property float z
end_header
23.91614237663937 57.57072394838637 0.3690145831688301
23.879523455148494 57.5761327085925 0.36648758257123715
24.863722185056915 59.92263355147185 0.3945422553741865
23.985799013379285 57.550710705720476 0.3743103367010707
24.983841206590977 59.89391616969037 0.4036002568611877
24.07445130091834 57.533861299870146 0.3806608760624206
25.07742638832146 59.8672953905549 0.41065767756948535
24.155677664223845 57.53166712926708 0.38592015252050016
25.173944393774523 59.84673888033243 0.4180038578694419
24.382926021947835 57.714206026364984 0.393156639697807
24.320888073955157 57.68320898019164 0.39025982954641936
24.280688972749477 57.594180680221875 0.39128695703399624
24.2522758153236 57.520970130690664 0.3925863336453225
25.258408400609206 59.824302725597605 0.4244192075664352
25.333448851129457 59.80644530443043 0.4301524880144725
24.560991400943486 57.64442058169561 0.4078575144403386
24.50564300239745 57.65990103091309 0.40354000403891105
24.652092815362668 57.61758832351164 0.41505085807351827
24.76099050285089 57.590274992644524 0.4234732347781774
24.83943171979747 57.57195721269488 0.4295052135006015
26.576295796734072 59.50254561745453 0.3350754840524632
26.653485715414448 59.45417094052254 0.33836350800000536
26.637637410300538 59.369608139562764 0.33773432842926815
26.611699577958042 59.284524714755385 0.33673943394727124
26.60258133828431 59.227238771172104 0.33645832496370637
26.57865682236192 59.1631677078273 0.33560406468918136
26.551096179969207 59.070419818570116 0.3347190522091742
26.539501828622768 58.99567076931001 0.3345247511785797
26.202576611435497 57.69721667238915 0.3327783807628031
26.182030978132715 57.62521822101334 0.3330215466841608
26.158761252450095 57.543702473397964 0.3333558100907132
26.126812743856206 57.455206405731616 0.3335282125378597
26.06430660113609 57.29793036778329 0.33383648381485015
26.041523157035858 57.277117505234436 0.3333295948958912
26.179930278616023 57.57543979364745 0.33370511703291583
26.152338729682768 57.48544083441358 0.3340436712976279
26.130254024903536 57.403456735901514 0.33454244836841185
26.10993377352007 57.329775742631575 0.33502952811435155
15.206731311008493 62.380833900412796 0.5286451523113221
15.31768688347754 62.35385699784505 0.5213879168714572
15.415776853130229 62.332069313273806 0.5149980726950099
15.076357220950616 61.3820215247539 0.514690776507409
15.019771909586737 61.35276753028034 0.5176800562628628
14.895177545870823 60.94515701717006 0.5188254544267522
14.872224637682475 60.85994072615319 0.5190486309967637
14.673151703241913 60.26401147911436 0.5246814971962525
15.529310586955226 62.30089406807475 0.5074869471181489
15.138920693871102 61.46608381877455 0.5123848037279871
15.142887585099377 61.41866497559605 0.5112363388579568
15.09638015266303 61.28368187243538 0.5116774131905758
15.13069877020659 61.22891859698122 0.5085801177568822
15.031388641568988 61.00541852039654 0.511151721095195
14.681536710560227 60.14893597911447 0.5229527590034336
15.624767458856184 62.27789839315531 0.5012296663020148
15.142503575561307 61.168667482407 0.5068155882953321
15.119968328763537 61.08434250765284 0.5068332486318982
14.810737820855858 60.114840435497065 0.5143849498810275
15.736449837190271 62.24713457669848 0.4938467958740216
14.920158772141491 60.08334106097885 0.5070673822047052
15.824631727705375 62.227096032032605 0.4881049647814121
15.057623769075139 60.0503568679875 0.4979886592674049
16.008356627498927 62.15710348310242 0.475448994422213
16.12804985964709 62.173849994088 0.46886292169678545
16.08053050118457 62.15363993069293 0.47110643177348843
16.2223512899588 62.168774607821824 0.46320955844126155
16.35688302042888 62.15154570057137 0.4548980305257692
15.491692568056987 59.99554909782854 0.4696953086501877
15.611622867431297 59.96685166254834 0.46178291331431365
16.465861829796978 62.113763351552805 0.44749397563558646
16.619573909803215 62.04958451741857 0.43678445353887857
15.823933896761027 59.91385843494822 0.4477305183499912
15.922268650238415 59.888990187128144 0.4412040708591394
17.534547124840618 61.725048226723885 0.5229692104872922
17.65498324140449 61.71569055467516 0.5120534683288182
17.711098932157867 61.7439173907381 0.5085976037612789
18.02504806188679 61.59181141977498 0.4740436217166676
18.076062369298263 61.58974706030262 0.4695768473741
17.643135322995207 59.45709768805291 0.4514236970084687
17.718456732764682 59.43549387668604 0.44389111014884447
17.80756523961656 59.42158427167713 0.4350097828493395
17.97629144596512 59.37315554763221 0.5307369961576024
18.055418846075344 59.34524668318669 0.5201411777502966
18.157008739477916 59.341787772707285 0.5065134590549755
18.23104652741427 59.32182266019946 0.49663482401610815
18.325258401826453 59.29034512879863 0.48414669945557576
18.42883082339333 59.2664207025959 0.47040900056892176
18.518962661983803 59.24352529381577 0.45852288959210885
18.609547233831602 59.222822217569615 0.44660173023636196
18.69672604304264 59.18574936277023 0.49863967949500454
18.820589027260528 59.167820485399474 0.5034595350905662
18.935496541650437 59.14757749999462 0.48457873656066364
18.903635377535178 59.146628764278844 0.4899483867775982
20.803673586344214 60.928141690477965 0.46659099969783613
20.778904899655284 60.85950527711613 0.47082197614384536
20.765199469244056 60.79449069667516 0.45990264417341764
20.86668967830589 60.927092557057165 0.46361362767426095
20.753963838674405 60.7367228076489 0.44614112780436055
20.73517306432466 60.68745110778314 0.4354942995233664
20.97347939771458 60.900904859129746 0.4732021120040596
21.06148459345501 60.83476398561942 0.4517146482432537
20.229825052455237 58.769543863826115 0.4343468409048739
20.242760543772242 58.74714778917359 0.4353939839283981
21.142991799792057 60.786992606205665 0.4368177674530314
21.224995528712128 60.772622225530206 0.4324137061585397
21.850743290519137 60.605821147332634 0.4340056647165583
21.842110911118226 60.60392031040231 0.43241087495871855
21.916488746600773 60.58530614279932 0.43871515509671016
21.919956947727602 60.57394895311055 0.436761068450491
22.02296877853429 60.55574492249043 0.44886985746172275
21.970564666735196 60.552274024267824 0.4397327200902841
22.114125522720006 60.546891527421245 0.4623700940898632
22.2484401666563 60.568885618647016 0.49057426918800684
22.207783432130476 60.56714341204542 0.4828514526708261
22.29592691029559 60.54852788594805 0.49566332112028744
22.321677969107355 60.49270724303746 0.47484485888613204
22.451003489747578 60.497579959559886 0.5175141828895636
22.403469128783268 60.46668043426943 0.4722894959454228
22.54446301718056 60.489138116259056 0.481556111209245
22.46815260844457 60.46690309788533 0.4575316322501859
22.625520911182207 60.47516732544593 0.4870414439555495
22.71351137169268 60.450042468182716 0.46939868746899893
21.947278957440844 58.31943922119237 0.48743939180175566
21.953879012354104 58.30954793254317 0.4351620799521243
22.84376024815222 60.473295922260135 0.4858712560823495
22.03169359564618 58.288256061748626 0.4772002598080707
22.0080888979647 58.28929274645241 0.47535515571929043
22.93603157996735 60.49277677594052 0.474812920858674
22.106911179024575 58.268039149304705 0.4917674252828267
22.07709269805609 58.26717849385736 0.4879605591086422
22.199006925635533 58.24425067989265 0.47835777247015965
23.191876508236305 60.447310841716444 0.4729027150863666
22.30843558668259 58.210652283086844 0.478956488547846
23.268852348418385 60.43655218911962 0.45286723283068286
23.219766089496268 60.367266866837944 0.5111009831656457
22.39507272964019 58.190823425514175 0.48142696222489434
23.333562149118993 60.38152308767992 0.46212645371757216
22.483959720094358 58.165774010335106 0.4747602915646827
23.50428998106551 60.40707505201067 0.47321319223350566
23.4113253475033 60.37319674753766 0.4585139330787314
22.593807963256936 58.13119985094133 0.4807463024413954
23.510225652873213 60.39077335184916 0.47310519468599255
22.68835691541193 58.11115931278675 0.4958169846458812
23.626307287734885 60.31337521195481 0.49114634163908955
22.804760086971683 58.106528045557724 0.5121913082141601
22.798943305821826 58.08753233854431 0.4870772696343726
23.696380717699384 60.244841106065344 0.498203721852977
23.680851207949676 60.215165257314666 0.49477863572561775
22.861561499096776 58.08868750649902 0.4676299298725073
22.840370045615668 58.08100037885575 0.43903853667863835
23.971978769903068 60.590356002914284 0.4418649649935198
23.90656699468946 60.53305501754657 0.4834940108299215
23.803967600547697 60.19219936161394 0.5116569679510391
23.907050048810998 60.170462203768665 0.5258076421935806
24.010146622928684 60.142231340866246 0.43535304955341453
23.13549035039224 57.88454515797087 0.49132183916766714
24.1023533867164 60.12304512319373 0.4451234656549378
24.18204205586609 60.0997581662824 0.45346141366647497
24.285015941591105 60.07203989765292 0.4643597576640561
23.415524999235515 57.69701601754613 0.4363678031175284
24.40188090983733 60.044820501900176 0.4768922258549353
23.479155015254374 57.69852260985327 0.44178805477300237
24.487097385274534 60.021151985840696 0.4860065455931446
23.579637980710217 57.68026127888883 0.4519315524741258
24.576469635578825 59.99705834428207 0.49562980335067874
23.701482864752908 57.63474931562337 0.46595749222311866
24.69714134898528 59.967654845634065 0.5087228452601454
23.78189762834826 57.603051190303745 0.4753573760215819
24.776669434295474 59.94466857875808 0.517343775553476
23.89676611578335 57.57691842790592 0.4875224210627127
23.843829982860896 57.58674218515174 0.48205718652417284
24.874500391953504 59.92215466093843 0.5280638367007477
23.985107374465787 57.55035854909184 0.49736220236409867
24.066444399735424 57.53853699086633 0.5056115141340106
24.170122941731076 57.52861068557853 0.5158668303093012
24.380330928297063 57.71469679345415 0.5247222107148248
24.317130975754175 57.684448476748905 0.5203278859558326
24.276129920887293 57.58854187991766 0.5221141178425499
24.256324379349604 57.51735438772574 0.5246494675235349
25.384042695459836 59.79442192272527 0.4339922027571394
25.4579293629363 59.775606574890936 0.4396494001337854
25.55397806705487 59.74926843014166 0.44699340079435906
25.670780828588452 59.72261297105635 0.4559675270506869
25.77445766087985 59.69424433193095 0.46393329173373765
24.93748239780123 57.54399072756477 0.43723263502409737
25.855860705533903 59.671934372625756 0.4702120411713986
25.025631263155663 57.52309420206526 0.4440289954958586
25.960028445353924 59.65007228371667 0.47824964036439077
25.117449679924967 57.50095915376336 0.4511469450836732
26.054144781656056 59.626298339828374 0.48550828915372546
25.239840251423455 57.46437706257337 0.4608994635840036
26.186107309932844 59.5925963514297 0.495722359421084
26.110211721212142 59.609599021846556 0.48986920372837106
25.33532111180753 57.443295755650645 0.4682387446694509
26.258009252741545 59.57507574315181 0.5013240444192653
25.918466869395317 58.64344397082104 0.4814232661769894
25.885276310196957 58.598651845698285 0.4795797977380096
25.834923371602418 58.49831725367263 0.4774216423843032
25.781912751606182 58.41631660978549 0.47490203617486426
25.752719909375177 58.312364291638495 0.4746390435517187
25.74231481487358 58.22860908663321 0.4755354920950615
25.4436049813141 57.41685023232458 0.47666301288296486
26.343752294192917 59.557012372398034 0.5079523278223408
25.982106497273527 58.658068927848255 0.48607883581373956
25.91515016570505 58.54110058791174 0.4827784141027306
25.80401954913233 58.15794562633073 0.4816473812241966
25.7669585747573 58.11617215912519 0.47981157127336704
25.506434665459278 57.40454557304743 0.48146808345580727
26.44737215112882 59.52926467124511 0.5160163612394417
25.599920793991124 57.3777662861198 0.4888845953399471
26.56282282073493 59.50068216106236 0.5250118780820083
25.720794754020616 57.348358494161054 0.49832863016377016
26.628189844364687 59.32988626053345 0.5303188364270669
25.849098347693612 57.31628144363484 0.5083937006890072
26.644915362975823 59.34846221566388 0.531599656206154
26.62325064671809 59.262678136662565 0.5301738708539013
26.593710916028066 59.16013457144577 0.5283461901812877
26.569317599538955 59.06688632027285 0.5270129682628093
26.566274223312657 58.99096194312569 0.5273369717228665
25.925237574530204 57.29999271649103 0.5142614059282256
26.210646045732872 57.68263296271347 0.5231980239105746
26.030365668051342 57.270655323608594 0.5226327465606502
26.2530573620494 57.71754774151391 0.5253798458253418
26.196162688411345 57.60809616447804 0.5241817705450101
26.172055308144614 57.51651779210047 0.5250438747119442
26.14555045199922 57.41558107818373 0.5261646995950119
26.113792520749776 57.31601370162408 0.5270320463314293
26.081555639643234 57.26720092393318 0.5263315677123857
30.645995295471792 58.497664773070106 0.5111885373797046
30.870687657288578 58.43933893090065 0.5210495271306264
13.891978865233497 62.69995650645024 0.6150966264391181
13.89747729588409 62.66740879722034 0.6140130518403386
14.034965816460033 62.668442609326 0.605770435821974
13.172626327986137 60.51019168238866 0.6230796316302255
14.179468884702331 62.63506060665236 0.5962751534603451
14.332479737834568 62.59611048762267 0.586177442876411
14.477862843114561 62.559321219871464 0.5765570331280018
14.609910507738649 62.52683219529915 0.5678799795867403
14.739886607104758 62.49430748005576 0.5592942997719591
14.865894654308564 62.46260859881155 0.5510057130719936
14.055297762026127 60.30551762805979 0.5645443647452288
14.980835599483697 62.43520461150111 0.5434533142900176
14.207548291821277 60.26438375425713 0.5544194658416134
15.104712842141296 62.40327190963658 0.5352939284552972
14.373955321763072 60.22404239582898 0.5433549151137469
14.528700708644788 60.1861072681754 0.5331093373374514
16.629946776261093 62.04604823339873 0.6175185986571458
16.711950821621407 62.04203485399568 0.6100673005376839
16.664571154411064 62.04692475680132 0.6144730424949809
15.870995357664 59.91167570837828 0.6306790919545772
16.792049472502022 62.03809980860166 0.6028027028199769
16.047399962161776 59.86410899133117 0.6126885588440909
16.17896724593418 59.83018933453205 0.5992905898564944
16.276935642721273 59.7991830716272 0.589264414224042
16.39342131166923 59.77680053377074 0.5775205881151926
16.442010900337895 59.74989608366049 0.5724497079426475
17.32985935588218 61.77567682227303 0.5432791394698264
16.528372317360265 59.695698892085865 0.5634329620790111
17.445250674951698 61.752095720030205 0.5320496038091146
17.41009210690084 61.75522157785009 0.535285705836466
17.944596253475286 61.61340373355502 0.6168830208660891
18.043363372936813 61.597456568869354 0.604382064726717
17.277582090790233 59.561703731267556 0.625206053247569
18.14109507347583 61.56383976784036 0.5908069850850255
17.333095035780467 59.548329107132176 0.6176767714105995
17.4184761726336 59.51599793031084 0.606020988338952
17.43060454873266 59.49660610741883 0.6043227091146449
17.67540366086091 59.45226659132451 0.571242853489833
17.72546791846814 59.43615893444792 0.564471333777626
17.824925516693202 59.41125265288134 0.551065776750511
17.962422433230834 59.35556508183786 0.5326271534567499
18.063251446779564 59.35698078960056 0.629573409678595
18.161390671052526 59.33722152306561 0.6129794798681842
18.091453937068927 59.34810314993337 0.6248021595681648
18.22885701638533 59.316786144439874 0.6016510538644437
18.33598920265042 59.28904601502787 0.5836818975540105
18.411513298963342 59.26807589418354 0.5710838749576361
18.502987878025905 59.24180905514098 0.5558892047821063
18.515248826096855 59.19169172583331 0.5545249791431353
18.60497209191392 59.21475551723262 0.5784271736170157
18.71763658256571 59.194257729517815 0.6091951195868544
18.81028253465244 59.17050935783742 0.5908361279977615
18.911642126894556 59.14739284072718 0.5708125876859416
22.54746367164711 60.48939385503278 0.5362040328873733
22.624225525444754 60.476635723875745 0.5506109513926488
22.705993853413382 60.44501259044727 0.5638928217310092
22.842060116222843 60.47070824713177 0.5735251579617596
22.96621872834168 60.46537538825325 0.5851621140127672
23.034277928976067 60.43659764379745 0.574380828885876
22.205426853707586 58.24078763135851 0.5427441509711863
23.123514371278816 60.41367815016861 0.5761315390587223
22.30388202782901 58.21725602274551 0.5635838750170346
23.254728403709695 60.41080567691411 0.6022176392682544
23.264912312823974 60.37542290203731 0.601120235299304
22.398478880953668 58.19120543793715 0.584740916816434
23.361574300415324 60.378843747442524 0.5890834355071549
22.497049749278442 58.16465532827119 0.5792160260994085
23.42191297051707 60.375320909184914 0.5749864375722284
22.58524662673963 58.14327520517201 0.5806894309011275
22.690039522221326 58.11398996834053 0.573057666905087
23.632894381390614 60.35687727645836 0.5885093168981069
23.619244937748576 60.31009451814793 0.5834474340052167
22.80865345084688 58.105127080710425 0.593714746475503
22.77101486142735 58.0904043436821 0.5897062067073706
23.687178476169233 60.253669615040266 0.5924782904770771
23.688241149313153 60.211141875586655 0.5905757073115839
22.88333303856303 58.08481629623074 0.6090951073745443
23.79590898472034 60.1940377767891 0.6090507572827569
23.88997508725838 60.17562548915642 0.6251437787667442
24.004417773001094 60.1501045037733 0.5392773059267293
23.946760547867726 60.07119462320058 0.631377441472115
24.09837658673658 60.12631401968969 0.5522296634316426
24.195596157280935 60.100812609480876 0.5656967045460318
24.285381970024346 60.07639055858029 0.5781841629047165
23.409902904256608 57.69438532676247 0.5407591439889063
24.381054843381364 60.05180082212205 0.5916135430613815
23.509034424114887 57.69418288744582 0.5521534283303299
24.47747401617637 59.995027764674575 0.6045546734092896
24.45623832054525 59.92755027236721 0.6000926709175809
23.621979638593068 57.66698489134561 0.5678184543527947
24.590141242435067 59.99125267906076 0.6210386995353451
24.54988221925096 59.94300464630896 0.6142359323693316
23.656788382180995 57.660588518882626 0.5724969942710608
23.776258256392 57.60660188080218 0.5914789142679514
23.896652666545368 57.57624097102138 0.6085193864866516
23.848182029283144 57.590137573086174 0.6014891395800701
23.974386044447435 57.557057946750795 0.6195429509233898
24.97839082962895 59.89191708658434 0.5393999098149813
24.039136298902083 57.54147221781154 0.6287053314222525
25.08718178552502 59.86648470218787 0.5513918901626377
25.166528236038374 59.84467629606619 0.560128505082612
25.269556191045726 59.82332587023612 0.5715630552663254
25.37988806109824 59.792538309281056 0.5837591034809622
25.32946293235289 59.80457152292222 0.5781820529746736
24.53283283144097 57.65141331166881 0.5432301407979683
25.455509813195697 59.77379207627642 0.5921776639646374
24.650362326512724 57.61745107759695 0.5566743321627715
25.56711784285592 59.74810773544063 0.6046202887956486
24.747604157655076 57.59648021081997 0.5674251205886066
25.666647435708896 59.72075893820802 0.6157150867425684
24.844171150370197 57.56834881278752 0.5785244854072745
25.75782942164396 59.70014513731448 0.6259327616496682
24.92173291733125 57.551219798781425 0.5871452009571522
25.0438518703223 57.52092778653551 0.6009275001560047
25.19185450257989 57.57619181712992 0.6129673809005579
25.15135274939321 57.49081555033807 0.6132518434448401
25.25226654625163 57.573320269291635 0.619244482977864
25.240849922197793 57.47168722847413 0.6232296617659978
25.288072886390452 57.47488568646381 0.6278206524090526
26.668337938716995 59.44888694507929 0.5332344634801286
26.66069283366088 59.40484774199985 0.5326822677269161
26.697866525138636 59.46037542399531 0.5355366344031202
26.65784447290798 59.37630928337022 0.5325284974702866
31.168076432218072 58.36763698062279 0.5339689971776509
31.270819541515273 58.31804465394288 0.5386219899735815
31.254425684330286 58.26756962631004 0.5381680097174744
31.225279494357387 58.183724461851284 0.5374227186095727
31.245730884474902 58.21616172345244 0.5380573695210312
31.212813764333582 58.13043185023515 0.5371833379537712
31.19935416375227 58.04520426192203 0.5371387927499061
31.16597702841686 57.94314451750224 0.5364234897215504
31.145953038356105 57.87455667312701 0.5360318059743183
30.76390687963577 56.392148937728464 0.5350402680779751
30.75027557328375 56.30494775927207 0.5356210434086872
30.72823372684433 56.21800193482295 0.5359016729253948
12.180332053416087 63.11007402791128 0.7280511639587837
12.33341935384822 63.08444145872123 0.7181584824466504
12.59008439010022 63.01663118483908 0.7010839211399783
12.850379173304471 63.08157500655126 0.6868231747119026
12.88713763054533 62.999075914598336 0.6827004062190045
12.12461966429513 60.794026553440474 0.6929300700905239
12.302395533495668 60.73881917522929 0.6810100971127687
12.78136305722143 60.64600216336811 0.649447312531147
12.747795760118656 60.61994205595516 0.651335796586435
12.952056613641457 60.56435467398389 0.6377123725298365
15.074519427903144 61.14289369054917 0.7313810902240635
14.942046990595792 60.08266311901841 0.7246560752748388
15.996476912890884 62.154369493240324 0.6789783508519566
16.11554927175112 62.171490213223485 0.6689933599121781
16.050692937492194 62.160042406234474 0.6743234547426393
16.21192535383293 62.17668725554279 0.6605791471591879
15.343266424891812 60.00802963196256 0.6840314329406775
16.34705797855999 62.1592023334393 0.647749820600096
16.47843669412738 62.109128163512445 0.6338049520946456
15.667232579841565 59.963765549235625 0.6514515838475041
17.549074558578305 61.744635863699706 0.6718449134149178
17.66298153746583 61.701033453618635 0.6555933667964526
17.749934897102385 61.68886923712303 0.644632557566322
17.574697293546183 59.487257285909585 0.7126279472415504
17.62386237388163 59.46380838629225 0.704220578430318
17.739674634017636 59.437082955700035 0.6844705035550406
17.84187762559035 59.41244284320664 0.6670787945005269
17.947209481309528 59.38315787631224 0.649215534254013
18.017306142573887 59.36496069310386 0.6373382568384536
18.13696518369973 59.335738594441054 0.7263508395867455
18.228416565765208 59.3170658669889 0.7076886471062972
18.324874366596855 59.29072425469109 0.688125232671151
18.438121176503934 59.267985973504985 0.6651397650087011
18.51489362667305 59.24350899469768 0.6497636902726358
18.612434918473856 59.21933173585483 0.7003036308059739
18.72319304368744 59.191046495380725 0.6981104650479528
18.826915814373372 59.16507109926583 0.673949123088907
18.918552813155635 59.142220520827806 0.6666990257930157
23.044757064947948 60.434174336462114 0.6389705570711458
23.13578828538642 60.41219687463395 0.6576296717006438
23.285791651752916 60.38229765314806 0.6898138476199164
23.224083719518365 60.38688144475374 0.6756675091736782
23.359535949659822 60.35474345489705 0.7047149789587487
23.298391412038534 60.365959719649396 0.6911861437465626
23.441696844378846 60.36919408850899 0.666489332786342
22.62951873167754 58.13065969445725 0.6373929985605009
22.69161062055856 58.11719156734784 0.6513755359554395
23.6755941411956 60.43702017955617 0.6903047552823341
23.61869272574469 60.30766908344208 0.6778614555304814
22.815067192121546 58.106799356976694 0.6767385351950466
22.765788498898022 58.09974382770155 0.6684699183232226
23.67802769271064 60.25009506088395 0.6867911540478272
23.6831775785546 60.21332841211128 0.6857404341210857
22.889770296632047 58.084019708021515 0.6951420577124308
23.895460578786373 60.52658676275387 0.637583501193617
23.8157975079272 60.19246989752913 0.7130155413770215
23.905908074221173 60.169770295813215 0.6963581985618599
23.971065238289114 60.1421669880261 0.6384027181756257
23.96034909193169 60.08574435542394 0.634374387223526
24.114793762091214 60.06981433231531 0.6618545114542751
24.221383238338568 60.07037186809653 0.6812422568298215
23.33907689111853 57.71323340012802 0.6342910008042605
24.293414527911036 60.053927427942696 0.6938436374826883
23.40068919102668 57.70393828320751 0.6440966676413578
24.38174779402638 60.02748591970262 0.709189220223542
23.487372003933338 57.700201710693975 0.656908118952688
24.479381702682506 59.99994054446087 0.7262878832311492
23.57964344464732 57.678777535171896 0.6726859046832188
23.666912844991394 57.65220724510159 0.6884153773189655
23.773192179287435 57.608084385737506 0.7089527627881509
24.71508547803793 59.90562848357713 0.6379678782822096
23.872805373733105 57.57857884911292 0.7269405033881494
24.826619465538815 59.90326558254393 0.6544437846116691
24.81968221195809 59.864205764028604 0.6528561266260113
24.096798686709594 57.536986991729606 0.6361070556624291
24.178233374093548 57.52980710980434 0.6466754593809487
25.19558415152181 59.84514833603762 0.7082851334668475
24.323986679694443 57.68697372989978 0.6524148874647566
24.279396601343947 57.58556290483758 0.6546825253831557
24.25929953196298 57.51445151582067 0.6579438466717641
25.26854522776238 59.82161906568957 0.7188396735322111
24.48651267232239 57.68410319213628 0.6734868194397786
25.347928516158696 59.80396113196536 0.7304404549349212
24.522928857494513 57.70678076106794 0.6765595631132544
24.8208354580802 57.61173894590281 0.7221599874670814
25.843922087873185 59.67800665925847 0.6355594196294296
25.9648462662689 59.648348919604786 0.6491278200394872
26.06560149227547 59.6245692845705 0.6604388418881888
26.13538700732169 59.607926850009164 0.668318116311269
25.336254224956537 57.469019364567146 0.6329621462597178
26.236918082794762 59.58197640770101 0.679740274773445
25.927262840946064 58.64888645183863 0.6541560856929592
25.862252672471275 58.584922628924424 0.6483925509044955
25.810013909432833 58.50234464233157 0.6446195923496095
25.778313672353065 58.41569081675787 0.6434112694522082
25.747213288693974 58.32103945187649 0.6425920981302663
25.754791577597324 58.22927478522979 0.6461154526087494
25.42187311830839 57.44497202058687 0.6428393187229078
26.350250835096904 59.555044106209834 0.6925099659703897
25.775155110701 58.18251159849931 0.649775895090119
25.785749304096953 58.12619208466307 0.6527222752031031
26.4277414430605 59.53653060467945 0.701289064694304
26.515054862910354 59.517707934419974 0.7111302576016653
26.649911165580537 59.45970813759094 0.7264417237331442
26.64497410608184 59.38428932185929 0.7260390601693244
26.622908698408953 59.308913994489785 0.723851082884813
26.683280154451307 59.458675674639146 0.7302185039074763
26.641981965371308 59.33692514500473 0.7258719297659231
26.619962812690403 59.26067022639374 0.7237583683743154
26.5950001719127 59.16752930021428 0.7215729758009775
26.56886590570946 59.06498042692891 0.7195288282100568
26.546348507766865 59.0006915405069 0.7176779402138116
25.926725753998326 57.29785315302954 0.7013634583391737
26.614536876598436 58.96483294092255 0.7257713085486206
26.21868681464493 57.69148925694616 0.7146319569921954
26.193299151802446 57.64779491589094 0.713657316367122
26.01352584082972 57.27707628121211 0.7112433356083983
26.224908265815554 57.67568487617569 0.7159079734715533
26.197398496419403 57.595913764514 0.7161716855534715
26.172429865101325 57.51478228355776 0.7169200553428912
26.14659608345041 57.413576213923804 0.718629048419692
26.112245978668643 57.315186538153704 0.7195600893949347
26.07536004020762 57.26859212135573 0.7179566998407257
11.24512910128537 63.35967331822612 0.790439352044682
11.200125200876416 63.22112042872831 0.7902302334985513
11.17245867288848 63.15309233651579 0.790477946650467
11.056807588304157 62.95681584667509 0.7936134175290741
11.023318824420015 62.86982140862898 0.7939667356993508
10.99520751461218 62.81875995216048 0.7947063228274572
11.247682480987004 63.29911592956082 0.7889835535723257
11.16689685596589 63.096047097090945 0.7896508902426719
11.152333020196709 63.02136280837328 0.7890190718276223
10.766513747306652 61.578288881130035 0.7888112064000111
10.747225149692074 61.487866482306096 0.7888350545032545
10.706318723233766 61.36178239761199 0.7898225745686669
10.74310879315078 61.43222231999147 0.7883713382181915
10.724637514076237 61.39711457955468 0.7891168651788311
10.69786669969886 61.2879541446023 0.7894711446673623
10.665251100891188 61.18141114921862 0.7902865358264998
10.785837376188688 61.0896539012347 0.7815697279611549
10.767020047762042 61.03643246790449 0.7821741506192228
14.78663584126539 62.39646676945877 0.7990840465946273
15.049285106853237 62.3804746316289 0.7743674449060566
15.03740184610959 62.33549523296651 0.7736834214802636
15.066851185111187 62.34721520424979 0.7714274984302375
15.087618384960239 61.39183173760412 0.7368527998734168
15.08274351192265 61.33614868084377 0.7357486757619522
14.912430060598162 60.919730773022536 0.7418173829778256
14.649581081526112 60.27938661784358 0.7562472122119406
14.638813222494994 60.21093764568221 0.7563442775005563
15.087452674714132 61.288073387155926 0.7339691205732265
15.082108287663042 61.20958239926777 0.732386248054736
15.051974879423966 61.10327286455878 0.7325741697203026
15.015177656437265 61.02207187888349 0.7341710535915211
14.971826919282211 60.95294872713076 0.7367772500770102
14.672414231818273 60.15099860310272 0.752203372850294
14.811143249052229 60.115999957987 0.7380515971661261
16.481057838320552 62.109918841441505 0.8220157029600199
16.63890782991023 62.04328474332595 0.7989744237807802
15.811547274564873 59.91658070742622 0.8260133394662529
16.687562195881334 62.047201436741 0.7933930747356485
15.889389456386688 59.892910911253125 0.8152165360720682
16.811680002519168 62.03921991195595 0.7780989785796274
15.98519970245637 59.86871256522733 0.8020482011898586
16.920396375129883 62.00563827759807 0.7630471834757618
16.257281050482234 59.80097397223976 0.7646260373518871
17.48512069354307 61.732460919190565 0.8308894496325367
17.560880227844347 61.71320834538375 0.8180360286706729
17.66770327127066 61.69162281188988 0.8004157437004262
17.729676148583785 61.68691495498414 0.7908832975474819
17.837401476613543 61.63612299479156 0.7706782962909999
17.920225794946166 61.62311134418886 0.757429570864982
17.325755226310754 59.548857451458595 0.7553000963782717
17.353355783968176 59.53566326739588 0.750514101648576
17.424710003624174 59.497016755617935 0.7382283765519742
17.644975395506584 59.45253083198112 0.8273745103679219
17.839172938412442 59.41844064904428 0.787335479206495
17.954463535418558 59.383955840167275 0.7636695347523088
18.043992003835648 59.36155049725739 0.7453251467373289
18.082129756134613 59.347801939590276 0.7375470180277279
18.253280348437738 59.30935181217355 0.8092652390287943
18.33949898257818 59.29723677660576 0.7885330786978337
18.41011196523629 59.27017025601998 0.7718868875645006
18.518516460883934 59.24416416547778 0.7461763564232269
18.579116415859673 59.214901097102164 0.780545341819465
18.73438712137384 59.19716133517482 0.7863093212916706
18.808524369356494 59.16631999436802 0.7668338755530669
18.901747368327765 59.14570407720452 0.7418604939466474
23.481607474706717 60.367478447905256 0.7352285237153712
23.58957772875433 60.340730471512366 0.7693698157372828
23.621867870757374 60.29697224687036 0.7739393637291744
23.647499683727975 60.217078373486984 0.7745425353471178
23.701504821592426 60.22903919549946 0.7888452652289688
23.678116803139 60.21087356506325 0.7817704720093867
23.80454020417611 60.19352826857808 0.8122830548804921
23.89218134697194 60.17565059826037 0.7978639586621858
23.988861538613914 60.14439823324604 0.7479398010008217
23.9725334322615 60.07995786286911 0.7415759795568652
24.192091057059315 60.069890150778406 0.7889013480483329
24.283991076881403 60.04568526197912 0.8080403984375202
23.398292976583203 57.702698869969815 0.7505341160473601
24.365251190678862 60.02394228807875 0.8250343925232566
23.502778935619475 57.69774459125054 0.7691019153869235
23.59202243904415 57.68202229825171 0.7867270260612699
24.56682105890055 59.97456999195762 0.7416498693713431
23.686359388840838 57.64383842870827 0.8083885604127208
24.721980749415977 59.94233183433564 0.7693746517360676
24.65931049466954 59.95432180135515 0.7581350955842631
23.767085458952558 57.611677262187726 0.8268929601426939
24.80279641639753 59.9252229217182 0.7838366707783756
23.90750219039755 57.57461154716702 0.7325292353137595
24.823642885792506 59.91447720792687 0.7874749333327942
24.819955761672777 59.8627026482864 0.785876562130335
23.97090048388471 57.558687547898295 0.7437425311450355
24.07703504330329 57.540914745023805 0.7616201650733737
24.175686138628855 57.53059033284331 0.7776907331020894
24.373301303404123 57.71673931314277 0.7904015368161237
24.31221923025418 57.68546542321114 0.783625438106641
24.27513298535103 57.59484157660998 0.7865517924051146
24.256629130204946 57.5230526877227 0.7908738673008211
24.478966959475038 57.67191719144464 0.8114293853167163
25.40602812154006 59.79225568217445 0.7389235930134553
24.523174288888438 57.70104275198644 0.8159121169441199
25.447716428462584 59.77176749073759 0.7449410305159082
25.55782566113588 59.7459819487782 0.7610781668029316
25.680354068901714 59.727310200543634 0.779147233439471
25.736513925368854 59.70563348358403 0.7873428876361824
24.957170436051253 57.56503229123233 0.743284572058346
25.866972987837713 59.67675999419374 0.8065663052143582
25.079531243768425 57.578503303906 0.7585145493220817
25.013021521960926 57.561016466006116 0.750899430453161
25.961461156789962 59.65471410338262 0.8204933308102144
25.15380223649517 57.52357195448233 0.7720235786210204
25.107910632706293 57.52937708473882 0.765583881336657
26.02113440076466 59.63926840535013 0.8293267027065191
25.356999604930603 57.5031772214103 0.8003746379093408
25.87418794720083 58.53822100135494 0.8232580604076558
25.8423565024005 58.484789512208806 0.8203858023879801
25.799526312576198 58.391820310576634 0.8174208129260847
25.778030476527643 58.30255330258824 0.8175853248009531
25.93138077074387 58.56013400945059 0.8308826585077486
25.79359522942485 58.24549925493281 0.82200516404784
25.80026260041462 58.20884588173119 0.8244334347949925
35.934464736576906 56.987316801091936 0.744081789304352
35.91527511536595 56.912721251721415 0.7438726864731581
13.949527752135895 62.618441162724345 0.8847909412105529
14.028927272766357 62.643655358525876 0.8783782129306945
13.504896949117676 60.446326279953354 0.8717497934693623
15.90201487465027 62.169743537754506 0.8957208567997551
15.904305272774828 62.111651431970216 0.8921174149029852
15.042776288624166 60.053809331864656 0.9312410029731542
16.014051764885515 62.15885553079905 0.8814310158818076
16.12068518629529 62.17122105815684 0.8692055993957459
16.076025985290613 62.14948740633715 0.8733285978105636
16.23483128005548 62.16689743163576 0.8551382287751141
15.48018913367643 59.97855700319925 0.8713927139153208
16.369410152635997 62.149460052046024 0.8378717248159075
16.353423061646986 59.78022374768154 0.9230520674489295
16.41564636225537 59.76077675307386 0.9121969054557548
17.364846387379107 61.759327135922604 0.8510422664398657
16.52655741831253 59.70258408517523 0.8926759186066291
17.436702017574827 61.74357194681926 0.8390278580725818
17.807183371088087 61.66494613776246 0.9205708591179392
17.947843164090887 61.60693405877864 0.8895120574795264
17.19619657266929 59.57670969961249 0.9204929342008762
17.99767115352014 61.599343253066166 0.8799247918862169
17.274437626874565 59.56282575672708 0.904225602363772
17.33124050073758 59.54277426958425 0.8923965113517861
17.457836133298706 59.50459099533426 0.8661008476389305
17.614039100388865 59.476434067500705 0.8337910458995439
17.755635685638108 59.43263337387578 0.9291372849299789
17.832958626207933 59.41857983369576 0.9103780411741602
17.930949101687588 59.394504745529474 0.8866792338750826
18.046295211476995 59.35667781378387 0.8589576036247771
18.100309505861276 59.327961722714186 0.8461351993435869
18.241018562999166 59.31866425487088 0.920976961868195
18.34645318300948 59.29814771596528 0.8918434180292588
18.412926571202167 59.27071443178136 0.8738332512144896
18.525052698155967 59.23115851112864 0.843533844133185
23.915998201112473 60.16867105029268 0.8387939879702736
24.002694150429953 60.140710049827995 0.8591246513573193
23.98309160756344 60.08043698767821 0.851105484047603
24.199266068154785 60.06973207031234 0.9054715843319289
24.279734026908287 60.04918781385394 0.9250559746316659
23.402847582387224 57.70473672263255 0.8593822005961173
24.400586233033493 60.01110960190048 0.832330959976877
23.490420435535214 57.709526256295035 0.8761294805737124
24.4813541731672 59.99280629898154 0.8494522962460925
23.59401978040633 57.683045416881676 0.9013584443175662
24.538611624458092 59.963777191432285 0.8611586262077187
23.70368528752406 57.63700539799803 0.9309996124800313
24.702892041814703 59.9450967095371 0.8966987500679104
24.631933658581612 59.956077228471955 0.881421138814449
23.81664354810323 57.596704627183286 0.8376477669543531
24.795169313359956 59.92301417925715 0.9164262175135471
24.794895815129124 59.8657035090546 0.9151409207327237
23.881142488688976 57.585894999350394 0.8505280809850703
23.83945542223867 57.59482078426427 0.8419287949729242
24.831998633546384 59.90080432634584 0.924032036561638
24.80771916423087 59.85598011540487 0.9177847107603773
23.9747170878381 57.562606168376746 0.8703049121338863
24.08844954012749 57.54341385981623 0.8932929710869665
24.177891527483855 57.53586585937731 0.9105452105003424
25.158882908749373 59.84783283116031 0.8479696002998752
24.34834422773308 57.72999609720708 0.9198358908997597
24.31100703880884 57.685161240052715 0.9177492877700921
24.279182832657632 57.58384725556576 0.9234837050675886
24.24726304716532 57.528215861020215 0.9242208771794735
25.271970420239533 59.82734091838937 0.8684852833618432
25.37894192490367 59.79655862119475 0.8878014634838742
25.45873310800966 59.77819446174836 0.9023052150764949
25.561013150497008 59.752108531412 0.9208818247446271
24.739903410916497 57.6534748404164 0.8552046877001416
24.884120111578692 57.5938369757864 0.8838261317393253
24.953522711700607 57.58242301536965 0.896141889818644
25.02982632279386 57.602313775437075 0.906987800665535
25.06862903610883 57.54827953788923 0.9178849707837726
25.10370114135817 57.547778150902445 0.9236646895997301
26.07873147391362 59.62284913117633 0.8378065609534346
26.144237451226502 59.606103608678836 0.8475206949955204
26.259146036982315 59.580102981167364 0.8645301995261397
26.358105036680747 59.55306646252981 0.8791881416688151
26.43721570860399 59.534528782259926 0.8909608106946368
26.516211126109074 59.5157260952009 0.9026721783080524
26.642563984188378 59.45171729317927 0.9215591884419245
26.640349638897515 59.35878359168257 0.921545649878497
26.69367849688996 59.466022199460475 0.9291032481593382
26.654086398393428 59.381873340228545 0.9234899555801245
26.619135835098223 59.26844264842865 0.9189573471861752
26.593311468196568 59.16573720040642 0.916038389907694
26.568739807101785 59.06310900117181 0.9135989274301637
26.550011178731424 58.99840832588031 0.9117387558340879
25.924015952055832 57.29770093987679 0.8894165948096636
26.21697192881891 57.697175068654616 0.9066979109965223
26.191232868550337 57.61703056975069 0.9072693707770507
25.99969786071049 57.28209817710298 0.9005798559740309
26.232730881751475 57.69155983123301 0.9091877228147522
26.19468120545023 57.59870010513787 0.9087387811148522
26.174599145323604 57.51235598057239 0.9106707037536489
26.147754833497448 57.411551932573964 0.9127575501268584
26.114577230032975 57.312543703858644 0.9141730842061223
26.07023091442766 57.26949402110405 0.9108382709555588
30.70094764198072 58.48829429582374 0.8511377077881376
30.962719912780905 58.42511989874551 0.8719580836017945
31.261393359172004 58.35282405484972 0.8956237816083414
31.29659259642962 58.311414048610544 0.8987689262987998
31.2660801414986 58.24512255642675 0.8970280892244511
31.240719134619326 58.14139024493934 0.8961632602924519
31.207928288662046 58.040485880900434 0.8947582449159601
31.18885328104438 57.95402012106676 0.8943343853503902
31.158741688163694 57.886995167155504 0.8928690146557083
30.81381557491236 56.46647893807162 0.8924251134721336
30.793707913727815 56.397901336207916 0.8925553396304425
30.763113226759778 56.2974300353865 0.8927052904710086
30.743869336236095 56.20953644197098 0.8934737192573439
12.815925252518538 62.96278887936698 1.0026593359020786
12.88117189587499 62.98793661898716 0.9975178723789502
12.154702956786625 60.79190420650549 1.0101471938781437
12.79974511124216 60.61519153205532 0.943836316344849
15.032042378669923 62.390990544986806 1.015069331176902
15.036288680997256 62.33850486479428 1.0116980992634903
15.087428053123892 62.37825697498394 1.0075319703679708
14.37192360607698 60.22676428743101 1.0240163395605228
14.547264946455917 60.186788878196154 0.9998514216966126
15.06530562241526 61.033786496547656 0.9512500039926556
14.68717354365646 60.150878253549 0.9804667814141124
15.13414139883071 61.15158263093236 0.9461854955268455
15.128539299348121 61.08560633135108 0.9446639292074012
14.817419296884381 60.11664176772471 0.9624630703450638
14.933949451660503 60.08450173615346 0.9462959137314939
16.605257830352848 62.05407580485433 0.9890136220871077
16.699369361946207 62.042919080862696 0.9739217216425702
15.843313591623414 59.90609570939273 1.011619753271022
15.820687247572353 59.8607511813806 1.014776908896979
16.816033524128702 62.03896550724775 0.9560739677414822
16.18343877788978 59.83167890004791 0.9526689172561196
17.415700405218008 61.775586050364076 1.0019366219467913
17.407925652396937 61.76247904979009 1.0020077040907343
17.60691306745837 61.713508181779716 0.9612920189496535
17.94675339040691 61.60955571871693 1.0296091707464472
17.349427235037066 59.53669949154102 1.0280085247193358
17.47026193400568 59.49878468085851 0.9985156281987064
17.517058030987336 59.48699475089035 0.9870937145587582
17.653904950663286 59.45303328686939 0.9538324665992721
17.70084787319409 59.44236646830777 0.9424147930276183
17.88013347619729 59.40392567232002 1.0210762892138145
17.94347255931254 59.38974587606405 1.003441896390422
18.023484663953433 59.36648178828899 0.9812446572459801
18.136962689808605 59.34172321085548 0.9497531123898495
24.368986971060686 60.028814390804285 0.9469867477405636
24.478299989326523 59.99680184378871 0.9737112666907877
24.583550664616254 59.96140343881862 0.9994486133640004
24.688978231539746 59.94836826716764 1.0260279995176989
23.770500111575195 57.61554819516726 0.9481025283679846
23.894234958708576 57.58275511680945 0.9788005661205674
23.832201136004954 57.59928017278781 0.9633608893627792
23.964904425457895 57.568599831973565 0.9957189930560646
24.07229033158802 57.546156870923 1.0217004216384897
25.188495436148497 59.841557954738114 1.0013394661754955
25.26300501431031 59.825396390217065 1.0175035672080897
24.52937479184484 57.76392784327429 0.9512017872646599
24.48295274676016 57.70965717551128 0.9479588306238077
25.31850121358177 59.81383394925984 1.0295363366556516
24.518677976938434 57.698729160194354 0.9559894683081535
25.65795141078329 59.72479934822664 0.9385269357256392
24.85721443963691 57.60683577265753 1.031344758205085
25.753099075828754 59.704370789325154 0.9559065048058711
25.867071153459804 59.674984860035565 0.976738267446086
25.951173612483437 59.65275600388064 0.9921225494968109
26.06174423779309 59.6293232281928 1.0124314276253081
25.25664587282133 57.506163391552775 0.9522852355544054
26.15844595282465 59.60431085623356 1.0302006114650328
25.36232120448381 57.50830573531715 0.9695936624165984
25.98490968402395 58.494884878327774 1.0191372194639647
25.931736771674068 58.45388684119536 1.011268051983192
25.92141657127612 58.394542398244155 1.0119504320711867
25.94783606450816 58.361907957712965 1.0181203925177136
12.051381086881781 63.053868040573 1.077295328996479
12.19283173474563 63.090744672406956 1.0653510372358466
12.263336758736749 63.15191363013213 1.0609512091067934
13.67902435032713 60.401458286684274 1.1199964787535264
13.851472916766308 60.35619216675557 1.0960864537680057
14.795123042521748 62.38208389254297 1.0439663997666975
14.049669571505461 60.30901168882539 1.0686523097050902
14.885881555308497 62.3810783369873 1.0326257981985465
14.246172287646885 60.263265577075245 1.0415324783534006
15.815026382570945 62.122911417059626 1.1152988849361523
15.974608215072161 62.36570405561614 1.1090554388625282
15.899405741767147 62.16188024991253 1.1050776971863523
15.879128420509275 62.11505281262227 1.1047891949246151
16.01595179282137 62.160218067249254 1.0870145623509124
15.154211138740983 60.024793680309905 1.130711487148867
16.112363437707245 62.16674910177497 1.0727209474290458
16.054831048539626 62.162668228925476 1.0812176787354812
16.240418066895465 62.17735321019841 1.0540040597002183
15.57532111197289 59.97254469949639 1.058273525067063
16.199921722249037 59.80545522055894 1.1286988026119562
17.707749679633245 61.670952482427325 1.0871176099128441
17.84509884323094 61.62698906910335 1.0529365433069326
17.900208436011685 61.616044728628545 1.0400848634235496
17.25747861235197 59.54529718831338 1.0504353676054787
17.65103268405562 59.45340846518038 1.08511978266116
17.742210848004127 59.43261843795407 1.0596030566135266
17.81811822362995 59.41257180964351 1.0384271203877982
24.777967310810784 59.92612709948378 1.048217547423298
24.79405497755063 59.84485867834684 1.0503798515042158
24.809858930714157 59.86926262385105 1.0549843984467735
24.16292811559126 57.537419857715435 1.042243821244633
24.3731622723861 57.72237653873829 1.0631035092094936
24.31126700573619 57.684114768296794 1.054318498221725
24.28011511195631 57.58988452314717 1.0601610321486865
24.252137781401654 57.524154878999866 1.0632721141349153
24.4958643424989 57.67579973246291 1.0965068861120626
25.37010277647741 59.801866795244436 1.0407591503081157
24.532099274190603 57.71172837612194 1.1002098214807192
25.46336189827896 59.77661699812718 1.0609797071706577
24.66634326818336 57.706047923683464 1.1313356262144048
25.564331061261807 59.75061178607054 1.0829606983557596
25.660895049010257 59.73094506271276 1.1040545069468999
25.72223301731211 59.70966078097616 1.1173876322173253
24.937395662041116 57.589641773682835 1.0487884252280693
25.092644657257416 57.55218680057718 1.0830196547271758
25.021287418125855 57.571339196124455 1.0670947076850141
25.110033503000036 57.56073757178296 1.08560569924112
25.209610557502362 57.528387693364245 1.1084262708478732
26.252028293511984 59.57814288754999 1.0473955409422213
26.373024133778983 59.5510586881262 1.069667693490577
26.459537299093128 59.5324350262875 1.0856457607902674
26.53610115665935 59.513557626531615 1.0997489612426394
26.647907196595938 59.48382407834241 1.1204200356568632
26.652034478194764 59.399001090044884 1.1214448668142538
26.686407525224872 59.43608634485592 1.1276523185094527
26.655852203944235 59.35137886182717 1.1224344838704925
26.62177690972345 59.26627360451196 1.1168302747934764
26.592805303775037 59.173349583136385 1.112511225729101
26.56692605010311 59.080261474477055 1.1090818410570524
26.545106127472458 59.00653523785808 1.106328137098686
25.911708181560275 57.30209546619414 1.0773040691734692
26.2142087250381 57.68665613052938 1.1013630558413596
26.198896366281385 57.642567119615954 1.1015409250510384
25.98519002910809 57.28745013999652 1.0907219694096224
26.218838164903225 57.68481361689886 1.102268564002745
26.188061602462085 57.59640350563604 1.1027087657507577
26.16743605390513 57.513722011370305 1.1047901721704634
26.140736861556547 57.41303027037084 1.1073998135160832
26.106660603169786 57.314620546591776 1.1089605448978084
26.0678170226092 57.269139723330525 1.1059278288286818
11.262803240059833 63.883145601484635 1.1807625273357079
11.180598712375403 63.23173069379628 1.1651586970295023
11.161614143166519 63.12106131697221 1.1632980782900029
11.128506663439799 63.033096386605976 1.1636023308333272
11.038171571787071 62.94710206799953 1.1694738420531554
11.009973084502697 62.85748130127703 1.1694118709427566
10.98649043009805 62.76596622802124 1.1689164234070906
