ply
format ascii 1.0
element vertex 832
property float x
property float y
property float z
end_header
-0.7785762344738887 7.207823791937936 0.025436084661326387
-0.8080764711774169 7.120582542725208 0.03849522973018696
-0.826401647857777 7.023556357909861 0.053691081418827884
-0.8624551333041698 6.932805743101663 0.05220049423477995
-0.8791519415041068 6.869843559808879 0.05557316732902478
-0.9159479261081863 6.7183879552175085 0.04054946653536259
-0.9399353246571608 6.637707103650476 0.05097217892307507
-0.9646927344982863 6.543266286545794 0.05049415383736958
-0.9905841121992426 6.4462285367798975 0.06658026254183154
-1.0143623083384086 6.358665567299743 0.05177399630565239
-1.0393311544640231 6.281441836192057 0.030207850074324655
-2.1530886091399024 3.489321281827565 0.034310249870923036
-1.014731708401614 6.3245089473477165 0.0780880182769345
-1.03966574569171 6.2479007684618875 0.05333612207086149
-1.0594438610872223 6.18884195304762 0.04942558378002748
-1.2191737780275511 5.53219637892187 0.035471220294071786
-2.0168855163530672 3.466834501017545 0.03361692591985587
-2.0681454419743988 3.470917743094179 0.03373446925924786
-1.9390626794346135 3.4352777559370695 0.03237785932361267
-1.9655620613592482 3.430654464742867 0.03220549548020162
-1.54451986805139 4.199907637623114 0.06119761112230202
-1.5768171646796783 4.081734920985857 0.056741577639600346
-1.599238229502915 4.0091492100327475 0.05400739749170128
-1.6223293863244013 3.919727284062837 0.05060708172499169
-1.8828325893723639 3.414223232591925 0.03150334040680181
-1.8661563204462948 3.394593351615228 0.03070797674119723
-1.6466048358644094 3.8274586512046262 0.04709135848985322
-1.6724527367214768 3.723361053273295 0.043108821069631376
-1.6930731594542312 3.6194324363502295 0.03910768805415417
-1.7072247178711957 3.557512063655789 0.03672255362854206
-1.7635992530589086 3.3860534689734143 0.030159848381785957
-1.7743624641496778 3.367548665951741 0.029468445071090203
-2.091712303392312 10.557276895954 0.1009223792455323
-2.1029116677114574 10.522431063386431 0.10203555547971555
-2.111654724177528 10.473725411368983 0.10359242992113903
-2.1266517080953604 10.404769771431003 0.10581210899435922
-2.152595731737356 10.31959281547293 0.10853795807948491
-2.1758010533005705 10.206692443633127 0.1121449958686111
-2.194420840277841 10.109370237451794 0.1152430185893177
-2.2108449101206653 10.014260268487568 0.11827046312782152
-2.234306386226955 9.923028234407163 0.1211536580472822
-2.261973991272693 9.827889319898015 0.12414748403300198
-2.3970580114378754 9.51509868360219 0.13779148932578744
-2.4012618250964266 9.460291743994256 0.13938293567818513
-2.4472524818039103 9.325602585780304 0.14317689875872636
-2.285626781663501 9.716972319129624 0.1276353237055327
-2.3115877448825355 9.629482936872824 0.1303687946995411
-2.331430210590186 9.52379995404652 0.13367232367979434
-2.4047886889566596 9.420525481895364 0.1405347353908742
-2.426985720168286 9.353084630656102 0.14243779438560433
-2.4650411227621256 9.249962859005885 0.14529835037148947
-2.472472283195555 9.141184777079788 0.14837967683872533
-2.4905821583622294 9.051960774772704 0.1508339612847503
-2.516982269126741 8.950193034371956 0.15020502522845497
-2.543307678220665 8.854451963720438 0.13067615809918837
-2.559593981529967 8.777046604600768 0.13464011157331418
-2.539094084834266 8.73057735749929 0.12420024479679626
-2.548518230529674 8.643795749709092 0.13823809098701517
-2.577672767381875 8.546023073946412 0.14155092612630288
-2.5975712787011087 8.446837173667408 0.14546338173731344
-2.6202017273336247 8.349694210606234 0.14743200827641179
-2.652883584254189 8.254757936211124 0.15061561924271888
-2.6842168938595714 8.161226080378347 0.15093939610500923
-2.7118700219109675 8.075443945735321 0.15229957619916323
-2.7358902129257556 8.009303047441959 0.1617071044071136
-2.680860025834879 8.141220210739348 0.15964906531197195
-2.7083742871915524 8.053919251473282 0.15614884521824007
-2.7345290863051277 7.964274390201704 0.15594763009476417
-2.7576233859607235 7.877075057029605 0.15517419876189154
-2.7854952523982814 7.741600065028914 0.12933631192959733
-2.8057701833246513 7.671396325110001 0.1404003685917084
-2.8369864918994456 7.584034193096244 0.1500775428986084
-2.858608555687666 7.4756781663095415 0.15945264793250002
-2.8763439521409255 7.380341838197505 0.1649512981664632
-2.908950262722243 7.285250172547269 0.16551349940647447
-2.935044953579597 7.2069862954445085 0.16906808122198286
-2.823264265006972 7.4712420031478395 0.10167309404974283
-2.868139409654737 7.360221256232553 0.14015695912978687
-2.902896264009918 7.273189537924543 0.14661977551462715
-2.9363462567203538 7.1765825053390815 0.15664051804477327
-2.956478600962878 7.0892164295512545 0.1594295396149227
-2.981537702850669 7.002603551505091 0.15968584439832031
-2.891677993340485 7.010349881835626 0.18462943766389078
-3.4109869916694704 5.304923836250502 0.18211779300958197
-3.432514544279033 5.2330748384614925 0.1819058436979462
-3.4609703159239045 5.131515913313978 0.18161498341418675
-3.477063070613319 5.052991399789844 0.18142186737570698
-3.5025430632206893 4.947953279387114 0.18112980816282898
-3.5238085897825817 4.855446105505615 0.1808742333934643
-3.551918630655601 4.759704304254626 0.18056834814234057
-2.6040875360700544 7.152705672023541 0.1514167542295875
-3.5638655219916724 4.697456866815008 0.18040622355586783
-3.5829742236655266 4.633647250518747 0.18019379672094765
-3.604289517261148 4.541416328148584 0.17991985590183407
-3.6322753744261256 4.435578762218574 0.17958488897716263
-3.652392754320781 4.352959578762626 0.179327400927765
-3.6787554656096133 4.25679994483869 0.1790103052001794
-3.704237561430787 4.159181388100153 0.17869131121275694
-3.725558773019973 4.0651482753737564 0.17839662693810548
-3.570501930743678 4.213168601221506 0.17942133771106084
-3.6753303618734052 4.110124356258375 0.17872754990913792
-3.495917118152224 4.181434807769529 0.17966881981251914
-3.411184973210654 4.139475308892027 0.1799000851209947
-3.31708113793586 4.101835813080358 0.1801385010281359
-4.658482358977386 0.4804860519277909 0.16547073055808567
-3.2656068689557434 4.068019642822013 0.18021765598901335
-3.261164358849235 4.044128883339761 0.18015781402432451
-3.3055937622688925 3.9085502952075086 0.17963234585163862
-3.328460645505306 3.8203046074778997 0.17929951972517033
-3.3420347066638603 3.752108456344417 0.1790634878059889
-3.390691332490036 3.5814975076837907 0.17841094827809734
-4.677825303856789 0.36293055263764273 0.16507043761996637
-4.718092043165323 0.1913227864079845 0.164424331877217
-4.764999389719202 -0.0011791468234783054 0.16371671235412144
-4.808205572983301 -0.18648638010018193 0.16301672175033588
-4.870075969934506 -0.42017674956220574 0.16213888948716432
-4.943706381984419 -0.7340324183590692 0.16095897875313325
-5.205826136297522 -1.6457857793213133 0.15742684448704525
-5.169080220748242 -1.7451202974576123 0.15718676724977423
-5.346859887253281 -2.327670948672832 0.15487867414822132
-5.346566964908415 -2.4321451654893576 0.15454870940142262
-5.274035519073687 -2.4490862185135605 0.15462952649988398
-5.184928908173202 -2.4769670448802827 0.15470915563954601
-1.6053863756594213 6.579907041740203 0.14769289611364933
-1.6358224503339267 6.510927042213855 0.1586925772383143
-5.091798765671006 -2.4933258481094995 0.15482121924158943
-1.5071889181911386 6.600942432079219 0.14996669117789763
-1.4820458886393568 6.565918089152145 0.13454005763959417
-4.982434380192824 -2.5141565431351403 0.1549230109893452
-1.3430953148887002 6.640310613285923 0.14291425961964616
-1.3929903972640978 6.6091752986154475 0.15415879946502464
-1.4442018228453153 6.539267609158287 0.15831229362471444
-4.912767352041682 -2.5464354870890755 0.15492421704835596
-0.33355109075019884 9.062697352753236 0.13628274037154015
-0.34288376632066675 8.986378323265246 0.13846856062171803
-0.36768628746560794 8.89301221205169 0.1413231517127184
-1.3013345149591191 6.627101155150208 0.1510438609805147
-1.2609120334403965 6.5956041230832625 0.15621897297127316
-0.36949678032537747 8.854795831710529 0.14235455553173287
-0.38808581705159617 8.78011887815541 0.14458973136682968
-0.4158745977212994 8.68764742993384 0.14740665536800862
-0.4498538771086018 8.592793826360815 0.15035494159530227
-0.47024877235405893 8.489252968989968 0.13943919472972927
-0.4957425097154313 8.396959049574688 0.129578680657408
-0.5225577971395956 8.294039145714997 0.1348305720879059
-0.5319842114549855 8.228200364549387 0.11987815450035667
-0.5721380021312761 8.079704280677442 0.16440950813272925
-0.6015908990843777 8.001092823069657 0.14381729961223227
-0.624573867173821 7.923621742223477 0.12935387949041627
0.21025206941671692 10.042333030314358 0.10164307969205878
0.18832645114339863 9.95410397722976 0.1044342479693077
0.1476528328481661 9.847106057455573 0.10798073340503338
0.12058629324224412 9.752370709143221 0.1109745549847358
0.10346981823932233 9.650583811049604 0.11401130231393
0.10240811040797948 9.599661024223913 0.1154170205408317
-0.5449415157093118 8.124740477432889 0.1629520561106289
-0.5927151647416047 7.9905521444905565 0.15691149102938096
-0.6176245806642304 7.906556579890021 0.14912975320882724
-0.6400392256377176 7.809743633590236 0.15243543096419604
-0.6632360997173388 7.706606519977239 0.1453071999280265
-0.6820590572613326 7.615760112523856 0.14025463166647723
-0.6908508148116519 7.523135246399679 0.15854063004798424
-6.060513554877279 -6.4142538633820845 0.139615102846091
-0.7072391964898785 7.402676402330011 0.1776634806968711
-0.7650182174565848 7.206904278003631 0.17531434610929308
-0.8076826018152573 7.112654056951025 0.14711181824010444
-0.825163562592263 7.020311507557663 0.14588563662068854
-0.8625959278410088 6.930083029245321 0.1453608838089778
-0.8789965693693423 6.872230019689237 0.14193719563637386
-0.9123629471784153 6.72542272295893 0.135519934592758
-0.9447897136126837 6.638906387863196 0.16142578050747103
-0.9665853457365821 6.541885772227152 0.16299100711401815
-0.9926155908251963 6.442847292126881 0.1604959648074838
-1.0191148855183547 6.351770157315396 0.1590258781030815
-1.0409876269253053 6.280738946885283 0.13355920114842457
-2.153696355918427 3.492019042141333 0.17890778290421738
-5.982056531428912 -6.417631164771285 0.13969736506347086
-1.0195553174767995 6.31582783220347 0.18479225386968856
-1.0410498582468803 6.2482004295469125 0.16102072948132778
-1.0580374603756328 6.182748226445867 0.1607088878030209
-2.062832478204292 3.4580170719869017 0.17858519771107584
-1.9611874919938768 3.4445783427423846 0.17828956038633442
-1.972379218471623 3.4288342218877483 0.17824855459081312
-1.5491705575900345 4.165065559011717 0.1800089837705101
-1.571882813647903 4.10087537942041 0.1798258817104768
-1.599615774334444 4.002392935508611 0.17951499123949483
-1.622945360479779 3.9199054169510927 0.17925153965784268
-1.86859282754119 3.415635859770144 0.17790451426943021
-1.869323368516478 3.398892740642645 0.17784013760518158
-6.724872886273211 -9.376088295315483 0.1281571219300591
-1.646999676262367 3.8085780821160213 0.17886340680286006
-1.6731548703419592 3.724404835917613 0.17859757086366274
-1.693768143579176 3.624405505886803 0.1782430487905151
-1.7081360588276597 3.5124399841226257 0.17780603605135048
-1.7649031083717668 3.3845949710776466 0.17744960969406737
-1.782358699162962 3.369518242811031 0.17744627368257948
-6.634425818868145 -9.393341616834295 0.12818334095451195
-6.541864178514443 -9.411671374482424 0.12822123756931125
-6.454780345688663 -9.432158449787924 0.128237222447868
-6.365615480537366 -9.460998938891233 0.12819643519139268
-3.7221159061664078 -2.831084367510787 0.15449860470039156
-6.245559221035235 -9.497636411319629 0.12815160176813262
-3.338838583034029 -2.110327206336171 0.1571681387627173
-3.635869704796291 -2.866235948066617 0.15431955960378266
-3.5849051178693774 -2.901045190629281 0.15414240694713874
-6.1596263421196245 -9.528633836683003 0.12808246244284283
-2.7964987435243134 -0.8870820843260159 0.16157523225318882
-2.862693094390993 -1.1566891585654915 0.16056005297584663
-2.9343757098805923 -1.4517300456771434 0.1594199497617665
-3.235194218238632 -2.1186283895973084 0.15703675672477116
-6.038821644961638 -9.557677213935868 0.12804193855238694
-6.101755679032644 -9.551878540596888 0.12804956847712717
-3.0180498490209624 -1.813607110441211 0.1580416722790055
-3.0623384396992597 -1.882032850377687 0.15780206330340957
-3.1072796895408397 -1.9582782568744985 0.15755698642689647
-3.1638187035244263 -2.111594051948746 0.15697715252732733
-4.377266600760444 -5.464971111560676 0.14421934284396615
-5.94215820001628 -9.561273336410533 0.12808413882172698
-4.336221704634177 -5.4958323801939315 0.14407462529701104
-5.853191035916106 -9.589289884964526 0.1280221594205931
-4.771773572238905 -6.876016748062165 0.1387090859492527
-5.796305682472703 -9.611227153417879 0.12793632137365757
-5.811963620135561 -10.068848317871222 0.12617539911094808
-5.718732143706696 -10.083202439123045 0.12614603751217487
-5.628146083036349 -10.120003055183854 0.12600181942354488
-5.535560301599787 -10.152665080943784 0.12586637930996575
5.350598450239442 38.20660094533623 0.27773938241833274
3.8006818945457996 32.2580381948858 0.2615634811891104
3.8828409367591434 32.22113721422615 0.2614688196199021
5.749811758780114 35.472235185660594 0.2727277215613715
2.1882526903493753 26.070121496387156 0.2447107752177809
5.847675436974564 35.447994625350915 0.27274181456671553
2.2832547939356562 26.053040450754917 0.244886479290645
2.346443688776987 26.03317136333433 0.2448280938879388
4.9988362281547385 31.975042714162925 0.2635934070141976
5.081290696775913 31.941879580214987 0.2635835805786923
5.164054340042533 31.910425236972344 0.26390354810035666
0.8827185547951366 20.644616957240206 0.23018615314621022
0.9504428007477554 20.628019542019725 0.23028198577524822
-0.5990141599837997 16.031477015952042 0.21781417426280486
-0.5822152919226422 15.932438622790905 0.2175139991189643
-0.5031089838989127 15.96695787099366 0.21764749814297624
-0.37071886041992275 15.968428090664327 0.21770829321630597
3.497534082748255 25.757690055651196 0.2468346023954172
0.096153424854178 16.83069383217237 0.22027029242273727
-0.272281137075882 15.924978275741502 0.217679913470741
-0.3263287706800242 15.87625332441019 0.21754593811059442
-1.4502555400665196 12.90419894507895 0.21010127524654493
-1.5163340098999862 12.864797961296441 0.2100952904330472
-1.5463317512426478 12.75565746018722 0.20983828824603407
-1.5655430136105872 12.676150641570917 0.20968786092068714
-1.585473617425572 12.596567411077391 0.20948377481075264
-1.6143866776881328 12.461081733038473 0.2091921942543844
-1.6412584466880629 12.353434806830428 0.20897166395988015
-1.665615863166462 12.253606548295457 0.20874064760907035
-1.689824677807656 12.157666306304122 0.2085241625315462
3.562575912547429 25.74526618759865 0.24711448176422207
-0.20661140251970478 15.879983657719855 0.2176076890559167
-1.3511693901174722 12.878732235259516 0.20990623900203514
-1.7135185199497498 12.054612704900514 0.20831675207918476
-1.7368201983517826 11.973449786449912 0.20816917047270728
-1.7579189017827668 11.883145028813805 0.2079681926250786
-1.7851970137150874 11.762599755593243 0.20771785069341264
-1.8118774194157994 11.673878001243036 0.20755573882006328
-1.829738254961689 11.585253086549884 0.20735881712001591
-1.85319193249198 11.492286776976588 0.20719597403068485
-1.8818601340522016 11.37886218772969 0.20698211142215656
3.6595035966361826 25.72421103509223 0.2472942768496701
-0.14964675155744533 15.792331300281012 0.21748658485568556
-1.2511944670101576 12.852138925693941 0.20973886192590024
-1.9030149054423002 11.281584720900888 0.20679472720000436
-1.92372482845205 11.206185888163379 0.20666694566048655
-1.9473840057794698 11.095626570698235 0.20645833643142386
-1.9760869671818309 10.994415299141346 0.2063093183285168
-2.000629327534675 10.880461213027425 0.20610428551968074
-2.025452988724721 10.782203535473174 0.2059612374109988
-2.0489272269958363 10.69377320945037 0.20583273945439468
-2.074733228295168 10.591754157037261 0.20569779837960322
-1.1619734806785496 12.82826492792594 0.20963157498649287
-2.0989976354032405 10.495871720281137 0.20557859714556453
-2.1227836432757066 10.413889030224034 0.2054963584462136
-2.1500089305574908 10.307626557830824 0.22441105751908252
-2.173272115890045 10.212002878235605 0.24673443672136014
-2.1940539854789547 10.11240699012214 0.25026422185463537
-2.21409606209364 10.013059431880999 0.24850731815883237
-2.235738236136685 9.914771744121982 0.2468414925156256
-2.2573765251737328 9.829964616456571 0.24994976910861433
-2.395216390112525 9.507385393150145 0.2507713687109665
-2.404669414872914 9.4492654105523 0.2539206517938025
-2.4355144254133405 9.351717295605258 0.274352664281476
-1.0022127439099255 13.076729140707702 0.2102206843199838
-1.0408970243030193 12.920314947161613 0.20985400291196699
-1.0901765749970096 12.813330964692621 0.20956290782597747
-2.263940956781693 9.789246807145137 0.23132903933934473
-2.284027056555751 9.721592218830295 0.24666222293597384
-2.309731691966501 9.620641169386635 0.2396529615971698
-2.3303542817663847 9.51216505903664 0.24044426704056476
-2.406002800084997 9.419494538979647 0.23080072971055188
-2.4293399144285357 9.344551230563265 0.23936448741454974
-2.454370770656925 9.252395088265118 0.2362731510456369
-2.468645746383492 9.141839481952823 0.24081527598639735
-2.4917617217621832 9.04418360773126 0.23449981538781417
-2.5182786376310844 8.950455039434416 0.23687327995845436
-2.5422221659648545 8.855552524435069 0.2339104505832097
-2.558023932599265 8.778239868320021 0.23412718184908293
-2.5462160249487242 8.719404743901146 0.2409926824517835
-2.544209461685917 8.64251482252114 0.2312189521871985
-2.574882854926682 8.541757273005556 0.2505432595633919
-2.60159957297261 8.4485214637036 0.25230160051797496
-2.627570906112567 8.351012082399105 0.25207201293480574
-2.6547817370164983 8.255882463204797 0.25167862984472544
-2.6823735938344386 8.165414122013882 0.26429240160382234
-2.711419161086755 8.078754724408686 0.27486818990609313
-2.736851154969847 8.008967495191305 0.2728707184791264
-2.653524059772436 8.214274036869382 0.21114604358251926
-2.675605027065613 8.14297524523663 0.22556798048203824
-2.7036575588201 8.055622488771954 0.24270862026124723
-2.7314905571736876 7.964458141947268 0.2523846073581151
-2.7557988142536782 7.87017254667165 0.25149245397636893
-2.786965958685666 7.77034654914429 0.24357695976932664
-2.804415386426275 7.671340703838017 0.25792212834061023
-2.830102206574062 7.5807822754634016 0.24720164731178668
-2.8535439450915305 7.47715880797187 0.24326369049945923
-2.876301670177332 7.379468254712848 0.2465827234611631
-2.8983939798584 7.307144909353724 0.25650498415489653
-2.9243295325592578 7.2289876632746735 0.2731809465116516
2.1577119677357217 20.398384987437005 0.2324463035701454
2.186328895489854 20.339622378359593 0.23250975040807592
-2.8806628131888234 7.337419555953735 0.22510121676880201
-2.899979232367958 7.273129737628371 0.2457499335832123
-2.928104448361999 7.182472999832618 0.2511615611878126
-2.9521176497602863 7.087013206253481 0.2551329111367811
-2.9785666548731244 6.994532669156991 0.2595062173428371
-3.000473364430688 6.937588707412496 0.2867825026615922
2.260340270434312 20.336750217715583 0.2326911817341017
-2.800421963355648 7.03009011581674 0.2731766634299233
-2.9021830966656093 6.992130849477171 0.23214053644701554
2.3485513529268967 20.304891047841636 0.2329157677314645
-3.4252783818393495 5.234371965209197 0.2845786541200044
-3.453662311000592 5.123500847544575 0.28799329878711005
-3.4784156628114595 5.0320717351455695 0.2908354904457628
-3.4968071458195835 4.9464215631456225 0.2934368777416367
-3.52695385247647 4.829743308336624 0.29705965377564636
2.399519424071346 20.23922937070556 0.23292481288820566
-3.5436943628023085 4.750612740027661 0.2994722232066233
2.288309281465452 19.753863208190296 0.23175327101835008
1.3253610309811785 16.491035519542145 0.22250807071506756
0.09638314941190851 12.749440634876217 0.2115701197833153
0.05535736503574018 12.54876970054514 0.21109329026080592
0.11314496060023727 12.52311954432896 0.2112814049928416
0.21046752496412613 12.496043446530672 0.21163998061495615
0.30927456867286196 12.47340277488859 0.21204482635446537
0.40852372743562126 12.447796105265343 0.21248731332304605
0.47700960561196926 12.400583869778782 0.21278249156493612
0.45180909499894595 12.258275007588658 0.21247159800525273
0.41997095158346287 12.125395724640098 0.212175728338047
0.39590354945927864 12.013028512224208 0.21194469475718225
0.3684230232770336 11.917593339465776 0.21167053306221884
0.3476636031611102 11.817788855858346 0.21147479343314557
0.3282723557635876 11.719413424165607 0.21128549685585823
0.3072631575175453 11.640593410475493 0.21106734737929828
0.28149631366098604 11.537302011861268 0.21084466823478581
0.2518086788475995 11.413433458274685 0.2105719232598553
0.23157185990873885 11.324980527021427 0.21039550206992713
0.21449438339387172 11.259501584050405 0.21021811683406044
-1.6349993184170517 6.581082106894589 0.2601084446780732
-1.6463115595585402 6.526435984641602 0.24701664633466813
0.19787271007884 11.196024785174568 0.21009701099890526
0.17778955758297488 11.113923240360888 0.20990651477202948
0.16109122488053584 11.038973951196702 0.20974296422542543
0.13511091409613352 10.94847037761674 0.20953840819435188
0.11481219264581677 10.856982662157403 0.20935863625075052
0.0920852333486668 10.764363748550682 0.20916648374518848
0.06817392231989294 10.683727234134059 0.20898434564001417
0.02502753369549482 10.54820996116364 0.20863434149969357
0.027650644523905532 10.494574637262783 0.20862480803381162
-1.4658468354781196 6.613019817412746 0.26065966843695837
0.08528091708760632 10.487545819567067 0.20903536526749344
-1.3421104131556207 6.639612203571108 0.23675342832982083
-1.395094699165539 6.608941250214376 0.26133390656879874
-1.4433212557063304 6.557468573509554 0.2270178533252975
0.17846614118983606 10.45742256491323 0.20971105056243344
-0.33720976065744934 9.073839771836289 0.2414396337537676
-0.35203427430105716 8.993802389535071 0.2384420035747425
-0.38035402539872254 8.882906743285133 0.23845322110638728
-0.39286028141669216 8.817214296165847 0.24786026564433233
-1.2960133752421175 6.623086094383223 0.24302240813869924
-1.313403708099332 6.611491915148706 0.28435346663504296
0.26170440511009985 10.432353046735427 0.2103511927533142
0.26636877817285076 10.356906872815971 0.21041724085726748
0.2491184534393056 10.269228970271971 0.2103259351909133
0.24051356351537279 10.192987310815171 0.21028850807363436
-0.3730961734017677 8.854287160436341 0.23809249305786145
-0.4000095358517657 8.77705031868702 0.2348359300361716
-0.4225028751854958 8.68861717250104 0.23416050396954197
-0.4527403976058668 8.58971842109128 0.23539242171280172
-0.47639888779356987 8.494915407641695 0.23272641977091674
-0.5037215261161929 8.395357572071608 0.23230203874430572
-0.5263452469700558 8.297905775252161 0.23187290192370774
-0.5444929945964807 8.19705956231365 0.2269335911832948
-0.571460725264519 8.098725936754505 0.2454126953513927
-0.5970824785380813 8.015238993309081 0.24080121716928654
-0.62191384110008 7.938546797215425 0.2131589706857397
-1.2417799020282962 6.563755553867676 0.2272770119786457
0.23230347453216393 10.145057978353123 0.21026681816918175
0.20467974229524044 10.045855974828596 0.2101087504197447
0.18154459960141955 9.94720311425015 0.20999883458974583
0.15833130998748768 9.869738216632173 0.20986461275495083
0.11908064641390159 9.767395031694752 0.20960808944737902
0.09912678160433819 9.654347898411823 0.2095325078560501
0.09196919629747269 9.589554163947655 0.20953943108579604
-0.59583854707475 7.982806377745873 0.26686870454391237
-0.6199520600136048 7.9031698726046775 0.24976813951150884
-0.6428633449885319 7.8090248728285525 0.24663842331482605
-0.6652576257389704 7.710178966126524 0.24504556136815503
-0.6825596728859388 7.621054963668133 0.24878849172446915
-0.6945226864266513 7.50773073684572 0.2815677171626294
-0.7749627901373956 7.198429826127497 0.28555647057288597
-0.8100539456016189 7.11132968745135 0.26272409183801737
-0.8315900436827415 7.025977360870461 0.25432127590637055
-0.8627956407420103 6.936835045938292 0.25742882211906803
-0.8816893214656627 6.830781792100899 0.26121992351310164
-0.9139560266790705 6.735740193974957 0.243575525211988
-0.9426661465159543 6.640309000825222 0.2493216483275017
-0.9666215128653934 6.543353161122701 0.25108833740742514
-0.9894454975336135 6.447553886124964 0.25620957102634867
-1.0156611184913218 6.358659017190714 0.26341244367387173
-1.036397216631011 6.294249443316819 0.2699937599243227
-0.9896492201578398 6.395519799693038 0.23329016237983585
-1.018076551088618 6.322768032480321 0.24960015255739293
-1.0419620734964146 6.241872755007318 0.26134822969730526
-1.0601556022720984 6.182584896257331 0.26919029041771786
-1.5539162614281206 4.150426137388125 0.3005794127413339
8.840418522338021 52.65156973311815 0.31624669908499253
10.08779966508965 52.34590745670431 0.3183464142255204
-1.5230154693163471 12.877322549394737 0.39512100405556344
-1.4478712636930464 12.908756070477615 0.39627565974916656
-1.5039629902399418 12.892667577597543 0.3956579223863347
-1.5433202965617643 12.78793179223025 0.39174404204635904
-1.5632852895353564 12.684516766682727 0.3879012259058933
-1.592898608014303 12.565213824299398 0.38343587348847247
-1.6209797477109715 12.457746502967659 0.3794206733277416
-1.6389918925591223 12.374042529330204 0.37632911597003577
-1.6636571130058067 12.259306136002087 0.3720449902602236
-1.687841916099783 12.170436824036715 0.36874121752539524
-1.7037589004892582 12.114477188760457 0.366699642493177
-1.3666726703547163 12.88904620688761 0.39557802670866543
-1.7195375618888196 12.042435273899473 0.3640064748032164
-1.7348887191962385 11.974370245958802 0.36151404164035983
-1.7561812717165077 11.89013770012503 0.3583983813937566
-1.7838659712066638 11.787667789962441 0.35463757672440976
-1.8100369299149226 11.6730410600126 0.35042569398154666
-1.8344056585929942 11.579260203923436 0.3469993870768994
-1.8577447938860667 11.479329450445315 0.34334895267752275
-1.8803144842465391 11.38224903333678 0.3398127273193799
-1.8978633011671786 11.33729160440246 0.33820604196110615
-1.3271570581244503 12.799376999326665 0.39224592187317653
-1.2977679970114702 12.705704509458897 0.38880339510454026
-1.907769266387328 11.280692065245411 0.33615563435110424
-1.927265046186299 11.190008398736694 0.33285332150725094
-1.9519163390624281 11.09546575782991 0.3294634698887568
-1.9742248372571904 10.991463077878773 0.3257198291271661
-2.0001806630826384 10.892849257553804 0.3222103268693932
-2.0247551982220795 10.79068705779438 0.3185889795970921
-2.0474321076254776 10.694374385558906 0.31517959973316595
-2.0707253488110426 10.613747163382595 0.31238964341602543
-2.094244033121995 10.523969863932361 0.30927685827647133
-1.1409530385913227 12.833970128946792 0.39399971085510865
-1.216000403950342 12.716159197551384 0.38937154487896924
-2.09858048880098 10.503213066934647 0.308538467087222
-2.125207726032316 10.406766531700576 0.30524758282595554
-2.1523298906724504 10.303449300356267 0.3499880360560113
-2.1746174022265787 10.216930042524254 0.3925719676088066
-2.1967531404588474 10.113861593011636 0.38567978657439966
-2.220149390083458 10.009522696115718 0.3787816192216935
-2.242047616997356 9.914137654554047 0.37255557006180406
-2.26692066905691 9.825947222621398 0.3669732401735935
-2.278973988548806 9.76161309109866 0.3627877915283654
-2.3988881723516124 9.511019984824108 0.34998260008425713
-2.4107943497447253 9.470748244851048 0.3476477758712474
-2.4628633445379604 9.281293798145215 0.3369249063056827
-1.0367319156626544 12.938172714060999 0.3982847818290657
-1.0882369328286408 12.813427711529705 0.3934112813463433
-2.2896832901023947 9.71354319754409 0.3597450983199857
-2.3159429757318986 9.628213337484178 0.35459908489139574
-2.3373406810473965 9.527827545896812 0.34837804025488345
-2.4011897888800524 9.409467200995639 0.34311018581910874
-2.4216824011390092 9.322034398891674 0.3379815772779241
-2.453244364170165 9.255999266029743 0.3587060963521689
-2.4778578384892027 9.154901143316183 0.36368261242686606
-2.5025727075144872 9.0534621408168 0.3496004328178663
-2.524599985914076 8.951373077017559 0.3486961289700363
-2.5513992561438754 8.856241563417946 0.34109534197519187
-2.5690765057559735 8.781567719801936 0.3352462261210672
-2.5341509181332253 8.698786730528399 0.320723425404079
-2.551253128970817 8.643144997032413 0.3491002502737469
-2.5799571964658585 8.552843887303055 0.35985270347983545
-2.6019118878725003 8.450559683263974 0.3624552767798026
-2.6225693833396395 8.350005731256786 0.35747399611083835
-2.652137829123263 8.255534962941281 0.35407010278254614
-2.682532655081823 8.16178784235163 0.3548170696506421
-2.7120049910790702 8.077422667330163 0.3631896280307123
-2.7384777070552158 8.001495645714813 0.3720209114857916
-2.6427147651975775 8.238832309332512 0.33106915100058854
-2.6774906345921092 8.14250668599387 0.33524338845622453
-2.707914469760447 8.052984342951959 0.342583365555156
-2.737271943552835 7.962789661225302 0.34906881393950473
-2.7642109521323697 7.86887514717454 0.352118186919672
-2.790081253537182 7.7707637315177855 0.3439809755186076
-2.8071768271799797 7.672439422263675 0.3568758602172073
-2.8416258454005954 7.574947886114162 0.34639234712207645
-2.8560448642442564 7.480052704095749 0.3480694024224041
-2.8823905200258118 7.379979091404165 0.3483490541849415
-2.914376897851138 7.285014228249401 0.3411307143045095
-2.937571302371417 7.204806496941732 0.33810446107756953
-2.9637586060694083 7.132976091383728 0.32601855821496095
-2.8697097001171454 7.3594445846314045 0.3806743422285441
-2.887123939567135 7.3063553719788334 0.40035983801517594
-2.937384871559649 7.177027862215088 0.35035944119497897
-2.961905858656654 7.086261337453774 0.35009479951054706
-2.9900518120271222 6.989933046948433 0.3631522749204757
-3.0104146764794333 6.9232006737232386 0.3685982366779031
-3.4284499189496644 5.232266855424002 0.38764843893046513
-3.4502063205449063 5.139939038792022 0.3935233194857207
-3.4740941293583063 5.059808124574452 0.3988152626260516
-3.5698724083544175 4.6541130934355435 0.3024989466504979
-3.588406648048557 4.5668476073902085 0.30516852128429306
-3.6194842896403134 4.456342945349773 0.30865731527372525
-3.6442686330129694 4.353619846641572 0.3118523630118453
-3.673950337667942 4.251405815782747 0.31510106754220363
-3.6905895484928717 4.168410611951375 0.3176454772118226
-3.7227050893018174 4.055325403680385 0.32123797859764075
-3.7449773463024316 3.9725161674010954 0.3238586664039518
-3.7387742999238474 3.924672055100385 0.3251270653286758
-3.708644707182761 3.8723556535156374 0.3262347493680686
-3.627994396106064 3.851642556327797 0.3258408752584049
-3.5079199582150107 3.8460530803865245 0.32457893874382054
-3.57056788004699 3.8341242168056735 0.3256508682370681
-3.415412313070754 3.8384414998654655 0.3237396942015112
0.05629207502422706 12.547661562271877 0.3948744481777954
-3.3447732092286078 3.8181679017301104 0.32354204353643107
-3.340494534472242 3.736217179074295 0.3258823636397802
0.1145324287803331 12.5233207134047 0.3949552635399402
0.2138603280399194 12.501424526789746 0.3958374234316886
0.3116740704713863 12.476116868843587 0.3966773429736456
0.4127147828431119 12.454546874325375 0.3978088924363974
0.4749899096281016 12.414865476501447 0.3976789470196727
0.464861444776568 12.306471563332547 0.3939119480943605
0.43000268612473613 12.165243689786372 0.3885988064562395
0.40612968594313026 12.072735254306505 0.38506235508208814
0.389218910714213 11.996801403255564 0.3822711726550877
0.3737319192052029 11.92672228022662 0.37964499880927755
0.3492179113044047 11.818812520789194 0.37565125757519263
0.3170378256037969 11.694495110772806 0.3709691974465347
0.30391460324272335 11.631904562302228 0.36864675589660306
0.28476529871659584 11.542133941993423 0.3653680322603779
0.25621013333435516 11.436848203721954 0.36139551469382336
0.23112880941876845 11.33859506257446 0.35770170443240157
0.21654851233497308 11.261792187117724 0.35492579722256856
-1.6440337252508341 6.573644447980618 0.34679030090312635
-1.6592355821878637 6.523185623028488 0.31040094874977403
0.20360176615083292 11.20546282538714 0.3528777806117768
0.17842259270974448 11.113677591965473 0.34940380219503997
0.1555913496845196 11.027333425732888 0.34615916352608517
0.1429453371786995 10.961494143705389 0.343819103021606
0.11254461123103643 10.851682552218154 0.3396915873642971
0.0853134898825636 10.738338191123423 0.3355438208556301
0.02778373073466711 10.540196568584498 0.3280753899778916
0.09000303088954209 10.486331639349263 0.3279986106625963
0.050151593770729974 10.485248640057165 0.32694742180483705
-1.3962649599126364 6.657792275125965 0.39930293570569614
-1.3767268385218185 6.62696474334618 0.34847519969405794
0.18221973451374152 10.462347586138112 0.32968088231677467
-0.32179614225638975 9.078397945268726 0.34822566013567885
-0.3386534526209024 8.99043940983045 0.34290533151808705
-0.3770408188656842 8.873704898278822 0.36076600628036054
-0.3893767825773131 8.826010836813504 0.3636837834264588
-1.2932741560235788 6.590425793503436 0.3472184722455719
0.2572173237307629 10.435531235038015 0.3309313903111363
0.2620117418717247 10.350084979044434 0.32864449238626636
0.25229931574508835 10.256235361206318 0.32575248962779857
-0.34133704592542946 8.945018861562325 0.3405447669392096
-0.3729496284145566 8.844362549212326 0.3553212462744949
-0.3947103679870434 8.779033422263394 0.36447151627694796
-0.41964893440944784 8.685380399796502 0.3534115261912989
-0.44602021212778675 8.589738492516638 0.34633121419600077
-0.46973207254476024 8.491815925726678 0.3385411038229976
-0.4926242050746954 8.396891885399919 0.33433827444519354
-0.5243124805868988 8.293271579172913 0.3480642904767127
-0.5372841519691578 8.199890007141573 0.36638389409132066
-0.5676480327920506 8.10507359153499 0.3586519757789676
-0.5996864676615734 8.011908813586839 0.3602093477986112
-0.6201304466094606 7.936645396144185 0.3529318596749988
-1.1686402087439334 6.573117755702591 0.3561596619118645
-1.1973900316169042 6.550192012844779 0.3486804738065146
0.2464573165543562 10.200420471386193 0.32403752317893675
0.2272099346290697 10.128709849586892 0.32152983895172677
0.20347052066101812 10.03496245316197 0.3183014210052955
0.1852885629730674 9.951466093706967 0.3155307597364833
0.1470660564704358 9.847628183496557 0.31162380476169865
0.11350151880708559 9.745136334477184 0.3079099623818353
0.09727147296998462 9.641675920416226 0.33187821202339923
0.09753305431129733 9.592599920215813 0.34142115844758464
-0.5677557613281943 8.064059761241477 0.3359008995670934
-0.5918755375026175 7.996989168932593 0.33113252995347137
-0.6195693114676966 7.904579447444151 0.34425246220014577
-0.6415501850708341 7.803334193024885 0.3557449632687274
-0.6627255040234863 7.709816942874817 0.35559287317918603
-0.686895501889638 7.614502716230332 0.35528507196398096
-0.7043672791064075 7.525827312133642 0.359566828481302
-0.7153162605250662 7.426843629978109 0.35211817013960983
-0.8262949521322979 7.118319776284498 0.3845559777282741
-1.1556417795693321 6.51586165519484 0.34202977424968006
-1.1519250484671417 6.4020903467918435 0.32442995696875776
-0.7305402172555384 7.364862750262698 0.35251798802707207
-0.7418204165157519 7.316137023444551 0.35348765163324963
-0.7831167962291632 7.198761060882849 0.3553983296333061
-0.8120079216099114 7.1265538333812515 0.3593930383399106
-0.8308930215124467 7.02945144576874 0.35412614792984215
-0.8648687150488951 6.9331307673734734 0.35137289880576555
-0.8727844232595057 6.872807258181697 0.33691996460924617
-0.9111349308277429 6.72791841202053 0.3718659422464931
-0.9376914090545774 6.640382586673145 0.3582946863773338
-0.9573126512119438 6.541597184106028 0.3418447651118439
-0.9855892479843531 6.443926372347233 0.35081002032057246
-1.0203950057174938 6.362474380406041 0.3540251096167076
-1.0648039989550897 6.3062456491354055 0.38707349315853407
-2.1594949035200135 3.4972492974336395 0.323239469940008
-0.9935817739460578 6.392913022288045 0.380368686535823
-1.0083876156421048 6.346300404238248 0.35983465606745796
-1.045409213096086 6.248524814813803 0.395197616708089
-1.0592492775169149 6.170328760104469 0.3490018680121619
-2.0598582703221533 3.4813885635052406 0.323170324112117
-2.060541275120201 3.471858082260109 0.3234631006338476
-1.9596962081833103 3.451893772862511 0.32356038416883454
-1.9606776885837751 3.437467331692819 0.32400003015517986
-1.5768170368473515 4.0929958994527835 0.302407611162138
-1.6043885990588291 3.9859385430195533 0.305768835732687
-1.6279760705714916 3.8975269672860793 0.3085511810060655
-1.8746568056156003 3.4187422943776395 0.32417097898865843
-1.8647588287775778 3.398763482578027 0.3247408000969477
-1.6524301064570441 3.804276825443616 0.3114880294373679
-1.6789530030127098 3.701192481090093 0.31473601216345354
-1.6996906829891756 3.6182424358396315 0.317347179963612
-1.7142191691693864 3.5063914800179523 0.3208285646107041
-1.7686555475105912 3.394266492678903 0.32446995511559695
-1.8027191168739256 3.37800718001765 0.3251089087093572
-1.7885583672290841 11.749555152081921 0.4991440636262545
-1.8087979635428573 11.693138493010045 0.49513241625353216
-1.8329113271907618 11.586578330116817 0.48752281776845374
-1.856313092304924 11.48684714531757 0.4804220100510612
-1.8795562640944279 11.402905854231037 0.4744832204048248
-1.8955470974388284 11.326167404251606 0.4690208391250776
-1.9113618859166945 11.263317769966799 0.4645938801318837
-1.9315499009933161 11.185082219132639 0.45908688151409754
-1.950287496676729 11.095775191511429 0.45278215826974744
-1.9742958555938812 11.012183068968314 0.4469613982707537
-1.9992260063220848 10.899181192302667 0.4390402053684718
-2.0243661062808576 10.80250199958393 0.43234517021678887
-2.0481506602137807 10.714296062427238 0.4262657505166552
-2.078204751212396 10.601584049316404 0.4185543264430861
-2.1001297139683794 10.525419826047763 0.4133830517176342
-2.1090293427228604 10.477823114595168 0.41010882612857813
-2.1241130875717946 10.397117056096064 0.42427258447111743
-2.122845381368423 10.292356575859632 0.4739079958127385
-2.1401261644496214 10.188721461146685 0.4829877065530091
-2.1635038338747967 10.088903421342671 0.47299821186136004
-2.1848004791016162 10.037773487849696 0.46815973506275876
-2.2853537611039316 9.760687337038897 0.4423354477899135
-2.3963557741682555 9.516243431742161 0.45758828251058553
-2.4037083100732013 9.446616281596521 0.44969951195506375
-2.44432049222339 9.332204825696941 0.44363912754691326
-2.4569818107519947 9.293784960312017 0.4024795092695868
-0.999964107224603 13.078598672529292 0.4036360801371177
-2.186868396323809 9.982572103409057 0.4624083658214528
-2.2179397830029886 9.782082900078466 0.4423087347351226
-2.269615368064203 9.71758682276841 0.43734866952148027
-2.3119508391715065 9.63132402812585 0.4300201756632728
-2.332376817948493 9.524732778814213 0.45336708116895813
-2.40568623889869 9.41518856344371 0.4532237901227284
-2.4285196433795075 9.352510424300968 0.43359124038485863
-2.461427909632171 9.253867425394423 0.463106752045566
-2.473936876381353 9.147864189126823 0.45041788010013084
-2.497624628323514 9.042248179508624 0.4595521644036191
-2.520544577258895 8.953761487441316 0.4561122563340518
-2.5441882390749244 8.858671050746652 0.44820584892654913
-2.5641605732734214 8.778507569562699 0.44137921337757985
-2.538239439599681 8.700077548272015 0.43546665147861857
-2.5451593122244174 8.6435673538449 0.46730676575802743
-2.5738380638485476 8.54883873557098 0.45926369608632034
-2.601813685670341 8.449950603980758 0.4514285589187991
-2.629497747935101 8.352425209612932 0.44463672596090686
-2.6541536061393014 8.253409360284895 0.44756286445246884
-2.678793061440399 8.168922861848948 0.4396123087550498
-2.7150007560193283 8.07291091187132 0.4149276457180189
-2.7389067142505095 7.996412667009632 0.4121887100517753
-2.6515028933865543 8.217483712858048 0.47481648970685664
-2.6722070574847034 8.141404952510596 0.4665023597041071
-2.6933659327249604 8.055414624792832 0.45665902158045923
-2.707327503951175 7.957556120730752 0.4555241621046985
-2.7381472082219345 7.854959890451402 0.451719217925802
-2.7738500680020044 7.768562733248805 0.4437772657045521
-2.789300000783207 7.667670974609525 0.4496552648240952
-2.8237706446145223 7.5747770198973345 0.45110127456329396
-2.8513757954975 7.481855761812096 0.4460603880345109
-2.885347578983425 7.379751988245073 0.44064685973595275
-2.909966472318795 7.287263086446571 0.43374584950313083
-2.9319872349543035 7.213030084494549 0.43611239121364975
-2.740857754222632 7.7051953934542 0.48201509365918305
-2.7621134412024686 7.6437198469455945 0.4877633581242019
-2.7852237803771667 7.58103301071326 0.494829852780098
-2.818199484954489 7.448007980535881 0.47306486631498584
-2.8524818703109753 7.367965020933477 0.47839044290813865
-2.8909040190752195 7.271050615137102 0.46180890851817713
-2.927258018012571 7.180839306895957 0.4417839029007302
-2.9484250275434034 7.089135838847841 0.4459206830324315
-2.98041301127037 6.990496877499401 0.46187687209410144
-3.002873825838945 6.905513811874592 0.4641652189310534
-2.8255446321490885 6.963071605509547 0.41585753476773685
-3.442186565754572 5.207217010607376 0.49394833246626396
-3.4579789562595864 5.149764764582702 0.49963674272569664
-3.480655565247396 5.012058153165595 0.4017127611680448
-3.5000935395547454 4.944282686202525 0.4061797705634378
-3.522864947778751 4.848920781701442 0.41232716757584276
-3.5468254544313806 4.7594838450758745 0.41819679240519886
-3.5535155417384887 4.716200511897151 0.42087734977287145
-3.57180158989379 4.642563515162125 0.4256779036682798
-3.597884030596303 4.54260172456763 0.4322475417990398
-3.6208317735684292 4.444926583696343 0.43860258765729293
-3.6490347272805455 4.34879135838262 0.4450448985405412
-3.667437766165232 4.2656037421821615 0.4504417662102338
-3.6951721121511056 4.16380639067109 0.4572185529020931
-3.7207549841115544 4.062147355317057 0.4639324417592658
-3.739063035080319 3.9864198162134543 0.4689216008752827
-3.7402742710294663 3.9252566383579635 0.4725426970626314
-3.712607367432028 3.8740193486518204 0.4747602402146088
-3.6206875759908668 3.85312483387712 0.4733700045593226
-3.5188356512121812 3.8439676893925565 0.4711147998162628
-3.4125342848621694 3.830891832263351 0.46909874599131324
-4.585681536538874 0.7531211321113371 0.4262293702585521
-4.60709749640894 0.6363446964659643 0.42987549902516525
-4.645567060233484 0.47475284985917376 0.43499126242909786
0.08919667459468106 12.724569704721848 0.4014924477197781
-3.3402530354492908 3.814172353881108 0.4682766757228394
-3.3437865696633318 3.7323412052136877 0.47337716132794366
-4.691986131637547 0.29063458065500924 0.44087375744829715
-4.733562178646366 0.1132258725405384 0.4464875996079542
-4.7827828663575485 -0.08680365611899887 0.4528695786384882
-4.837893252034789 -0.3016462496469945 0.45972365705273627
-4.896717764518555 -0.5299120289937775 0.4670362139955934
-4.931872261341365 -0.7501518715391811 0.47385449017916387
-1.6835577370233703 6.622817067031929 0.47170922773251106
0.21534367682182642 11.257821785725833 0.4997119007733277
-1.5643596093745031 6.641513540048884 0.4679953876019331
-1.6436582288424366 6.596064077218815 0.4256658271483277
0.20514522698287707 11.206923351825864 0.4961511322958944
0.18379488607839845 11.122341278575368 0.4900221169242017
0.15802962924752717 11.016240139555126 0.4824010615513684
0.13338991196958117 10.91499300472259 0.47514193841474867
0.11236001502884618 10.824066040011887 0.4686822265909316
0.08409582634723889 10.722131866990637 0.46126601268230016
0.03642815148440004 10.601226033633136 0.4518918603711164
0.033485138746563115 10.537236941958769 0.44788429746269476
0.09328076880729785 10.498750901746204 0.4481339126825926
-1.3797569811723776 6.66327611234449 0.45521566766715693
-1.3724059479462671 6.634788442786471 0.4255811746286465
0.1877518689974884 10.470023366788293 0.4506509102801629
-0.32834796171414293 9.075149336543909 0.45459800585293003
-0.34432846541989104 8.98754625800465 0.4433396306326302
-0.3705879317148657 8.89364182943627 0.4477863992556098
-1.3250278009635788 6.628226104272402 0.4861833756151021
-1.30584865538891 6.591247658835794 0.4415039696679283
0.2711476647225608 10.444697774904085 0.453060823715188
0.2657881284758743 10.334308255494227 0.446518145899194
0.26481825477151366 10.263094496366147 0.4424776872095777
-0.3736055347033116 8.840889138174795 0.4624455626672984
-0.39554061825190456 8.774054648781501 0.45370920527930697
-0.42160720853007594 8.679762182925865 0.461901736350089
-0.4505252415319758 8.5932868518601 0.4597812565995476
-0.4745120487303609 8.493215405622077 0.44709143471985663
-0.5031672582062046 8.393075990648999 0.4332569617821311
-0.5292971579030221 8.297713529177175 0.4608074170327654
-0.5494397465079617 8.198498229855595 0.4565704991281221
-0.5765414202676644 8.099235814342496 0.44806063445829475
-0.6007794069336321 8.004519153119768 0.45525229819602087
-0.6326508378401878 7.9152103574992285 0.45964682406139296
-0.6576213170166545 7.846573991514684 0.4640160874766293
-1.1722828697884786 6.569681762161391 0.4528944118480041
-1.204235032170724 6.539718145631165 0.45689674951336373
0.26276193605403364 10.241079565648112 0.4411296786951175
0.2430932275699329 10.158379194123938 0.4355718900453827
0.21973452625644274 10.064372144549171 0.4292266304937696
0.19033621692208258 9.949184388981022 0.4214660960904551
0.15312434485649895 9.846785946570499 0.41401910834529376
0.12445261910810235 9.75790153122822 0.4077744458754443
0.10434436820859849 9.659583760461823 0.4495890246397568
0.0899826966918984 9.58660083010273 0.4913427975747301
-0.5950578140305327 7.9911807810089 0.4272054368820422
-0.6215392834236451 7.904253322942173 0.4280172592129515
-0.6555867261354895 7.811430613632819 0.44413482479668337
-0.677105671273812 7.7161621968468905 0.4470721493538268
-0.6971442148344358 7.6176421803598675 0.4406224682640689
-0.7182948675226455 7.528223048102674 0.4443942518507649
-0.7387654384700095 7.422477616576946 0.4550241433432267
-0.7687346297412042 7.299460082236813 0.4478396627018647
-0.7999487512200514 7.208781705142729 0.45028105207175956
-0.8278035793651697 7.1331167148080095 0.44397299035120596
-0.8652779201364237 7.027013075322768 0.4326524061524606
-0.8834077049323751 6.965945150680408 0.47672766846638054
-1.0913003589835364 6.434336769868004 0.4640919983208544
-0.7953797249369468 7.193241462376837 0.4253658564903659
-0.8189824282728774 7.113312048378307 0.45228639809452287
-0.8423354675946401 7.025215191077942 0.44267956247838897
-0.8716610479935072 6.934836822530299 0.444978876297191
-0.888869906742756 6.838291051857503 0.45088928990680766
-0.9155868953694672 6.740004648172743 0.4507345509237961
-0.9432747304356798 6.637911788303462 0.4601120613529802
-0.9640215656918975 6.5461377709298 0.4453494085597495
-0.9915671312929846 6.4452522314142815 0.4468517042511586
-1.0151999745886218 6.3597282908495885 0.4551238865162346
-2.153831555658011 3.4921730963590356 0.4681243046896048
-1.0092552357826643 6.342973078569529 0.488210169957692
-1.0638532791133182 6.156178280994062 0.43662687912592785
-2.0244503148962703 3.473294198669227 0.4682005949402389
-2.0687246540561492 3.475209688902831 0.46844545547661703
-1.953747935974153 3.4450711843293673 0.469511649600158
-1.9641942203764933 3.439695318932852 0.46994629663841425
-1.5708819923098705 4.083736729451136 0.42585503350406356
-1.599283839160082 4.00243355817825 0.43124830258750646
-1.8467174626166465 3.4089822226719733 0.47118941954084603
-1.8981834304364393 3.4108620613986274 0.47137680502363183
-1.622243050754236 3.9048036169100078 0.4377053982735583
