ply
format ascii 1.0
element vertex 839
property float x
property float y
property float z
end_header
36.06021006995505 52.26687493543981 -0.3690208869371462
36.04952061248239 52.21859374285276 -0.36900454249164705
35.371638935775486 50.331917015274094 -0.39457411928181696
35.610577634035906 50.760222006146854 -0.38228140787879616
35.59850797913639 50.67648796093691 -0.38267943028572227
35.454719246053635 50.312451601959005 -0.38995569961850884
38.6679907475646 49.81499448017755 -0.4028281334586181
38.584446229807064 49.53887831872319 -0.41827704396737697
38.67134244936918 49.38256877177418 -0.41708983046956505
38.73329614503466 49.359249250283845 -0.41328837165391485
38.8196618116557 49.33150894852952 -0.40789152469823764
38.926999151249 49.3010289057321 -0.4011623878122962
39.02405326893306 49.26342244390957 -0.3955914971345147
39.11831097933838 49.24977023551149 -0.38938091616174675
39.21496304767278 49.2305790932429 -0.38332389535249445
39.205483361479935 49.22160809706628 -0.38436614806807423
39.32135997537206 49.209220427746565 -0.37678896759297076
39.42170318071875 49.18466047329845 -0.3709419895875724
39.46194310047787 49.1516345024063 -0.36967288315615576
42.41697295622249 55.08129481254295 -0.41792187632925637
42.401101333587135 55.02018273985044 -0.4081810304123509
42.372681799623265 54.91485732435067 -0.391574100003262
42.34686136138767 54.81507187625315 -0.37597031414304194
42.333502642181244 54.765984019133334 -0.3683950402061861
42.287893274901165 54.58573155142729 -0.41621965379593207
42.270210359730456 54.531965843626075 -0.4068354915902276
42.2462421228113 54.43332762204901 -0.3892417468778795
42.22821147918385 54.34867523140742 -0.37420348224254796
42.193086907237415 54.20112438176117 -0.41391018569590055
42.178675851446606 54.15910473427634 -0.4062446757388385
43.24076474131902 55.15653639609828 -0.4187337909877935
43.30749025867798 55.15498437671506 -0.41931840422078437
43.30566340688549 55.140692811557834 -0.4168342076437188
43.38832221381591 55.126555120796745 -0.4158124626479248
43.36876260469944 55.121753901731864 -0.4146128433959303
43.42424998280385 54.91572799072184 -0.3803284866482538
43.628471980557066 55.0698409177418 -0.41271468896683317
43.52144436704257 54.903854404811696 -0.380987946790295
42.12527135285282 51.17686194304001 -0.4064541834581873
43.69242877781302 55.053179903747335 -0.41228479491405634
42.20415627884685 51.16039634595596 -0.3990571327594974
43.78600887844741 55.014127037517596 -0.409674468633357
42.31848190775003 51.16101519143084 -0.38448485171076996
42.280915500301724 51.15113278302452 -0.3911821740932485
43.885059797782894 54.992844541413334 -0.4108920732880874
42.4100256454139 51.13326415544675 -0.3806607559805807
43.97590178057967 54.971185601120595 -0.4122083951069043
42.50601898340545 51.108073782310456 -0.3773572097394807
43.99322509893652 54.84983287303234 -0.39359158861902876
43.95278819761088 54.740471468068236 -0.3736069787669122
43.905775666463 54.539219062894915 -0.4158314922159847
43.88631817332053 54.45769730339133 -0.3986754877354991
43.87880202531403 54.35744007518702 -0.37898759058017073
43.85522998870129 54.220724784560296 -0.41833512162430875
42.60392795506661 51.081789833371054 -0.37585207539962107
43.897761297202294 54.3209300401002 -0.37369147375943157
43.869034317308646 54.20615459456476 -0.41659678359709895
43.87796549209081 54.135300585227895 -0.4021787902469456
43.86091067550486 54.04306508206081 -0.38041247469898154
42.70072378063964 51.047651810729626 -0.3780674541033687
43.94068109746841 53.943563330134744 -0.36939491436029626
42.79866155013916 51.030093269677586 -0.37785443503950233
44.025494700484614 53.93455210057151 -0.3789371406024521
43.97397024810305 53.927198686873744 -0.37043786877625307
42.92254522574496 51.01910422570465 -0.3770814835582148
42.89881181182126 51.0108699456424 -0.3796802324755788
44.11848292619199 53.91533483932763 -0.38842238837078114
43.01040288552771 50.98943287904783 -0.38369353133640594
42.98948102572463 50.986655001168124 -0.38447365627574903
44.21236824987098 53.89245343681665 -0.3982982570550252
43.09436982658784 50.96363555814408 -0.3905063378872595
43.08261341995901 50.95347888577962 -0.392946096439042
44.26354815656737 53.87422068333823 -0.40300096847554
43.20151498584516 50.92769111838524 -0.40156767006087524
43.1724696094013 50.917800829313926 -0.40326984883316286
43.28082807084931 50.90758845832108 -0.40917535141210715
44.64300111606105 54.04206959882123 -0.4144705796204071
44.84488942912165 54.387151703035336 -0.400430953374895
44.84696900400226 54.32825937733951 -0.39333751031647635
44.66088842980245 54.03733498838494 -0.41635299016809746
44.62547790760602 53.796966649900156 -0.37834871292279626
44.615233941824116 53.78107251371584 -0.37471842405927036
44.898200306631296 54.29170219254108 -0.39469412627856215
44.880030870217645 54.18000353629312 -0.379312889042591
44.95609868470483 54.169999610960396 -0.38719059261281485
45.03570970724938 54.14284719422674 -0.39375675035965685
43.6645861587838 49.89656073460805 -0.370927221071942
43.769905847891984 49.91448208615693 -0.3723086243300091
43.679939891906116 49.792280238710916 -0.3857706896179316
43.680286423917856 49.699397908881714 -0.39857055227368854
43.653176723990434 49.60633039884276 -0.410602693671121
43.62669269870992 49.553090621282 -0.4172215500732259
43.863436978600845 49.891052520699816 -0.3793410112222355
43.9790869707343 49.8751114821202 -0.3868151946270798
43.93823223585336 49.87070838223086 -0.3854435835367813
44.054233751938725 49.849372036301034 -0.3940255847666303
44.047929116810934 49.836959660587425 -0.39534046119015764
44.20225872297486 50.048901080500535 -0.3767383329967824
44.18330801597673 49.95983948977481 -0.38692715913904907
44.15727443801637 49.850557320982944 -0.3995002762673867
44.11335451991915 49.810228304454206 -0.4022919037830197
45.69685125316486 50.07034036987015 -0.3773777619076969
45.670823000141354 50.06884461637143 -0.3752712082252718
45.75471635882019 50.06031318107942 -0.3829998064943657
45.85001687405563 50.03619931943176 -0.3928262279406418
45.9396112575486 50.00922057023278 -0.4024091067822242
46.036163498769966 49.98914834805887 -0.412213326576387
47.563223738551486 49.729496218178795 -0.38093341061865504
47.63841251046021 49.77046450604807 -0.3849500395937142
47.80697064630507 49.847929337710795 -0.3946912225688858
47.78791978073133 49.76948863023838 -0.39552914019223084
47.74913741203519 49.53069469639423 -0.3999972053580435
47.80431596406451 49.30196284147386 -0.41121337688067494
47.79069161226736 49.26355092956879 -0.4115904243771702
47.88536891658778 49.29570075515855 -0.4169239796307398
51.69236491567114 48.57177332441864 -0.374437371791822
51.8118681847734 48.626422186462136 -0.3792872830668601
51.770094575807356 48.59002831381338 -0.3776886824869359
52.49226398549213 48.378252027930884 -0.4102144470419544
52.68042955016512 48.33433763830467 -0.4186452901071075
36.529992752199576 50.194125540676666 -0.33099740823002655
36.47517452919555 50.107987579727066 -0.33416419832278427
36.69035913578555 50.36628346158326 -0.32197220346699307
36.60143801364669 50.27155459343874 -0.3269603882708535
36.5398032408081 50.043119603935196 -0.3308446958456248
36.83956782147864 50.51460646047403 -0.3136693977904623
36.7693133691405 50.44266419707941 -0.31757277743908885
36.647140241793 50.0208140014943 -0.3251400453051823
37.087764799257606 50.79116203955688 -0.30002876768872133
37.055130740084635 50.74824370884721 -0.30180593952533263
36.990772668623784 50.66968600753296 -0.30532821021901213
36.91430247675129 50.586741300406985 -0.3095364191117146
36.72690393531778 49.990009787084624 -0.3209754719725259
36.934040420114 50.028276090620324 -0.3097250897112082
37.19228897815443 50.09026150586889 -0.2956783003063481
37.31520662912752 50.06165038068285 -0.2892778462244154
37.257741186248474 50.070285219314584 -0.2922804810991667
37.39421857513504 50.03832018592341 -0.2852209097959989
37.498158875234374 50.01705029457128 -0.2798579122265844
37.59005816641109 49.99011686017628 -0.27520577740973584
37.64113381374868 49.95854067959481 -0.2727443476854652
37.61635415608059 49.88766698299393 -0.2745402226273387
37.59182537205335 49.78705265427213 -0.27658704810794005
37.600527688864716 49.710911026242165 -0.27676251131334356
37.660400132817884 49.69681557809285 -0.27380242237933505
42.46620064511191 55.37694380144595 -0.3171140885003604
42.4555393707007 55.3313484192675 -0.36078795908872374
42.51763794027097 55.37297175684597 -0.35371003178740673
42.44280742656016 55.20959118256296 -0.3445152891070774
42.42076412481129 55.106257605083464 -0.33112402927566587
42.39956030732149 55.01129956797732 -0.3189384502319448
42.37636153961384 54.9191462499253 -0.30730541384130283
42.3513925348218 54.82992704886421 -0.29624898346245
42.32620259740181 54.72336983957752 -0.3132030418017996
42.30700046571937 54.653953584100464 -0.3322226364901375
42.613048921143715 55.27390999241519 -0.34880016178595985
42.3023960348311 54.625629986238714 -0.31283931888244443
42.27815024686111 54.532946307331606 -0.33276681795739294
42.255131808456106 54.43149364886704 -0.3176042267770993
42.2263243755779 54.32591948871648 -0.31791393546458113
42.202774369304166 54.23613772789389 -0.32389632131400936
42.17673704263418 54.14286955742855 -0.305754452924625
42.69646746356509 55.235235392542826 -0.34170576279326315
42.78112322772367 55.20201516175429 -0.33563658476079583
42.885202596892 55.1802260605441 -0.33126875651218807
43.008570158777744 55.16751438516072 -0.32856770942682484
42.97094102381036 55.16048960703567 -0.32780453692343003
42.39286968735672 53.67923206780409 -0.3213380612688287
42.322466512012305 53.44271046380378 -0.27641640646153504
43.1086854042845 55.16965345543696 -0.3286107423309772
43.05276598283703 55.12804426693006 -0.32293268827752786
42.462130206541275 53.55266569453 -0.2801088018537384
42.45210799049563 53.51640235891031 -0.2726356918617052
43.19558423453099 55.17443538210676 -0.3294464015273446
43.297382744062006 55.14514245054149 -0.32613595879720314
42.011737425334786 51.689831344671674 -0.3274234533691969
42.013524909204854 51.685071383219245 -0.32784987351562117
43.41883096229175 55.12103904383255 -0.32438417421450655
43.3659352720972 55.12580604687663 -0.324260791964607
42.09959076503073 51.72234031401952 -0.3045561365429139
43.5034164301975 55.116144975569554 -0.32524212867627966
42.18148543757448 51.73640807488347 -0.28637266420801816
42.17966291475922 51.68713620681083 -0.2956908984454103
42.173626224255436 51.53006640307979 -0.2906248560795548
42.14435035082124 51.51573982635444 -0.32020818960855096
43.60106037934179 55.08794883299356 -0.3235797520781797
42.2176346250043 51.519836405859884 -0.2860112225676298
42.23068911305266 51.462911013974995 -0.3201578815976249
42.154744606765405 51.25528497978348 -0.3012259955428349
42.12958898851311 51.15560207580721 -0.3138094893617135
43.691986459380026 55.051890024078176 -0.32116480468879616
42.21550306461739 51.191189768521006 -0.3011053533077209
42.20152369360309 51.155961153694925 -0.3098969184328611
43.7881296357582 55.02087983195627 -0.3200559181359432
42.313638049804666 51.15284467286603 -0.3161167863413582
42.28833107526175 51.14689552853707 -0.29438862584133674
43.887092054928374 54.998651360035325 -0.3206895185568408
42.406989887537215 51.12855766699178 -0.32290098857881877
42.36286486620252 51.11851065293149 -0.269695495634589
43.97664012889447 54.97354248769469 -0.32103355139162226
43.95437678455264 54.764393568349526 -0.29312461711299387
43.915032537665766 54.65820221825844 -0.2777511341728728
42.50706614770164 51.10576546483659 -0.31912931816061574
43.91627745967222 54.61897082407791 -0.3322834319229651
43.89196849271028 54.548532238255724 -0.3130326699161402
43.873138448159175 54.43937240180804 -0.3205941160881899
43.877114003270634 54.354590256734994 -0.3074649956627401
43.85161448702488 54.2145703613423 -0.349725270591817
42.60529658683983 51.07974882662711 -0.31764944904447
43.911637018404164 54.3257669014924 -0.3053157670811987
43.873990789050076 54.20443373334481 -0.327731039273022
43.875838789025714 54.14975000737438 -0.3046002546645034
43.85604155192627 54.04289940739121 -0.3268581782374961
43.846306388268076 53.96309809659644 -0.33006346968073375
42.70008732900718 51.0439653614938 -0.31675967154845197
43.907872229072865 53.9474605240804 -0.3319375636169808
42.797525089983715 51.027975771817914 -0.31930050027126744
44.01977802344946 53.934846854088036 -0.3166194014602409
43.98109351494391 53.92319855737768 -0.31020975719476984
42.8961512462196 51.006299889817704 -0.32130179147335425
44.11421911634752 53.91552350523113 -0.3246218008884436
43.03325591712565 50.98219265473244 -0.325112067725717
43.000218684364064 50.97495117570965 -0.3067203449443531
44.217849567659975 53.883771979818235 -0.31575024303236887
44.01610353223899 53.333089162354135 -0.3060307311216653
43.94859771323743 53.244798037761534 -0.2883500782387193
43.90814960897896 53.195495447902246 -0.27143820335157154
43.09959969670455 50.958433727340086 -0.3153434636301411
43.083037329446476 50.95041072076137 -0.28667946938147953
44.26407575200791 53.87532743324888 -0.33743203375684216
43.19263106322997 50.92819533840382 -0.3035411471801225
43.18191650999286 50.90838352034298 -0.31759985667389223
43.28322371039809 50.901467912632384 -0.3138224706084163
43.31149395372391 50.86803557708539 -0.3546098096115926
43.33277718706484 50.88366475116876 -0.2879669168012888
44.852599799915254 54.38291383970157 -0.30889848237197703
44.85141468472577 54.32160635085359 -0.3026910122795724
44.61043698879503 53.774129398814615 -0.3010069087561839
43.83233375586068 51.666291379495384 -0.29468846601753174
44.90053850707653 54.294538562255156 -0.30432584083200176
44.823026916811635 53.9499226901422 -0.3464175589044733
43.89491357142151 51.69015488819686 -0.3015869830692711
43.8597528979271 51.58776741021746 -0.30088709802831304
43.84958307332604 51.44503312990514 -0.30120300338742034
43.85198352646924 51.40865930454531 -0.292909367738478
44.9881604240457 54.25301518814386 -0.30817869123625663
43.97737315969007 51.672282342505696 -0.2947000254755821
43.907617815914136 51.52591882866119 -0.3336001540065243
43.912041542179445 51.44346077879693 -0.32998929507231956
43.85888479861828 51.385540821543046 -0.32550320756959017
45.08922746988547 54.23492994043761 -0.31575836888026043
45.155973141423885 54.22757011307183 -0.3213190138258414
43.687460870398105 49.921105030007375 -0.328697119216857
43.76756447002355 49.91976194957911 -0.2718932783966481
43.68134892338538 49.71373806038801 -0.29073191615128985
43.65945860487724 49.6230310453091 -0.299614320143092
43.633972607939796 49.537219341950134 -0.30798208130579885
43.90830976591955 49.894686527485 -0.27891232915624414
43.859895393930756 49.89961565123993 -0.2767979160595966
43.96826154046963 49.873317790437056 -0.2831801314251441
43.951718034845705 49.86628594192895 -0.2832869423646958
44.29467863974569 50.421164290126 -0.33715587635125654
44.268363326359136 50.34163359965321 -0.3447974023071394
44.2425239699791 50.24536416686655 -0.35477688704709287
44.21840597779836 50.14799396930693 -0.36527349370916085
44.06736402492141 49.846188661242486 -0.289664043254221
44.02498288890769 49.83737181572339 -0.28887571429393355
44.380314662320856 50.41031456781361 -0.34514062861155315
44.21685412846895 50.1179343074204 -0.2701759681732018
44.205439138845946 50.052299028922214 -0.27582242868060297
44.18155011123983 49.950031162365256 -0.2844534174910636
44.15146522849879 49.84888678550082 -0.2928860379378071
44.46501867388988 50.38774980856361 -0.3546621093267639
46.06070518831723 49.96812655543839 -0.2729135963906435
46.134419259640666 49.96086555374803 -0.27779580186940367
46.246775426483424 49.932110154048864 -0.28600289506561083
46.33582481100333 49.91722384274953 -0.29223597438643667
46.45908803247802 49.88579453985725 -0.3013410619229317
46.416156508496684 49.89096907302073 -0.29838551405116936
46.54277358819761 49.86011449926031 -0.3077160328938689
46.62795513469911 49.84390071160364 -0.3138576750061578
46.73217581266641 49.815913183098 -0.3217050977487572
46.82550429718394 49.79617474141686 -0.3285695371506834
46.93604072134399 49.766723788327745 -0.33694649731074133
47.021104950490816 49.74851182757345 -0.3432601680594364
47.0860996873965 49.735079830378616 -0.3480798083915878
49.397053864267605 49.15197527174248 -0.2724955837055999
49.50403600963384 49.12309724771959 -0.27722651673646165
49.60086904142272 49.10082803902414 -0.2814718158360212
49.708378799965516 49.0733117399271 -0.2862221652685205
49.81631838873535 49.04678969266356 -0.29097945286372306
49.92790612002997 49.01884622604142 -0.29591458757207406
50.04704213177656 48.98827337314717 -0.30118651949634956
50.15918557540157 48.961813789886996 -0.3061431172342293
50.24500892448367 48.949914148998474 -0.3098682637638869
51.010268446909286 48.71904180813582 -0.34416012092401616
51.22957531888555 48.66546593258842 -0.3539176411107166
51.528283883867616 48.55839247387603 -0.3674564646541153
75.35665005310749 43.63394324414226 -0.27612532771468823
37.90484096456002 49.80782365529803 -0.26031579959775747
38.1199170108236 49.89367047225179 -0.24854627485757008
38.18737947199886 49.84639631831608 -0.24556819649180187
38.150190699740676 49.817588421100936 -0.24773780137049942
38.24902437359588 49.75176625213648 -0.24343361801700542
38.1680381766975 49.59139027636047 -0.2492460228604734
38.327928743462735 49.75940279482957 -0.2393905130446818
38.264058255289086 49.60516188285898 -0.24433173920065673
38.441836544466064 49.68498611971631 -0.23459591441742522
38.49337150596719 49.66249896707489 -0.23233308125316737
38.47967342538934 49.574844441109306 -0.23411335069703404
38.46718862110864 49.43893413674957 -0.2365294715305401
38.55938428219304 49.56063487906339 -0.23042596286483108
38.54013810641058 49.43150165924941 -0.2331267670614553
38.776545205059094 49.534187663398946 -0.22037137204046336
38.7749447896612 49.48462600172811 -0.2211731790428164
38.931063003461034 49.657875170259814 -0.2112215995501018
38.883226799365616 49.46825892311521 -0.21631969655646335
38.863941126088385 49.43588997712086 -0.2177306521137948
38.81495219083571 49.32142229552753 -0.22181595290499134
38.92654114919263 49.38646951376631 -0.21560108991452123
39.152367794071175 49.239017720944446 -0.2078624916258141
39.25479147480768 49.22469941809405 -0.2035783410737721
39.20078431909516 49.22304591971164 -0.20600449111019006
39.313129960783655 49.20723496737629 -0.20135794670302304
39.41594160768526 49.19668207662919 -0.19709502795526562
39.480825187164896 49.19980090971 -0.19423591393326883
42.475346118904696 55.38409008899848 -0.21890590503711188
42.45494665462583 55.338682417993056 -0.23129675763718832
42.51976442332715 55.379235708949835 -0.22889159209896195
42.44573661615144 55.28852336281369 -0.25907752211596535
42.437200769630216 55.216462625466555 -0.2519223365169103
42.42306039893863 55.099169552914276 -0.24031921332595066
42.39896146277866 55.01623609817843 -0.23251505464055006
42.37271128089902 54.91955961299898 -0.22345633286474614
42.34549783318497 54.82421190158444 -0.21465248788961347
42.323347326847674 54.72757886035619 -0.20567196864145168
42.29974683834602 54.642848775423595 -0.1980244488848661
42.62417922463315 55.33058360734881 -0.2598826654052061
42.294969828169975 54.59858512612787 -0.2233199452276058
42.27805556382889 54.53126756917799 -0.2260567419308659
42.25398978029805 54.43214139916303 -0.21524946532307926
42.22839702693434 54.33694269231007 -0.2001785423152349
42.2076979411433 54.232318371742096 -0.22498766107879858
42.17871976932882 54.136372113820315 -0.21474137476184962
42.15697013786434 54.08480896207278 -0.20978441624359367
42.678541803263194 55.31324503915974 -0.25721094331598204
42.71319596795985 55.21416695264344 -0.2464499155167567
42.77798736485394 55.192081517477526 -0.24330517534137194
42.877125560856676 55.17339171329907 -0.24031540089521924
42.12510596389555 53.152485895454696 -0.2619663159176684
42.113271917831575 53.13780407288729 -0.26251872691812794
42.01381537461729 52.80668657157454 -0.21561224641956211
41.98005015730457 52.719181504684904 -0.21889860101923972
41.95930428586711 52.64425548411935 -0.2163804181086186
42.982462223533 55.15163002808371 -0.23730107944171838
42.42604869053071 53.588293121599214 -0.19593226570655026
42.40103429781373 53.5250345790878 -0.1960118944812208
42.37218685048309 53.428838611404096 -0.19557963592919175
42.35091376307875 53.37026575953183 -0.18233714815284885
42.05116118149698 52.8507204526139 -0.24481470806558167
42.04685345820526 52.84554842298217 -0.2091911569850778
41.986859469554446 52.68149479401773 -0.21531492793321788
41.97522006338978 52.648148346848195 -0.22657877298495485
43.10509668186465 55.16961975996443 -0.2384295099642832
42.45104115488176 53.5812356010796 -0.22565089976017982
42.423582936545394 53.493086258245796 -0.23195468581907808
42.392404645901095 53.41739953017153 -0.2254065133807955
42.363444346735974 53.36821564640597 -0.21614276037270946
43.21336128209478 55.192047114643515 -0.240117754596016
43.203422089582105 55.180353097639994 -0.2389924168048645
43.32040684479253 55.150201559053514 -0.23631354301892263
43.29797423303305 55.14801844389583 -0.23595377235305243
43.41775951328804 55.12888125496434 -0.23492404164870262
43.36925290185934 55.123612204517556 -0.233944616297399
42.14853879843046 51.76482432064204 -0.22129226615072228
42.09137806577965 51.741596565447225 -0.23577715667030735
43.50455350281625 55.12177942969098 -0.23518891905122036
42.19876899342291 51.74808547503629 -0.21581794163098256
42.204172254811695 51.67089465308079 -0.22389507770726907
42.16732522700541 51.54002887822491 -0.20146917946879464
43.60181448424898 55.09111174161129 -0.23348493880933144
42.23174134713659 51.51785863546711 -0.20344543463869336
42.2557297408479 51.46879484954914 -0.20111536498103194
42.21097753340906 51.32598128109599 -0.19715284159829694
42.17431841123295 51.238314646113125 -0.21077654677937435
42.148061412838274 51.165294238173026 -0.22176859576818286
43.69297681343424 55.05547130693691 -0.2315210885844638
42.27039617683394 51.45327410497299 -0.185121053759503
42.209105321283154 51.18882722780563 -0.2138497631791685
42.214884550011476 51.17240860934284 -0.21539304344547328
43.7896579082254 55.025899756779054 -0.23061032768706805
42.33445878659064 51.14735108734607 -0.2529384905095199
42.30303110225689 51.139855979154405 -0.21269652897925467
43.888410702819165 55.0026797103308 -0.23071975824877616
42.409788507104366 51.11838377087311 -0.24328705383482688
42.385560042048866 51.11140510379312 -0.21067616772034914
43.978031077236224 54.97730146432915 -0.2307013987346727
43.93770803529121 54.72799592787578 -0.2055062614795854
43.91538475748985 54.65946062574869 -0.19826143358819215
42.50438439738383 51.09419221792564 -0.23617002528876668
42.457132323329056 51.08462027328154 -0.2097956820742095
43.928002033390754 54.649335367638884 -0.19768898748604197
43.90163034017428 54.56795694994038 -0.2347952593858385
43.88299629970001 54.472945410234566 -0.2109269334154372
43.87417439484905 54.35713278486884 -0.2089020357458079
42.60094236771591 51.068558200372024 -0.23330280841498036
43.9129787793352 54.32166977160818 -0.2352201111563032
43.87280821895046 54.20151347329045 -0.21818747486548862
43.87138820801244 54.13144343487625 -0.2095145218447651
43.84835301219087 54.02933421558347 -0.2372912346067263
43.846403716685835 53.96250261855386 -0.21218504080806108
42.69692520665392 51.04318387499476 -0.2323081248168457
43.91179880842892 53.94127526714526 -0.21737707695059577
42.79578029976591 51.023920850840206 -0.23298952320750171
44.02995709541518 53.92349273188187 -0.21831954399769288
43.9886306382809 53.91557188119183 -0.22966230724265968
42.89448086023472 50.99811573138169 -0.23498746803671827
44.107877982573896 53.90133782577022 -0.22348488564283034
44.088183783351674 53.88618103090168 -0.25572670011421406
43.86565198583602 53.13969509178239 -0.21520145949531538
43.84211715519168 53.10848093330571 -0.20914586568951718
42.98533074754473 50.97490896121802 -0.22851726453278223
44.20075824253734 53.88314275923099 -0.23116839369287112
44.00998417783206 53.321550398944936 -0.23940191561323845
43.95282616985879 53.24851482573925 -0.21757230250341159
43.895707969960995 53.17704504333689 -0.22347744901140948
43.11352161092306 50.94917521512344 -0.21184201709115713
43.08166305134343 50.94877071735239 -0.21177646103366923
44.265747956715764 53.87812775502791 -0.20875299705599432
43.19731575423929 50.92340118168383 -0.21636577064394413
43.1523518239644 50.92635676658743 -0.2153889707763009
43.28491445527048 50.90820395363696 -0.2200696124846937
44.848644019881604 54.3922852982151 -0.2183488967336647
44.85185140164949 54.34015851489507 -0.2145992841064446
44.62720050501939 53.803875643787016 -0.23394453418721906
44.60956844479671 53.77414183719726 -0.2296665874904162
43.81807643917674 51.6777334505638 -0.22211957636620833
43.81049836652628 51.63290410555717 -0.23144150018294507
44.897676897400686 54.298662667500736 -0.21430006577701144
43.889080815929105 51.689755322008104 -0.22949122946669703
43.82855486763847 51.59467741993744 -0.21068453425766187
43.83740476284434 51.45274634645009 -0.2063264690435313
43.807826925911996 51.422818508376075 -0.19340751886093058
44.98813779905648 54.25949710645282 -0.21708121839722516
43.96418204078652 51.66101042804234 -0.21954727313144234
43.89664870866074 51.46393006992095 -0.20999144595343122
45.13108731450631 54.24483235301612 -0.2252148642588973
45.0686308978148 54.24300201661245 -0.2210461129333681
45.1826496935878 54.24820821924099 -0.2288176050327534
43.69115722254161 49.92727884135848 -0.20355334658868712
43.66788268560421 49.875910987522914 -0.17421855249143975
43.766927659357435 49.9190843720776 -0.17305435556821042
43.68361533330657 49.700180227872025 -0.18658531595084987
43.66198560812197 49.607233836985536 -0.19268858069630784
43.632684218461904 49.51063747015818 -0.19899474851964272
43.61531795713101 49.429409219765304 -0.2044306948253518
43.861470876933964 49.89216776873887 -0.17684282747940716
44.004049988949575 49.86179725096937 -0.18226494222986092
43.9545851372678 49.86512691080673 -0.18081392739384833
44.30204428188831 50.42551261326556 -0.24657647637738736
44.24322141003971 50.34913024085784 -0.2501477380806854
44.200130537511015 50.256386202244684 -0.25638142433097366
44.21438826369854 50.159700767551826 -0.2177392622854313
44.058542688223106 49.8482647603677 -0.18459763062316792
44.384795813448946 50.41102251928004 -0.2528139861289658
44.22900185267338 50.13508527111374 -0.17148986642521835
44.212073992962836 50.04852346056672 -0.17633357120810011
44.18993688540091 49.95443405167287 -0.18157304982855038
44.15462683030169 49.85009978407556 -0.18719257392876865
44.44158365380095 50.38931990381049 -0.2582105814401421
45.7411442591347 50.064301426014644 -0.24940408681902101
45.848325971802865 50.03784476463971 -0.25698985683453307
45.94360757732548 50.00583103016095 -0.26414431397323573
45.99708002327863 49.9951904586181 -0.26786746128854255
47.0065348014178 49.75926225596712 -0.16919529937395983
47.084668713683314 49.73649698845904 -0.17252219047248626
47.56636295696434 49.71710108881111 -0.19168817360858884
47.55777418490291 49.655373148723115 -0.19210349863730336
47.73737209600553 49.8445457953085 -0.19716466152460915
47.68390310105044 49.787984092659066 -0.19560586853317374
47.61482305580134 49.75300721675681 -0.19320356231219285
47.77913268466431 49.87561889240412 -0.19855941594172752
47.75116705595285 49.76960885169974 -0.19852745069994945
47.76505555464763 49.497562994582005 -0.20229206412825246
47.762490194890674 49.4754137904601 -0.20247589303231825
47.80546709406416 49.30180027123915 -0.20645961112398076
47.798952625329875 49.25842720517616 -0.20680889553534632
47.90041289980506 49.2860806754359 -0.2103706336572179
48.13579219547148 49.47867282463484 -0.21734272127979992
48.015405482763036 49.25896885277298 -0.21522984359503416
48.3484611829729 49.37459268506195 -0.22710905286110183
49.07133043568551 49.23326367196189 -0.25819811085138233
49.20493082430629 49.200278058946274 -0.2640515218963132
49.286681173950306 49.183196525095894 -0.2676142033293587
66.57402227121875 44.91191957363863 -0.1815595957484139
67.66975262441781 44.64715225065679 -0.19219588545493488
71.10718535728591 43.8559125179644 -0.2259685368823819
71.09550756419273 43.751754078379605 -0.2247280300045717
71.04427437501748 43.66292911133834 -0.22314662559816217
72.001191158962 43.68709080550758 -0.23517078300642957
72.68200212218579 44.48217629652969 -0.2523245606713348
72.57912722125644 43.95715855698724 -0.24523298026608542
72.66489422212135 44.044453687690826 -0.24724215600081542
72.59511632867242 43.841450058657294 -0.24415417294539887
72.64667147824005 43.713384251479695 -0.2434107501318008
72.72869305951163 43.5767572661713 -0.2429329664930545
74.25629052514016 43.702813832439745 -0.26321831787401706
33.963733841694335 49.12750359382072 -0.13398540426612704
35.61145921952027 52.26266547292805 -0.13617307398972656
35.57873848581433 52.17146648254034 -0.13554340086172867
35.60440907124012 52.224223477328145 -0.1357536860329728
35.566784520488916 52.11799311724801 -0.13502078534704426
35.61635791585134 52.06956924636861 -0.13318948617114998
35.56200937204743 51.9503197670314 -0.13268546980030907
35.53588805059823 51.85637159386258 -0.13193301223008247
35.492613108697896 51.759574405740715 -0.13154819786440977
35.48432603600744 51.665637125269335 -0.13043621021900975
35.37421320203708 51.35488083367252 -0.12874628302863914
35.50410043190993 51.66818239611014 -0.13002446217182337
35.40732168990105 51.38763597692057 -0.12843276075650525
35.36074347832237 51.28541230861712 -0.128143788419692
35.33663128929783 51.18462380114866 -0.1273608191940794
35.313044978927884 51.08392739205037 -0.12658380446370004
35.28864611526956 50.982618561502264 -0.12583564437724765
35.25356145459345 50.89002105437264 -0.12544844542047837
35.24276293447516 50.817327819212956 -0.12478683062115685
35.14538482898151 50.47627027046763 -0.12284060473419298
35.78550203619957 51.88187214945657 -0.126674693462864
35.629201790104304 51.606945441453504 -0.1263826122336828
35.194273008432354 50.5329764542088 -0.12243433821230369
35.147426320364914 50.404185566297926 -0.12195416112882011
35.73154901265711 51.58263452925766 -0.12375762611173016
35.25673665249001 50.361506952697354 -0.11906047113241135
35.82255301994467 51.523491619245405 -0.12092902059069521
35.76641357141021 51.49778612595324 -0.12184382675951505
35.58515829046214 50.82925578627543 -0.11732361211543023
35.51478576996445 50.83980791561848 -0.11902664297123582
35.36599281881687 50.33750638452652 -0.11638684285880907
35.605010859923844 50.76561495778211 -0.11611840678686104
35.59624825582786 50.682819388846404 -0.11531945931749345
35.458705322248605 50.32100199352615 -0.11417359968191029
36.50481663802558 50.178038670732235 -0.08986681388193857
36.46865398537469 50.060234034943974 -0.08945815542877815
36.718315203571 50.39490802835664 -0.0874859818705376
36.6679767429037 50.339715891270146 -0.08800525025163501
36.586421682729366 50.25977856736058 -0.08894175376115748
36.549600642793195 50.04048489793069 -0.08752482049608162
36.89345197662759 50.57411926413115 -0.08559795167751613
36.85015238984374 50.52424207635654 -0.08599944503221699
36.76936567442922 50.44873515550808 -0.08695192379746168
36.64074229987744 50.0117279294394 -0.08529417427557716
37.08085577006913 50.79459735083445 -0.08391520401766189
37.02921858407743 50.73421626666438 -0.08438036013036243
36.98355392490081 50.661562373105596 -0.0845772871517561
36.92066195494265 50.60626878597687 -0.0853423678967982
36.73837079905809 49.98861207999819 -0.08298365733912
36.80336207821915 49.978671162748405 -0.08149735934075616
37.1394513326502 50.098119475510074 -0.07548516134914457
37.197000221142034 50.08604522622041 -0.07414357865693616
37.29574214170131 50.070384469620855 -0.07190888170407218
37.28303905503308 50.06454293506532 -0.07211415669532603
37.387360084953926 50.04107200864391 -0.06970064355477754
37.452768053041666 50.02510932502835 -0.06817047439248124
42.48381121926167 55.39622227365983 -0.07197807036589596
42.45572874732829 55.34012682382466 -0.07031796140208223
42.54287407613844 55.37283738124896 -0.10532305536489756
42.45487983325005 55.29410600695316 -0.16388175151552092
42.44105395037967 55.20154511452394 -0.15783068588354165
42.421341241919656 55.109553385225766 -0.15193744829479539
42.397595365027406 55.007122785829395 -0.1454474510413187
42.370397200241015 54.914838271190526 -0.13975114812972014
42.34890521099476 54.81514608958499 -0.13350695968121223
42.325752782428765 54.722220709219705 -0.1278027914049151
42.30239294288201 54.65045783922367 -0.12355917465005903
42.62507202723383 55.334393381834154 -0.12240979814758055
42.29922288245651 54.60811084706564 -0.12083977114980371
42.278889880737424 54.526764902496716 -0.11597459552181472
42.25239277312093 54.43434900540331 -0.11060135170241363
42.23291397341238 54.33733815601616 -0.10484854107178994
42.20347319274885 54.239268168010526 -0.12689748725901057
42.17723369607179 54.13858565352008 -0.1279772795870049
42.155478717287416 54.07625140256911 -0.11033787782861473
42.688766814862824 55.3093251810571 -0.16188666593794548
42.7291990436253 55.253629027245985 -0.15764972697664806
42.8298762327067 55.23174271670241 -0.15523764544414598
42.7841284633518 55.229629770191444 -0.15548512333805384
42.90529112070742 55.25004822085986 -0.1559619604281548
42.007085707413495 52.79625257941815 -0.14223153567120037
41.98573297160958 52.718196236481774 -0.12289149233436968
41.95850980506166 52.65329240040238 -0.14550048420541212
43.01354455525946 55.22338155160442 -0.15353986506351805
42.413052162472574 53.58761568620881 -0.11064660281121884
42.38521114659964 53.52084150827901 -0.122004143244985
42.35443899260562 53.43040452381946 -0.11901842171069572
42.3304502231342 53.36973548135867 -0.12593565697688752
41.99420161241425 52.69143145462654 -0.07305604862232878
41.9873555109645 52.63767137506309 -0.08794385360660187
43.11359521295762 55.19696925687675 -0.1505853779626077
42.43684212924547 53.57410104694213 -0.14156662870365105
42.45083036797764 53.54635916463063 -0.12412368505196683
42.359934244057385 53.384227528100894 -0.1476198277845216
43.169555068013025 55.209309266250315 -0.15016504773985234
43.19820424406172 55.17231662963247 -0.1479580061453019
43.330435944475774 55.14893642723665 -0.14613863087603682
43.28364920618233 55.155267712075045 -0.14649268491839895
43.40371199275261 55.13667397435025 -0.14552446418087603
42.144730693015184 51.765086312457306 -0.10397220727239456
42.11171693338711 51.74876803567094 -0.15439964232492173
41.3939756091284 49.80133037513724 -0.10685219557642356
43.50431387909823 55.12005544388502 -0.1448740565883017
42.19979247415353 51.74818473448033 -0.12180210177982694
42.21606802800492 51.68454546711694 -0.11458635986069743
42.17755584946949 51.56282780545721 -0.10578918392208614
41.46251489596938 49.78617263426317 -0.1051997134961292
41.49426330851428 49.73858367742584 -0.10566915754458506
41.09606824177525 48.76255224276053 -0.14690549879740536
43.60261561369804 55.09436297730712 -0.1438083239969784
42.2403913562336 51.52476857429898 -0.10060929995323986
42.17824829440117 51.23892527962383 -0.13404796594243418
41.52106620216184 49.76520880893863 -0.10408367572879228
41.175378981648144 48.7384464899112 -0.1454575828898433
43.69474671775045 55.0617794327583 -0.14243884535652535
42.27950864243821 51.48421242605758 -0.10887193053392977
42.276575833234304 51.444155718406776 -0.0984737791825578
42.20992995717475 51.1992069393861 -0.1548230440826125
42.218315374037395 51.162981728592854 -0.14302775880006555
41.273192486674965 48.72071208485056 -0.1434038459632418
43.79232500458544 55.03424021794369 -0.14165969155478036
42.305850790363486 51.15558402994519 -0.14052531672612323
42.313180571796586 51.13692041133886 -0.09675261764016849
41.36743288761285 48.698341127504854 -0.14170821781310408
43.88733941076358 55.0003530202611 -0.1406406880896601
42.40970718091376 51.12335070612712 -0.1345307551537362
42.393767877709436 51.10575222164454 -0.0955648143505778
41.72900575573475 49.244613967156546 -0.11514912643193236
41.426982794950646 48.670449229390925 -0.1411379140273413
43.976688300451464 54.97465295084903 -0.14026756097466042
42.50504909471936 51.0955766133408 -0.12206527808219486
42.4610301353371 51.07638868718972 -0.09507009526848664
41.78783453106966 49.278827790239475 -0.11266289961491398
44.033920496159844 54.94152987393999 -0.13905233953268636
44.01368016710084 54.814743583308214 -0.1306623836950474
43.964247917745524 54.76713488267273 -0.12680786871206007
43.90416167599595 54.6168888711168 -0.11625378277642638
43.906579430219224 54.54302964079411 -0.1116234534429191
43.884107639356266 54.463101958752894 -0.10618226022002067
43.878758382194725 54.35327156189557 -0.11293283629321571
42.59956170021474 51.070785750316524 -0.11928722240831652
41.75178460561881 48.791952276731244 -0.1297283984537577
41.73556036591647 48.76876033554712 -0.13085898097383253
41.66641217925106 48.71087030518616 -0.13428290697623738
43.90512715860053 54.33638032328026 -0.13283625652548675
43.86619239575926 54.21651589192266 -0.12258401295138083
43.85399853072021 54.14434937564039 -0.11684384237533092
43.83895139517316 54.0389144043851 -0.10698284555756482
43.84722001563115 53.96472409812433 -0.10754813140410183
42.69824863612133 51.04913531746042 -0.11773559181296149
41.82532072944147 48.74411676511982 -0.12984379219422323
43.92389642807396 53.962168618744926 -0.07642163166076471
43.9105517493248 53.94583302404867 -0.10656560687971207
42.79763411566517 51.02982042292875 -0.11958810387439389
41.91545313107388 48.72913486671095 -0.12860496679366576
41.92134392633374 48.71435264370348 -0.12899787631953805
44.02364892439895 53.93509847709776 -0.1083668581761085
43.98159046774592 53.91615942240145 -0.09693444779780234
42.894352666631306 51.000189257978164 -0.1183573848925144
42.025228580632586 48.69138491821104 -0.1279135516321395
41.999136565293774 48.68854418577365 -0.12847264177598475
44.11610829405758 53.9141547783368 -0.11034167773797754
44.078813996493004 53.8947614789381 -0.07682216909568884
43.8684422892355 53.143924392400436 -0.1080869091625746
43.84834192063087 53.11575361030815 -0.1181083557202479
43.019693035140996 50.98468881219403 -0.14860602468248962
42.98755355675261 50.97741361520596 -0.11854334996675339
42.11052742825054 48.67105298336344 -0.12718756271253107
44.207470594113346 53.88543903626287 -0.11345589971863969
44.010391148910074 53.32275976232801 -0.13324198643543697
43.95056829653043 53.2456630280246 -0.11743196910213088
43.89935420593905 53.17834198553134 -0.10651501729702494
43.09966615537938 50.95975781404563 -0.14756890315073246
43.08012869867275 50.94498883745462 -0.10022827074948265
42.20365220261469 48.637293691034735 -0.12691695624046628
44.27406111949114 53.88291970197694 -0.09844172556162985
43.19126253734316 50.93017367614861 -0.14568205748533872
43.18246092326711 50.91166430595358 -0.1105894627830249
42.307942729845315 48.61912801861969 -0.12606627666374548
43.280744831880234 50.903637167705675 -0.13319774358086445
43.26204398135442 50.88381658928818 -0.0988318477662789
42.403829210685345 48.59352783543214 -0.1257274800036255
43.33120757998723 50.86875266037164 -0.13202972724607503
42.499631096217435 48.56710964471444 -0.12555272306061965
44.856617075704925 54.38826360738451 -0.1278592691978669
44.856933447743934 54.334015930823305 -0.12508884117655492
44.63069871115918 53.80503625792535 -0.12277591380128178
43.82258056490932 51.672734909748826 -0.13302445608997046
43.80678129875392 51.62532136245302 -0.12751126241811445
42.81287619770152 49.03668812050215 -0.10566577560932308
42.78571513886543 48.99283070620086 -0.10746225608793286
42.748292546906995 48.89837137225233 -0.11118229764160936
42.59723467466511 48.542277599118634 -0.12542278310457547
44.89981310361039 54.2955061282293 -0.12462940752840582
43.896704687415514 51.689488065099695 -0.12160420559533906
43.831538063544464 51.5765549529468 -0.09709929873193174
43.831373798226835 51.4617823278173 -0.10034250110667002
43.780723615975624 51.42627554830012 -0.09092377285799252
42.83794477335063 49.02948674022071 -0.10574731524490438
42.844838015534684 48.99455790081828 -0.10696968501348901
42.66045166514088 48.52882203880944 -0.1253112001477912
44.989298283184496 54.2555080403473 -0.12583055822660558
43.96300101656168 51.673191623712995 -0.09715652466535342
43.88519914014599 51.474385308092934 -0.1198527689664313
45.151074558566485 54.249059574941484 -0.13145628158752865
45.08249457090958 54.23720093196575 -0.1283499254229879
45.171592719644494 54.246743321182905 -0.1321169379649129
42.92638021649945 48.2874334245358 -0.13215474893900628
43.68477378631422 49.92215354215313 -0.07378329820604182
43.66685362269131 49.876417408920176 -0.07522429695979338
43.51884702521203 49.421225109645285 -0.09042083449354901
43.50132267829451 49.388055987009515 -0.09153853844585269
43.03173636882569 48.26416206521559 -0.13249091833111154
43.76267460816273 49.91347908203038 -0.07480444342395812
43.68908515146156 49.696069451532495 -0.08169019699749264
43.666783448267026 49.62955113117647 -0.08385575125045852
43.64055391891819 49.52132924554601 -0.08748876879696943
43.61232926374695 49.40946223404543 -0.09127651776999704
43.559435291074635 49.35138176224973 -0.09307848405877736
43.503311802478294 49.261960740250025 -0.09605155708868597
43.13040715346041 48.23862623344336 -0.13306288744907338
43.860839486407386 49.89161908657914 -0.07659353515314724
43.59332486582265 49.324558582737545 -0.0941883171216486
43.50705418402677 49.027198044835814 -0.10446700381372388
43.482782723618016 48.930035823012794 -0.10788735092118715
43.449913645277505 48.82525198665513 -0.1115911777004557
43.43562068455261 48.776212715574154 -0.11332995989187689
43.22307398090399 48.21776075624604 -0.13359431421112677
43.95654525094871 49.857409698276065 -0.07890690854926889
43.32405893021096 48.19578414309978 -0.13426379623124782
43.324428437745745 48.18665868054387 -0.13458732729379874
44.29683446029072 50.416142479627524 -0.15696852063473843
44.26385363664969 50.325985151710405 -0.13589755744397183
44.24325417843587 50.241566727328134 -0.11833802293969425
44.22709968536337 50.17036905473395 -0.09700217941084342
44.04969763473492 49.84100353796001 -0.08070768348916463
44.04344936702593 49.82057575413988 -0.08129752807274476
43.420383291690094 48.163952895289825 -0.13539843023463652
44.36139762136564 50.41329782721411 -0.12957685001542582
44.22442552367908 50.12747134997754 -0.07444158125044562
44.20071976107518 50.048327216502805 -0.07646694426708847
44.182307864574845 49.945408009153795 -0.07939614806468884
44.160002013779476 49.842494404120764 -0.08232582880680892
44.123901558937995 49.79275435015892 -0.08337749091236805
45.776707137574704 50.04893217083799 -0.11942448047714548
45.77944438117491 50.02833987758191 -0.11992277750695145
45.833131910727744 50.03366107153465 -0.12165965724576244
45.936351029439955 50.00358696650963 -0.1258093332619227
46.036450535428855 49.979855571076655 -0.12975992730595826
46.14339088380604 49.95352268309503 -0.13403238127801342
46.24251088384227 49.93585384914797 -0.13790143744546218
46.33338727321609 49.909691994005264 -0.14164342044681613
46.41738412478256 49.8904063401298 -0.14503659212232267
46.527474277076685 49.862294584405845 -0.14955509073336695
46.62273220105224 49.83799803653451 -0.15348208812037822
46.720778444557965 49.814669014599836 -0.1575175555104364
46.81493737788362 49.7944689634939 -0.16137612064992904
46.916191638641514 49.771050294033536 -0.16557109732730854
54.86501354476715 47.75576941034358 -0.06878039924094112
54.93195873397495 47.77699659971073 -0.06976268916638761
55.098909252046944 47.75790896754918 -0.07156370185780522
55.561890078149915 47.62306152199312 -0.07577225488747567
55.902884473901 47.53914223465709 -0.07903000247193144
56.26533551467987 47.45009675446077 -0.08248468504936186
56.633731353090624 47.36029483239218 -0.08601826986520678
57.15614152497068 47.32791428029889 -0.09194345124322857
57.07200302027129 47.24646279890025 -0.09014433946577345
57.198872989263705 47.253930716891325 -0.09174007060516148
57.986896750823405 47.07754121728346 -0.09945981288125941
60.918417459384216 48.03530746634082 -0.1457667035861204
60.90017549559776 47.94068236194026 -0.14445040712338778
60.283864108373656 46.36535167388102 -0.12004054864736625
60.568960873144235 46.56970452889644 -0.12554420498728533
60.56521788609133 46.470251289480174 -0.12448370810215734
60.54742387503149 46.407572090420594 -0.12364375159338545
61.48827610856934 47.68434429342497 -0.14887732741667192
61.467085234146 47.62081177758293 -0.14790076087987314
63.96259318780932 45.68382840600976 -0.15772563958208624
63.942365918128495 45.610224862364504 -0.15670688102610145
37.492669874141235 50.00848942741209 -0.06718842255752869
37.58403990954727 49.99298457344229 -0.06513707196203164
37.63634784882473 49.961973529261215 -0.06377164705174171
37.629924973925945 49.90042463425798 -0.063379207308662
37.588216343234016 49.795384243187605 -0.06336894947979274
37.585510505321245 49.69706049946818 -0.0626222141565029
37.659237438824995 49.64169558576752 -0.060666226547645856
37.76619972544264 49.61707941367522 -0.05829038251401149
37.86666140048096 49.59151581121834 -0.05605115345948989
37.95060869085463 49.56996546317251 -0.05419291989890564
38.063232465479395 49.54320199806344 -0.05173267196217089
38.14290485833508 49.52177555790968 -0.04998601868646617
38.37954030961178 49.9265940229785 -0.04814998321311431
38.22723031982147 49.54033508744068 -0.0484374933824107
38.38070064432339 49.55965696810639 -0.045515910843829346
38.60643727912486 49.76413831888439 -0.04241481103626303
38.475378984824175 49.53176461468049 -0.04346193094225437
38.47047353234867 49.42305686951255 -0.042866834041696084
38.55272324893428 49.51646822937764 -0.04184497516588198
38.52104162143074 49.41178010738938 -0.041805395333846196
38.676101455752075 49.431992296274316 -0.03892911353619455
38.65920451965766 49.419546921604294 -0.03917205907068405
38.727635684189565 49.37789644646159 -0.03761614000647871
39.01487022046294 49.724211918859645 -0.03414073266916133
38.816298557464165 49.3401982895378 -0.03570902384057145
38.89654591997237 49.34505250861983 -0.03420984751604768
38.92102666363941 49.29572877165853 -0.033488153485493805
39.05609912349752 49.28940596777209 -0.030924912405130622
39.01738739928558 49.27337010671983 -0.031569835482602934
39.134275714176226 49.262699461223164 -0.029343957176171165
39.11769840094761 49.249128107798036 -0.0295885751492012
39.24541401740012 49.221842015115506 -0.027121655616911128
39.200634464064116 49.220781283360445 -0.027927748475548728
39.33119787162669 49.193558507241384 -0.025436036888008273
39.261402011821076 49.18938812602603 -0.02667318704616961
39.43604324931775 49.19774172982027 -0.02357398634733668
39.48335354590993 49.17192932796113 -0.022624362249200045
42.46403104017954 55.36863388698625 0.026150967258878638
42.52183452609026 55.371459650457055 0.02623035217240763
42.462986779149624 55.30110563510286 0.026099711692450234
42.44944417571319 55.21928701060346 -0.02013203240516391
42.42843368543145 55.11721795284 -0.022611109360958448
42.403931559957385 55.01996496627587 -0.013128478208636635
42.37568095775231 54.92064171144938 -0.015601109958313
42.3479467638285 54.819207168532294 -0.017093598228637638
42.32437172398682 54.72199507705878 -0.012483545284428771
42.29646858973687 54.63175728361634 -0.033325372978652595
42.62263785912561 55.328404108558594 0.01692298041550855
42.63808582875397 55.300603446785104 0.026376753075276288
42.30114738140379 54.616709272426675 -0.0008694488281313084
42.27651998660373 54.52944976131859 -0.009638001258995499
42.25401014350341 54.436510992917135 -0.008211774989749912
42.23103942839378 54.3354520425207 -0.004962128520386994
