ply
format ascii 1.0
element vertex 865
property float x
property float y
property float z
end_header
9.760671281728028 56.790992296540736 0.20813950251206
12.113915648532195 62.70219664540002 0.2411460401744165
9.841897925107915 56.77532460639367 0.2078977481299533
12.209218092407681 62.66903041326734 0.24090997483330864
12.332111461095586 62.65678361859252 0.24077981835009404
12.270125015588555 62.66105866368731 0.24078505028849895
12.42481762780718 62.631288593904706 0.2405688152193464
12.513695733756936 62.59809621180764 0.24032323515485007
11.890031918787333 60.096203468029245 0.22594593357472312
7.668925027391552 48.921679062665426 0.3037841181978998
7.646746849157437 48.86449766770073 0.30149435631501087
7.615987909918848 48.74947369815429 0.2968432968683978
7.593968444287923 48.666068611785484 0.29347944849475793
7.572617221784016 48.56552080947875 0.2894017729608566
7.5524234844125795 48.45886904438575 0.285071388280339
11.743890866887348 59.12304651184307 0.22031667221526233
7.520558900714704 48.231276513108114 0.27580189718555415
7.497897622519368 48.17729065389432 0.27368596342491647
7.481578652314218 48.10721744845449 0.2708723613007679
7.071791460918978 46.84046251033964 0.2920911855118773
7.236074755317998 47.0976066546317 0.2312934852885041
7.179559318623822 46.99735610917421 0.26452259477261914
7.157705425098582 46.91389285611113 0.25307873586208185
7.1049107781651895 46.83377993236199 0.2521696451025196
7.053855164120773 46.736238180144674 0.24757056131421076
7.036033889922219 46.62970488143703 0.2509754204586822
7.018969971479918 46.5308261481963 0.24821167418074355
6.994830036487806 46.42987167476392 0.2365487050601796
6.969202878178112 46.34271606324079 0.2341349645486542
6.936877222773969 46.2353660433522 0.26578886431619153
6.906800513721945 46.15371193849152 0.2603076016053938
6.886055337202945 46.075903200069945 0.2564604757351339
7.332192551601956 47.083094931607974 0.2296471969364543
6.913176143250338 46.10195729771125 0.24604113415838721
6.887353068937593 46.037161832604504 0.25708799953499967
6.905496056983764 45.910548642798055 0.2610429011455022
6.883435803559714 45.83105942816796 0.2567880824768671
6.858589157554304 45.74636602543744 0.25461559981906057
11.023777231232241 56.49096319525366 0.20521029023775603
7.473427415016821 47.15783971745036 0.2315938736807719
7.4502066239559035 47.089677764246595 0.2707062020702965
7.419786822574832 47.06115279639927 0.24161294908942538
6.558720790771656 44.64244029328841 0.26548348155019125
11.072622137835223 56.4300110612942 0.20487984447747243
11.09080917290093 56.35101504274786 0.20440275677571007
6.567456246797138 44.629927711875126 0.27223834529373814
6.54977388059371 44.568307204537824 0.2558375301067117
6.527063670166122 44.47121683742126 0.2597364020254575
6.504741080896622 44.369407598953195 0.24675688281103328
6.480094540730013 44.27005722347505 0.25510512453254525
6.4601694721796195 44.1891549177432 0.24615917342555657
11.202530272124417 56.42890170053096 0.20487290532523802
6.566417094183992 44.2315270822013 0.25233445209998195
5.97966963535996 42.29244916629351 0.22289575843992193
5.969145690229176 42.23010356746049 0.2246350220042508
5.944134505114058 42.12869569256789 0.22754564084842244
5.918633019456684 42.02252611124274 0.23058906820602496
5.895140278160149 41.92986856317911 0.23326698359318132
5.872645977065849 41.84898529290203 0.23561993054550578
5.850125545410391 41.751279426184304 0.23841849354045286
5.820193697280313 41.637352661057825 0.2417239238459681
5.795461931150673 41.531071049680115 0.24477664084444156
5.774363562618567 41.443275267565724 0.2473029247959271
5.74986935231182 41.344997679363445 0.250149174078108
5.717840422017476 41.230487175051614 0.2535030115890352
5.693053090787123 41.12818940324412 0.2564544007022602
5.663070588590069 41.01077043210017 0.25985972471611163
5.641140899807045 40.92828537462528 0.2622720510101989
5.622260852932065 40.85111656108935 0.26449839712990963
5.600886386604367 40.76628796929295 0.2669689060769124
5.585065428454493 40.69223478380719 0.2690836764747729
5.558268890806261 40.59242911014564 0.27200668966102587
5.534610135084024 40.49791346400514 0.27474373219442066
5.504318351968615 40.386659817441426 0.27800744730491395
5.496093444896187 40.30189051683573 0.2803406133422929
7.2471092800180275 43.9223050206681 0.24170265970997937
7.303869188610102 43.91864919423881 0.2566274283753061
7.272924843832113 43.90664855328102 0.2426825627225606
7.414350420914121 43.91378556840701 0.2548242660943026
7.35357818165209 43.85860241539806 0.245747908610605
9.294586848862883 48.549819180229655 0.3015265594443865
9.269565450660416 48.43731140090016 0.29702212294341035
9.244888062992402 48.343454328898446 0.2931969146790213
9.226658012178241 48.27876189909607 0.2905514323246541
8.619825222738877 46.87559739202348 0.22915034095509396
8.622069273428044 46.78134895010567 0.25968056200337103
7.5406627116250595 43.93536080873962 0.2603233926313957
7.496140804394877 43.92735787767872 0.25187431030416246
9.215365597762817 48.22837500576279 0.2885339413643636
9.200830299930276 48.15938073449217 0.28580786396252095
9.168398311921681 48.04547207019514 0.281146300205376
9.149797369143995 47.95909537513988 0.27773596151210406
9.131036470776637 47.874888584542006 0.2744076304074055
9.107163958420053 47.796780861026434 0.2711987551957004
8.699628070722051 46.758927094299146 0.26359847941110504
7.621978186257336 43.91393463383526 0.2556711226163391
7.5695530897164485 43.906085755380495 0.23928318419156552
8.80276248385435 46.71894684562306 0.2282026350832775
7.711797620142125 43.891114792284974 0.25837193273584513
8.82905525749781 46.65221389368071 0.28390340770210737
8.81455869167104 46.58830669064181 0.2647982198185309
8.78967311791108 46.49222420966818 0.256285476116184
8.769104823010853 46.40177311849114 0.24903565283690296
8.743746343164478 46.30025788106936 0.2463780008396856
8.717356267495173 46.20424526906389 0.24133353291742657
8.695539243591695 46.111217672387404 0.23816828042150254
8.66941527470904 46.013623449181495 0.2434659461602149
8.645871504338489 45.913803225995046 0.2649601023305898
8.621759794235876 45.839904706299166 0.29917912884138687
7.828485267284356 43.82492699426771 0.24834690994666822
7.814213856294529 43.79962198131534 0.2521940368865477
8.639763859648003 45.8756750597327 0.26852018409751294
8.618772837032335 45.808145328019165 0.2686152951639275
8.592266344743235 45.71219148713627 0.26481658641267836
8.578936012427006 45.64247098916211 0.26305492474097536
8.545202416057348 45.50608671935971 0.25223499115935455
8.519920863730679 45.41493660344598 0.2550519084218731
8.496400596127001 45.320045873918694 0.2586873170543722
8.474969541539522 45.237037773966215 0.2563954201813697
7.867700093922094 43.81135317736579 0.2550328819741119
7.827405658121164 43.74261811073913 0.30164134179220825
7.892915645275788 43.634779412081855 0.22098051460157492
8.081194385648214 43.65901274322437 0.24472676021614345
8.043720673939331 43.57108251078281 0.25372635297144663
8.017780233388898 43.48149048080979 0.26041732932282313
7.9146866647195555 43.356059275740925 0.29589401493863615
7.974454413944442 43.31247260176118 0.241403461335495
8.525233289173263 44.54672323923882 0.23215803881988167
8.162109482546768 43.65111959963509 0.2485295425051803
7.976934006777519 43.30379907759292 0.241951574145584
7.943105114379975 43.179265492130384 0.24927531892152885
8.582645458339915 44.506336316892046 0.2598050493120359
8.571507674031505 44.43716121161547 0.26222785371414176
8.545491900912086 44.34015037088965 0.2643965135155981
8.524669518824105 44.24752502173746 0.2730098682186566
8.504889254230154 44.184708530334674 0.29430828770991413
8.256577997339884 43.608043355284096 0.2551456509901181
8.532878084433422 44.19381129939444 0.2961421911583334
8.53142598759818 44.18387604786072 0.25188764579595413
8.46117208301245 43.895857019477944 0.2181020740484642
8.44234747315552 43.84127879914703 0.24588070654223296
8.435545536886746 43.73712911071723 0.24717580383281404
8.381611921241557 43.65975570476206 0.2539092130117399
8.336540525432186 43.58651698615785 0.2627576528393647
8.490203955287294 43.78878837567993 0.22431955785427476
8.728996855396709 43.30606381870944 0.2558697471211817
8.841105388652391 43.18793956805293 0.265046243944912
9.00057683980673 43.145870509996904 0.27161324043783314
8.279470703159616 51.30895977764818 0.4017659955145588
8.237375992156894 51.14689075075138 0.395056665178476
8.197706211592365 50.99657864994917 0.3888616197123551
8.15918026232126 50.83796590646368 0.38230559086419136
8.124819100105961 50.70701966214426 0.37691659739680244
8.091792275833257 50.579837542942336 0.3716642335228665
8.058217970162309 50.438628378872295 0.3658597076640932
8.025808969941068 50.30321142547484 0.3602766714460113
7.993334585261201 50.1577484687354 0.3543035668900352
7.9658298572479005 50.05586244321722 0.35010858574870335
7.938674827912368 49.94991783173341 0.3457682009588212
7.771277526281537 49.50698485661376 0.3277346985047501
7.912985626163089 49.84774974020843 0.3415672516654954
7.887089772898689 49.733560779563156 0.33689114343200677
7.821246030434709 49.52057205790281 0.32819079535262635
7.7218401547571025 49.13739162960491 0.31256627433888634
7.687114063757067 49.03096279251751 0.3082597171284618
7.522359409766 48.26137147026618 0.39387965969955846
7.499483411730625 48.18456976517702 0.3881294979354497
7.483115635774732 48.11464688203749 0.3828771304053735
7.079549042264925 46.84936314585326 0.3620055248019028
7.0343902089694925 46.76519686182865 0.3544695769383229
7.235087599561254 47.10563311109591 0.3458707841300461
7.181040770102945 47.01370185823337 0.3644805396888734
7.158521124902171 46.91557002777897 0.3668835678094601
7.102839463659393 46.829090932560085 0.3590796490796011
7.062771012823859 46.7719032904937 0.35417514667453887
7.031062145826091 46.61838943017156 0.338839820544789
7.018599289725412 46.52389568576934 0.3292851973579612
6.99397371761246 46.423583959146875 0.3197923182656892
6.966460041502393 46.3432749369506 0.31274611341152886
6.931531117872911 46.22931781925366 0.33987003386315373
6.906551390430668 46.15671823912041 0.33240752571657606
7.3680286592391555 47.09686163117799 0.3443765964195528
7.330174892640271 47.09434822320336 0.3464861438777007
6.908250599766789 46.09935388723238 0.3250578055847473
6.892660433823114 46.03585491417621 0.32081419123933796
6.8994590022590145 45.937257166234915 0.36129457119398467
6.8888258828739986 45.82589306036889 0.3531175247474205
6.863536002398383 45.74171794645671 0.3568712009364054
7.480024993782113 47.164866979122635 0.33658078557868637
7.438133974346697 47.09689116189029 0.3610265702510831
7.415802973675803 47.06743611977368 0.36366393840731154
6.929620666277143 45.883849776071166 0.37509710711452543
6.904501859899853 45.81816083108049 0.3731640066011872
6.868669394169932 45.72139320087123 0.3735292748225332
6.57987208930753 44.640602856173984 0.3680356513059959
6.555896729037686 44.56343484397046 0.3472793901342559
6.5323486834137805 44.46806475974575 0.35677681469291506
6.50763753171922 44.373530572051436 0.34874044677614546
6.482385943303166 44.27462753275161 0.36469349425352326
6.458234355964217 44.18503667161577 0.3529516326884082
6.522639216245077 44.20807772158708 0.3663457516820102
5.963173262817644 42.210891570540056 0.335385936037309
5.943772836386046 42.1187932909736 0.341135872524413
5.912944619824147 42.00247507988587 0.3485893267399387
5.890546633418797 41.91135950923369 0.3543883733916749
5.867601198714688 41.81507564269714 0.360505020317041
5.843861449898514 41.72836110835023 0.3661052207014001
5.825322019795924 41.65035163801133 0.37106792829291657
5.797889063300928 41.5389070890309 0.3781947208765513
5.771450698265239 41.44054275722723 0.3845457161483682
5.754426976870039 41.357667553787216 0.38977185198692527
5.727214780669593 41.25322070974695 0.39651146684686406
5.706279767629388 41.176925624619685 0.40145603631485843
5.175894686370601 39.37669377670896 0.30809137279321946
5.209899948625435 39.403615540723365 0.3070583009098466
5.224897278626164 39.32901454404475 0.308906756043761
5.198823287313433 39.14904361680276 0.31397625781557736
5.218558579998905 39.033931171840294 0.3168778167906718
5.2401040384090365 39.01263877061074 0.3172580948005591
9.824447898788124 50.781533450800225 0.3926510413024058
9.802559492676918 50.66764895412723 0.38802715850958613
9.761159980069493 50.50773309961537 0.381419871426308
7.247653762042061 43.938741860903505 0.37793837866283686
7.23723026827904 43.90803830886971 0.327710028090065
5.321843714247205 39.00968796942088 0.31659790562930806
9.725497814079331 50.36476578413346 0.37550970608876943
9.691882692373774 50.22956926357898 0.36995193984449753
9.661222021043752 50.10383680856643 0.3647706261355101
9.637376264113565 49.99689164906357 0.3604237670050232
9.606210134205426 49.875558624256826 0.3554067234823161
9.57427189622005 49.75453459250594 0.3504168850492839
7.289406717804692 43.92545288810256 0.361338492936489
7.285811661837936 43.90291642837191 0.3407889484762075
5.419172290860381 38.98649459190282 0.31636664317656227
9.548263349288916 49.648245172748936 0.3460468930390431
9.526315405161931 49.553248465566895 0.34218618591025074
9.498913979878171 49.447428582364964 0.3378183738404369
9.461031963704142 49.320009747610925 0.3325080705185912
9.440807910808708 49.214124053016306 0.3282682647945323
9.439315900041636 49.13251047760212 0.325244429046776
7.420381673466211 43.91066299700148 0.35335503297324744
7.366429377567434 43.86698408033537 0.35667764666538115
5.396022843496103 38.71181159752679 0.3239893763380817
9.406476481677156 49.00461024579141 0.32000112538026326
9.38830936606627 48.92932011479997 0.3169500849866588
9.36482119252868 48.82769832423549 0.31283760181466175
9.33991159216118 48.724427620931124 0.3086454784956558
9.32162171088693 48.653394699298765 0.30575703591777204
8.621143907709257 46.86837535002676 0.3334231869243116
8.626544711073974 46.78712718086596 0.3785772716731928
7.5346431472457205 43.94353158366868 0.3486171877777474
7.488126420030332 43.92781966493095 0.339742521591937
9.158296106692484 47.97266587305929 0.39965083972379994
9.133875105497927 47.86633205848572 0.39175752177876755
9.126454410237255 47.80580520269925 0.387512703932173
8.715873709631845 46.76231620490518 0.3705115802054533
7.620514162756658 43.92387838699938 0.34771356666777553
8.832345310486588 46.74597430406565 0.3085275166415882
8.808339455771598 46.73572102488865 0.349012888964303
7.70150663489089 43.87549051662158 0.3521934677380316
7.7244855063945055 43.84951258284804 0.3658047877160092
8.836756769601486 46.673891480932674 0.35567766063224265
8.81554409465636 46.592225959803585 0.3731403948744222
8.793617887285691 46.496066521432766 0.3634088453848006
8.769566944575011 46.393237645256356 0.3530889013774075
8.740815380071625 46.28609459029357 0.35022908392496255
8.717007570136428 46.195981525861065 0.36610228374803394
8.691427542753685 46.10057235828809 0.3533564268146481
8.663707066813359 46.00413359010218 0.34229046884542463
8.645665311504445 45.92176830277059 0.33520895912720605
8.61261209998556 45.821755608451156 0.36923151794949144
8.58956941596412 45.75871426004058 0.38807757140859633
7.836769390297529 43.81775784721434 0.35124217413774933
7.806256476526052 43.79748360385277 0.36222874826734713
8.643346222763384 45.890421699410055 0.3572745848812691
8.613871712963677 45.80698620468035 0.3671911501623331
8.586289327480834 45.7115940273614 0.35966544898637737
8.571072575638281 45.61454894550943 0.35726841145007565
8.542460380640815 45.5164691263898 0.3562994589786297
8.515835669406785 45.42718106789932 0.3485303501469101
8.488701229785352 45.32190021016002 0.3547876633236035
8.465417748265626 45.228827971815775 0.36484605470997117
8.456059523853607 45.169579478951746 0.37389716310942983
7.860734712094016 43.808401371822384 0.36135350331564464
7.877179579622786 43.786956723535035 0.3408163593303614
8.456898404811637 44.577212563995005 0.3341363482007253
8.0811638911047 43.658034184830285 0.34336982198389965
8.045108631080542 43.56729449171784 0.36105119506816036
8.015657983993075 43.473554492461346 0.36978231948401896
8.008615885779639 43.4183849334353 0.34869896051886895
8.485836836268254 44.389702313559596 0.35669168425631304
8.157349466828062 43.648885800020686 0.35305368640087803
7.942200779682377 43.161179644090325 0.3444524938163594
7.9340106376618165 43.118760800557006 0.38529216096128516
8.57574148094066 44.509718405129945 0.36204490411019763
8.565312978769217 44.44520492006726 0.3544474407396285
8.546134336987162 44.33455843296701 0.34770997312907825
8.51366685846212 44.24603032610339 0.35414276350281393
8.498921585260101 44.164845657337914 0.38568433696260157
8.247817882706224 43.61044546469108 0.36382924932334415
8.41871817131601 43.84612391029603 0.3478695084426041
8.399351908085531 43.753087905420294 0.35496460595148416
8.374023690636534 43.656861975203896 0.36516867814287
8.332983546873423 43.58743557859733 0.37003790544420634
6.5224402811106 38.65477025006964 0.31725929229310207
6.584456788895515 38.69383850514005 0.3158020648665574
6.6478365912453485 38.66851038169658 0.31612727314226474
8.790239631713444 43.236717527954255 0.33609258334554704
8.878569886401255 43.196322806883714 0.3435798955453963
8.84955618897676 43.18974463886998 0.3427006044096356
8.754536793393509 53.0934819974223 0.4757630031533733
8.808789060332124 53.06686500783822 0.474819827965776
8.678416999452967 52.965389477634986 0.47032206636759394
8.603080835023961 52.63705007732856 0.45673742093442626
8.535578520718353 52.3478210009869 0.4447423398111142
8.877886671797048 53.04747904361461 0.47426787423802114
8.836070123226694 53.05238455395702 0.4743334166445797
8.473815295146856 52.085997073991386 0.4339174289089215
8.422019826628933 51.881167408370175 0.42541996277287136
8.373955419312122 51.693956119762824 0.41768403335604765
8.934363189394084 53.03881170454816 0.4741250376762053
8.325967905892536 51.50055927989694 0.40967147774685514
6.769212199141376 47.24486100852867 0.5027320980817587
6.697096265192667 47.220390920899774 0.5034041578388871
7.7762669716376065 49.55522497891711 0.49213933907809493
6.791518493632983 47.20213189446418 0.49556663128025685
7.8341752964245 49.55357259740381 0.4920205745886761
7.701261495396746 49.12665021476323 0.45947431865881816
7.652346603450798 49.094405224329954 0.4571020581303089
7.490022379212844 48.16189791901237 0.5004170381293908
7.048518076710423 46.816465784815584 0.4565964106528271
7.0150474119796895 46.7840871021484 0.46005371303334097
7.231773986653851 47.100502568343884 0.46337273252002936
7.175172576668278 46.99702044763917 0.4498978021397231
7.154155874956496 46.907855156178584 0.4376652532928824
7.1071846059752675 46.831307454378 0.4674139543495424
7.063795208753154 46.77483295531792 0.45616964229566326
6.863644144251596 46.04327443718972 0.41223318008433835
7.357202461736542 47.094962678853854 0.4598470130286095
7.329225502880977 47.0868322653209 0.45917897699895605
6.888241383644787 45.996149318750795 0.44484861312350504
6.9063178642858425 45.92407458291898 0.4269557768701901
6.901530786992316 45.83963653474233 0.4102342760426535
7.476696799030652 47.165657395500766 0.4687564783132025
7.4343542881509945 47.092647073386274 0.45845916211123355
7.420520694311947 47.065343703992156 0.45459226934355185
6.924637527638016 45.872140681514956 0.413311774671626
6.911224044493876 45.83193370588607 0.4071686809811431
6.577496794150455 44.62662253536831 0.4084466384164332
6.5651934267989915 44.55963569846313 0.41887579590224494
6.542257687198383 44.465099674707226 0.4341815526488064
6.512236888049749 44.36810050463395 0.4346774494787205
6.491530661167455 44.273522018120026 0.455516191174449
6.474363647753241 44.2078278861438 0.47052345578477967
6.567302392207318 44.26424165366777 0.4389925891973859
10.127047211268225 52.9756143033969 0.4806513078788659
5.940680008404542 42.12749693516884 0.45434490220513657
5.912032513951617 42.01561946282205 0.46541038285016695
5.890667986464964 41.92678402253113 0.47415271081215693
5.869681376385504 41.84887759076636 0.48192444743342655
5.846816424880701 41.75069688991395 0.491578020169324
5.822995129703806 41.64872666476569 0.5016230622431501
10.141060870647124 52.74013943486384 0.4716753034400076
5.672093437320423 41.05170175019583 0.4095863451890008
5.646968002755195 40.94438849588611 0.41645424025972627
5.626398438392184 40.863734038901434 0.42165295361472765
5.6091311684498075 40.78814809904722 0.4264907308227918
5.577635076747956 40.679687411387576 0.4335843830983605
10.221168357931491 52.710626650078154 0.4714855047422241
5.550103575873555 40.5574357422012 0.4414019074177845
5.510803214401429 40.40558843781933 0.4512404846869245
5.491007096386198 40.294426053528994 0.4582294868062307
10.293871157731331 52.6991354437596 0.47194733092377017
10.160108056961205 52.05453892516054 0.4455725471209747
10.10774815071086 51.84369397132453 0.4368240180897454
10.064778947589554 51.661306775472 0.42932410030386936
10.013058976701599 51.45644990317307 0.4208206849862466
9.967860275650837 51.27259651836765 0.41324060090548476
9.920710685253432 51.08721540974777 0.4055485496232288
7.252579201137305 43.93441219259903 0.43060480101240867
7.239849630118576 43.915233310676804 0.4367080689947608
7.288035152032606 43.924116433773484 0.43110212794626324
7.325590024690792 43.87072723845295 0.44357357427997207
9.454702330803691 49.241211982058275 0.495226111986687
9.440062069178984 49.13067804701774 0.4871842933160277
7.472494550796861 43.96080925920849 0.41361414369650806
7.419694093169406 43.92007352421444 0.42623934676041586
7.34582593442636 43.84171321718076 0.4452100783952037
9.416563468211626 49.02290946829231 0.479064206333555
9.402714054235812 48.95677173941616 0.4741165619833328
9.375342144167668 48.86382454893333 0.46689436103730325
9.348431780874115 48.756263628873924 0.45871230964225335
9.322021764449783 48.63501413695596 0.4496264562476553
9.299750458007942 48.54154525820128 0.4425738105421758
9.272887820356676 48.44128803762708 0.43491103104211526
9.248741120316987 48.33395045954455 0.426881068599365
8.618272585235815 46.861322523185926 0.4642124580016254
8.620881850520181 46.783822198703696 0.4546833563929588
7.529271783153878 43.968122166134314 0.4112058675764677
9.225736874391048 48.24600709155107 0.4201977483413401
9.203886341875998 48.162980322625714 0.4138996602158763
9.183324567114338 48.07125191000799 0.40707566486760094
9.116848619005607 47.810324597904 0.5036478068261848
8.701201162759366 46.75579529098587 0.4575512918831059
7.629309832468714 43.95585842531839 0.415854075354344
4.217107260896392 35.11967706691209 0.4313252480858558
4.175452833295093 34.878586433210785 0.4381988781726232
8.8048681069173 46.71925388535795 0.46193318120478183
7.704827548887035 43.89975855852716 0.4297228861577895
7.738989390100937 43.83588469720073 0.43595421137859686
8.822942421223651 46.64255181841876 0.4546058616246132
8.813881266611713 46.589452313238205 0.4477177060475866
8.786689840553075 46.48454638731681 0.4434998362107688
8.7646223939119 46.39678960641001 0.46108488625377436
8.744635604893457 46.30683520942863 0.44041354016046624
8.712202652573152 46.20115124038318 0.45812849281289175
8.684571540900778 46.09651615954545 0.462437458265914
8.660273274037582 46.00686195293035 0.4567905176162015
8.637208718305915 45.91409596246542 0.4409709457756231
8.609647677656895 45.82110269446185 0.47511700363577714
7.831812420944344 43.81743665661274 0.4304989356938683
7.795358521992702 43.79599583426052 0.4478636979515713
3.721217707304252 33.2328872194079 0.48664435166778186
8.639444487797551 45.87361857435774 0.4080894458813509
8.610599921806944 45.79128806463054 0.4595857397480801
8.5842314209468 45.709849963859234 0.455752183452464
8.562815794941589 45.61448261101689 0.43890649103128854
8.54038133178688 45.52219085034014 0.4395359113496724
8.506992764691232 45.422283605518906 0.4252992249642095
8.479432596328797 45.328297724537215 0.40941793157375356
7.856262135173374 43.807337988081876 0.43218385329908804
7.857754959616849 43.79220593480109 0.4718564659188891
3.7320627143778875 32.90834568461017 0.4953692996958754
3.834007053644107 32.86495890432526 0.4957104813740704
8.078955145268425 43.67105493113439 0.44472942339988875
8.04334103196617 43.57240939328773 0.46210966102427903
8.020501648541622 43.482009498290225 0.4575005612866581
8.004608483007768 43.42125776626133 0.4633752050233432
8.165014448098834 43.659822611328885 0.459286072844409
7.937169773269934 43.14726964405092 0.447716105221637
7.925756807074349 43.12496086410534 0.4510477774824231
8.571626325083441 44.5102334598779 0.44413312810991823
8.557600906438635 44.43464752540796 0.4339054557229949
8.537649916250842 44.34304319054658 0.4353285741777465
8.508290871476834 44.25400453914972 0.4270203954357095
8.400896166392648 44.04480934757819 0.4822052519595635
8.418745822434529 43.963303545280574 0.4766963469837403
8.246649748692272 43.62805447760873 0.4678042915312879
8.433229378466875 43.91749446038083 0.46297488878363935
8.42316835444692 43.844678679522126 0.4536973163851631
8.40461605522256 43.74804104107399 0.4570730676569655
8.370817648455407 43.671688289145756 0.4725915046352912
8.329906588136831 43.58980415410537 0.4561659076305767
8.472523394320913 43.72833902411664 0.5041869901480197
6.497586487555388 47.32264076939899 0.5117297555275491
6.475496328244475 47.298887792097865 0.6014216472292927
6.584257343781202 47.299209763929895 0.5211103257046279
6.53169607024535 47.28031591597112 0.5615516224816381
6.665823481096938 47.27536965396794 0.551031173222737
6.638998607014662 47.24478478061202 0.5694690236297227
8.166408188125061 50.87914706261426 0.5937855009888788
8.131242554857518 50.74255191624661 0.5832733974002764
6.752946499976271 47.24718570018138 0.5621660305859482
6.722658233804385 47.22891219724163 0.5904772593803863
8.096219555122085 50.5978036293136 0.5721277891749226
8.061759580144214 50.448967431680174 0.5606996572720095
8.030480022830988 50.32575343189727 0.551217773094673
8.000496343640268 50.208406440385964 0.5422107834387676
7.970827390662704 50.08490870676819 0.532724333786353
7.942512988223591 49.96728188771667 0.5237111896921651
6.837594603058963 47.16767899999304 0.5723421768358776
7.9158828626286795 49.8554055287298 0.5151283291196836
7.891989826639465 49.7673050312 0.5083832747624382
7.658790614776798 49.09272786694362 0.6037824332524033
6.88269725711526 47.09823727501672 0.5574410392010822
6.9129574348905125 47.02098395106988 0.5420930707458519
7.512309705808811 48.232556707764694 0.5081794212389525
7.061139501291651 46.82303658342042 0.5338933864083865
7.025922386520499 46.77542599334306 0.561926423260562
7.235755222471932 47.10846303937517 0.5433459552651722
7.179344954618686 46.99627024926409 0.5501740299392022
7.160407547085421 46.916115864725874 0.5478112981729527
7.10860996053188 46.82308116224314 0.567215950690795
7.065718249007564 46.75986549703673 0.5561237703192824
7.366059198390463 47.09349851791944 0.5374126819744001
7.326759223490666 47.095626262371255 0.5386195296721852
7.485605505024713 47.1686729022479 0.5495624827760418
7.452030272992174 47.09785831917937 0.5369401142759717
7.413464576316493 47.068979728217954 0.5321479138651376
5.931370283192596 42.08976180290299 0.5737821413202334
5.913176519772352 42.00815395188729 0.5845779606560868
5.884961448278758 41.90622521027356 0.5984197954827146
5.791221826691758 41.528669654469525 0.5136248117058942
5.769048305246226 41.42292863957138 0.5239657493205283
5.740933268566545 41.31698268796346 0.5345811241511195
5.717125493815507 41.23556760483706 0.5428430166407809
5.695465191071431 41.15765082796239 0.5506972649335221
5.670794959676561 41.05253598812956 0.5611275881595752
5.6382628286828185 40.92923897553959 0.5735153490595061
5.61365566185614 40.83973815058394 0.582545939122198
5.59485697614424 40.76070672145459 0.5904199580502295
5.575050428189537 40.67787918447429 0.5986684825710041
5.175471338453571 39.3808484221099 0.5193516931376663
5.119446122667272 39.302648248226284 0.5252654196330555
5.00485291397469 39.08899182713671 0.5405049002543416
5.207165661433377 39.40217480875474 0.5173725624381692
5.219432135595308 39.32087844934549 0.5218932239139352
5.2102579076958 39.18316680505005 0.5302581348895531
5.253987931061929 39.02357657487642 0.538780168664559
5.196894089023054 39.02964202364208 0.539661150534883
5.318824985007805 39.00723461573532 0.5383753365205115
9.774930338951766 50.53640064809968 0.5945703717798418
9.739427724761027 50.3936802511238 0.5835726122436038
9.70444778916608 50.255025405385155 0.5729055133085544
9.668555503490563 50.116622401541086 0.5622117311377981
9.639350562552254 49.997015058165125 0.55304955809232
9.613695393308415 49.88877379301478 0.5447637986451174
9.588179804321683 49.78262097456171 0.5366553779390789
5.416469611747295 38.984623343658605 0.5377096784492608
9.559144201720667 49.66918092396259 0.52792070276997
9.531719628371574 49.561545951438355 0.5196630635465482
9.511644312244169 49.47234373239894 0.5128843610959235
9.482837335450606 49.365183980280946 0.5046276681340358
5.4090752666650825 38.756454095680134 0.5515632305338316
9.338662879115155 48.71591323596904 0.6037628854870809
9.319586448270949 48.64346141310623 0.5956432689031593
9.301053189102406 48.55734772913881 0.586192848520173
9.28174977461972 48.47150554651282 0.5767438513694554
9.2534024253371 48.37007547205646 0.5653262460635263
9.235059040205336 48.29021507841827 0.5565469052450545
8.616414743562895 46.8567969571971 0.5432146234386482
8.619346879864004 46.784229397289714 0.5398498104074477
9.221145221755874 48.23475680191587 0.5503900087286898
9.203462824145502 48.15994505660326 0.5421617177351596
9.174120083295405 48.05181988761084 0.5300863099444953
9.156214143823084 47.96668668095176 0.5208697349525089
9.130374392435291 47.869837276923036 0.5101153843133622
8.705286246535692 46.76791138953287 0.5380063755269596
8.807258979923652 46.73461240272844 0.5436778243119483
8.818189577013388 46.63559727907623 0.5304792483110077
8.83740017028668 46.67288128948442 0.5379860710816051
8.808615363440765 46.584951542189735 0.5559564054332911
8.793236422035339 46.50411793135019 0.5519157216810356
8.762867938706693 46.393915037810416 0.5601797648985309
8.735885888970625 46.29074526254438 0.5528293354221757
8.71083573553772 46.20330404223773 0.5587719044496005
8.683797392511613 46.11267535175492 0.5459283149389447
8.65909478504199 46.002832536813955 0.5412133286936143
8.63348894344888 45.905312107466735 0.5198601090987475
8.615328151864425 45.849927235634475 0.5072431971444623
8.619681195361277 45.830917005205805 0.5050957879827807
8.084212621998105 43.66972422310906 0.524028390570214
8.04154113945657 43.579376089235 0.5432299284094215
8.017822592277065 43.46842078075728 0.5441507248568402
8.000161241188591 43.404009536317446 0.5660497133728374
7.919983105043867 43.17819655295305 0.5076821915685812
8.169104127277159 43.6621079813595 0.5352884604884526
7.923012912384291 43.10663394406162 0.522151835082121
8.417031856881017 43.94641274634288 0.5054207709501309
8.262819364119759 43.62820597765656 0.5502575372469269
8.45828252620599 43.94905368065737 0.5121785410677767
8.436346869406037 43.826326121870956 0.5344499264934497
8.41436579061309 43.73937351440126 0.5413802834104101
8.368003507924318 43.657552842652436 0.5456691607556202
8.335863692884281 43.5937839344711 0.5454040924113266
8.453357638783736 43.713553878307195 0.5044344355393638
6.6135843420956695 38.67346552131025 0.5380327566471608
6.633326475080156 38.654551745641996 0.5389971437288347
4.055059799256868 29.127084737727586 0.5963339374723059
3.9902601691254107 29.096322940099355 0.5976435372352825
3.9050061077327847 28.97615713634701 0.6015416981631025
4.1123684273644265 29.124845878445036 0.5960027531379982
9.684530150033286 56.81450779625223 0.6305471361066665
9.768268157070505 56.804008263497565 0.6304960841898282
9.826608094417512 56.778548128951755 0.629730521952552
6.2704673845126715 47.32121105905766 0.6232364801874193
6.230211781594965 47.30526851193159 0.6245982852693837
6.348740973678948 47.330339913332956 0.6268711721515305
6.46658118302271 47.33324696310564 0.7014973257615084
6.437249496848208 47.30971268492797 0.6662495544715453
6.595436432025206 47.286915904511986 0.6096327488241765
6.558661456469879 47.27976186709553 0.6766197903367431
8.485454034458973 52.14807581599412 0.6917406761551324
8.430754663982635 51.92395430319316 0.6744131545220605
8.384048510613582 51.74903190752332 0.660895976669883
8.334407145853735 51.54419774014959 0.6450764317401684
6.649505222533299 47.274743012765136 0.6854064936861736
6.6286590593974175 47.26580411413658 0.6944842963990739
8.287486495376216 51.35104990488469 0.6301903390515224
8.243158046012422 51.17152015940324 0.6163343962810132
8.204055600453554 51.02748751034407 0.6052281199019139
6.753825118295113 47.261010404459356 0.6832168708445708
6.704305453365892 47.23527952090551 0.6818008666975638
7.778275708432913 49.55187597683003 0.6550571496504184
7.759552358674639 49.495156012155654 0.6486956990366511
7.91996769686626 49.67995276439217 0.6698021936476648
7.869578523593045 49.6653703528197 0.667948465614817
7.8276360373863 49.54944763348712 0.6549010160479383
7.694775054164313 49.112243218937344 0.6059460363656355
7.646839074381269 49.10399259152795 0.6050605941425121
7.994917672964083 49.76224967117569 0.6794023255259332
7.960095551510697 49.66374303866851 0.6682264378346644
7.513990938819727 48.24832388615455 0.6278536411695176
7.491616838169326 48.16611863852863 0.6158864392328397
7.023140314067493 46.77402049249433 0.6323748161070455
7.2361161226801665 47.09447346741954 0.6571732257522156
7.182530660677893 47.00495993076342 0.6579876415563986
7.158876660964698 46.91006107080171 0.6577332326342986
7.103006045000683 46.827751406317994 0.6403286663936665
7.05389376125557 46.77234020980348 0.6297204672784602
7.332536924215544 47.087206854779694 0.6574285378553243
11.054792900091595 56.50273359224673 0.628110025931845
7.446050919018956 47.092204852369214 0.6575057903011989
7.411600557963129 47.06655633169494 0.6400120492400051
11.059135952964027 56.37178947764562 0.6230646236410742
11.211740900979215 56.44307540637706 0.6274531463403344
11.129746053987692 56.3245269813758 0.621973373688784
5.929336598080603 42.07679431142649 0.6926888229076504
5.915805707013434 42.02794560493217 0.7010781051420887
5.866367735901193 41.8184554179582 0.6100127084350607
5.84198953739528 41.73050671472718 0.6219910786243098
5.823210066585858 41.65209283625444 0.6325043968908858
5.797830561071306 41.54489468935698 0.6468810288139839
5.7730682770239605 41.43426430096933 0.6616577456479947
5.735485973871149 41.30915006195043 0.6789330679937892
5.727400870233739 41.260138034936034 0.6853362519863512
5.700120533293772 41.153383496705615 0.6998290230985261
5.554144210503279 40.59118579142452 0.6073264731415902
5.5289989448383245 40.493428108209386 0.6171423756683605
5.506085744289329 40.3990367856073 0.6265844903307016
5.488783180747552 40.29362711452514 0.6368128705966468
9.962158218898573 51.73044935101015 0.6838938561101863
10.076677774527756 51.75422631408519 0.6884629352630229
10.049169699898933 51.613291984202256 0.6777886929465009
10.017391061426238 51.46103963085111 0.6661769760749314
9.905679876350016 51.36465974219738 0.6564792778621621
9.978049308074642 51.29242574882345 0.6532485071690802
9.927400119083408 51.09811016580828 0.6381839930769065
9.82395158991351 50.774509014053905 0.612632681944972
9.804304663708349 50.66641241115091 0.6044874073711795
9.533824519030187 49.56227887400476 0.6978478012555941
9.504999688118655 49.45334982214577 0.6855237102794306
9.466521830444266 49.32476573692341 0.6708064136577692
9.451817946323573 49.231150706753155 0.6606871920802677
9.451916268336959 49.1721699784755 0.6547457974117447
9.429129767215228 49.0842304634586 0.6448662469297206
9.409131514992474 49.0036499566606 0.6358444561819504
9.391016685566784 48.928764400869966 0.6275038505628227
9.373037673035462 48.855903239495056 0.6193630579963757
9.35810143417823 48.79039457337052 0.6121222722348372
9.248146523904264 48.342309755318944 0.6982784614450547
9.2256082723316 48.26941028079429 0.68730879194433
8.610355863550613 46.852133373169416 0.6630878577124316
8.619707328136133 46.784328728345216 0.6526959460042564
9.211717233967768 48.21421499415043 0.6792130295791285
9.199105046295218 48.14940383615587 0.6699784170046788
9.173631230145055 48.04873087631984 0.6552508206312774
9.14784095431042 47.94915452674796 0.6406691092024107
9.127765810621828 47.86317312305725 0.6282563619623572
9.10852572636114 47.79354494175735 0.6180112433744097
8.704071251770122 46.75763464235293 0.6559815641777795
8.801855617126114 46.716078586944214 0.6561444405068991
8.80373188905986 46.609269152917086 0.6802931316673421
8.828485810014884 46.654338009619835 0.6131842490854298
8.804511521801508 46.5872935704305 0.6562049772699129
8.780308000947016 46.49940678455467 0.6546874499637346
8.756767293778074 46.39654558225626 0.6307513912884477
8.738333400244219 46.310799124631515 0.6112359281997252
2.2148297592610486 26.863139302642615 0.6721587288202817
2.6568637037154366 27.705359429053555 0.6457047026900951
2.595097918528646 27.716685386304054 0.6458690033468184
2.277386640610448 26.84280228516675 0.6722285676652118
8.692707977767222 43.355762624964186 0.6800850419310299
2.7043100243582128 27.642272619379295 0.6470410432190761
8.756667352221244 43.26966589831389 0.6318067457799744
2.7926330158149435 27.608641568231647 0.6472799423738507
2.830789788818249 27.39227423912045 0.652904950727457
10.594038601036145 60.41779465175385 0.7807948775523951
6.181761171858335 47.35522860028296 0.7362454228009723
6.262611956744324 47.345572615477344 0.7252250160906952
6.350876162890412 47.32823172988028 0.725982714289555
8.693972418610524 53.047199003718596 0.7611662218873694
6.431754837799335 47.307008963143005 0.7827010629178244
8.7774227726531 53.091770959461115 0.7652000262795666
8.757265754024196 53.08820032338796 0.7647494526623856
8.61408930618866 52.68998825178486 0.7336060357204109
8.545268186468011 52.393505450811034 0.7106925484853449
6.57492025828555 47.30779219141345 0.7078204557481843
6.530118256257038 47.24190334869796 0.7719111721561626
8.870203168487155 53.06548687015007 0.7640227257865677
6.67843560355175 47.300874095648645 0.7904289311083252
6.645405780674228 47.21396421392437 0.7728121630709978
8.940817787662128 53.05512502746055 0.7639156864028698
6.761654516698637 47.25557051941759 0.7718251030654422
6.716853202500623 47.21181887164852 0.7653155802454396
8.11980347357175 50.52213268346871 0.7647025104469901
7.612454502546424 49.18910803442918 0.7659757170381146
11.87050399408341 60.10843542434611 0.7777381408262014
8.171376387906689 50.54087583829085 0.767208529234617
7.704680264700955 49.119656585100905 0.755768768564713
7.6538520731587205 49.10515425331717 0.7535941282630058
11.923118518367534 60.08697436105903 0.7773527789156197
11.748581354344434 59.119684760194374 0.7376528141620664
7.521411974887727 48.250886458263324 0.7474258053835018
7.498792237769021 48.17474537046885 0.7336173481495064
7.226307334129501 47.110742725596204 0.7053721202186792
7.476493306752998 47.14602717279861 0.7080372000179977
10.11479899110401 52.92807228947656 0.773388034935462
5.909178563988366 41.991162848571754 0.7071148544798176
5.892436095301473 41.92287945026052 0.7186893293640455
5.864711459237995 41.81813823823131 0.7366239389682182
5.843979129394372 41.72328814712106 0.7525562191384377
5.818110499348849 41.61686256295635 0.7706598456239133
5.79603272368937 41.5296671835694 0.7855781740334944
10.133621784046001 52.753791496219286 0.7612475664810726
5.7764597470054815 41.46010803330581 0.7976295053158952
5.671101143792939 41.038787930226555 0.7153841781479389
5.660369329846553 40.980284035559045 0.7231136895039316
5.630732382372108 40.88040718628506 0.7369248180658686
5.609330729554998 40.776774376782214 0.7507659748053673
10.232493725864995 52.73411760124749 0.7621256763998262
5.540273152784444 40.56427665728548 0.7805186865732943
5.577211535461874 40.41493167273904 0.7969941660473683
5.1344970480607826 39.316151840610495 0.7390744517034458
5.008398120414737 39.10268895484686 0.763210955010908
10.284438307445704 52.7060122970456 0.7613729391368699
5.605264048833606 40.41487223394668 0.7955736526394924
5.2220540843924415 39.33258421041673 0.7343854591621621
5.200131020703292 39.163200920779936 0.7507164304359358
5.228913886740296 39.025716683484845 0.762371030119734
5.209316023719811 39.02631805655642 0.762999535761321
5.324658281602628 38.99670321954074 0.7618219396746356
5.27656588834675 38.994740183249945 0.7636136890535686
9.765727837093703 50.508265351482024 0.8042928480437418
9.73100411238418 50.36787460270487 0.7884409064542869
9.699092720801783 50.237046078482464 0.7737181087251006
9.67168300740454 50.119286303609925 0.7605070681902084
9.634838442114829 49.98174762142719 0.7449068506977644
9.606123395015205 49.866547580381976 0.7319190059386924
9.579096992166743 49.75708845674527 0.7196173254928364
5.408951508830511 38.96904298890348 0.7616517521982754
9.553241356690348 49.65133926725036 0.7077305006458757
5.391390834154688 38.710480278464935 0.7863192148310562
9.408604180102763 48.99919778846761 0.7947819011598707
9.380433683041774 48.903163235035464 0.780341842516778
9.366732065409055 48.839584414962275 0.7710843325007781
9.339612804833028 48.73193605633795 0.7551960980702412
9.322169733103749 48.64587588365395 0.7427768482260227
9.30187761251206 48.572067944128804 0.7317874579514094
9.270931131065183 48.44753382222264 0.7134969449026048
8.607063175313304 46.861329545956686 0.7057285472651701
9.202308439472276 48.166506032962744 0.8033995741059262
9.174093138844638 48.060522111629695 0.7839601386212988
9.152048183463869 47.95477587678418 0.7651293585563503
9.119319403108154 47.845984194719094 0.744921245003081
9.108831234276675 47.79220548559396 0.735452656837056
4.307963610604155 35.17428274886096 0.7890339771605609
4.242470976772678 35.090843686097955 0.7953305762211165
8.810774821334533 46.72837605215419 0.7056226865181866
8.828632321473457 43.205679894514475 0.7350994555469704
11.165947592863187 62.95061265848569 0.8860691916527774
11.31191635590934 62.860163838682276 0.8832532868531712
11.434220695870247 62.84304643615884 0.8832954310563179
11.530408566301588 62.83199239265141 0.8834294228629712
11.594150445397627 62.81760552381935 0.8833092750386115
11.652058380176044 62.78377076799398 0.8822936466165152
11.714787063100074 62.773255009941295 0.8823484890004082
11.805251227751228 62.75785894946338 0.8823537021327973
11.90380344088548 62.74828190803488 0.8826684165966528
11.992079672605362 62.70259960556297 0.8815431051303642
6.196207438231697 47.34415622331449 0.8325577064536789
6.16335690216137 47.32537426661556 0.8329174996420967
12.156545738371719 62.70272890832522 0.8828355523630348
6.245199323209803 47.35188944873855 0.8278048167175399
12.222325523642676 62.69164890687371 0.8829847849665453
6.347996672983192 47.328229163592574 0.8095288797834034
12.337175558040876 62.6483981088394 0.8822579037530581
12.277578053907398 62.662410961172796 0.882249284746869
12.40007290292825 62.635286791935286 0.8822468632794284
12.493819191135024 62.617449882222914 0.882413756314179
8.344809664702002 51.603133458672204 0.886551586898129
7.592713313947212 49.74622891625937 0.8479976619363017
7.771962162071973 49.53926992784572 0.8176276681872627
7.906461492983041 49.68865225769197 0.8403148557580191
7.851525785886432 49.615532341318016 0.8292069233215041
7.8222018121168215 49.56000808967616 0.8208911561622517
7.655533300009205 49.09565110387655 0.901804212168038
7.961446624603455 49.65506527958211 0.8358571285781196
7.517276497971021 48.23737576446705 0.8652496420484908
7.49483308266403 48.175765553571246 0.8518695982886605
7.478793134642948 48.0730651019682 0.8294608812972075
5.9081989273899715 42.004408586543555 0.8265084281700623
5.891259546027357 41.92335901185019 0.8428792296931393
5.879815301502969 41.83628443798182 0.859873656289233
5.842658466048212 41.70985644783568 0.8865076609958782
5.826266121383755 41.649968874603275 0.8990303542794029
5.765367322220295 41.40614755732935 0.8066913369966616
5.753040382769216 41.348513600030365 0.8164054884925509
5.762100523032144 41.25337043714849 0.8303877354980784
5.815344758406974 41.232831731211846 0.829841550390572
5.769011499123339 41.07734176023911 0.8571261468160141
9.805607958623346 51.028123840357225 0.8595594746098698
9.820915839629652 50.94364897738974 0.8513905760702154
9.85123842029649 50.92873960458051 0.851043892880735
9.83161004501104 50.78804990427176 0.8357519502184911
9.792130788623869 50.63044852208187 0.8179182533371356
9.546413332635058 49.631393978758254 0.8872864014757542
9.527053140369873 49.54273887598986 0.8742878264608274
9.505524469544852 49.45059539104243 0.8606877369476148
9.450775812103444 49.24536681068149 0.8300530814880839
9.437959429369497 49.13821059054459 0.8150136080405287
9.422672172506758 49.06686046286861 0.8046192940265037
9.326763262110257 48.65240215445746 0.8924839455511085
9.30640296577257 48.56265655501153 0.8761990204135427
9.25790269448785 48.41867060524287 0.8488192425852115
9.24084517334697 48.34025366368117 0.8346931813801629
9.229394443902036 48.274334833226284 0.8230733735871205
9.214739410055218 48.21767232273227 0.8126907274266361
9.14913091101179 47.960194862073806 0.8908877767638808
9.134653716728904 47.88357493354787 0.8747065038590324
9.097827991112561 47.78224688896064 0.8514750047572976
4.124612680409985 34.36502612400212 0.8414317126964929
4.144198275199486 34.298061734530314 0.845100698290576
9.510931104813146 43.02202162567559 0.8921259582452807
8.559454871091681 52.47110810196769 0.9848978176523656
8.497503540334236 52.212760523702286 0.9556433900890844
8.4422819206471 51.987463087390175 0.9301030148008544
8.3915476438135 51.78359542375381 0.9070183675451037
7.608430943923666 49.58775520066769 0.9918391173363406
8.099952431246786 50.49338763103716 0.9600331546432787
7.765694243468893 49.52882706454555 0.9813623417395247
8.170954237349749 50.51537688593793 0.964109664317276
7.855087519386398 49.633616307331515 1.0011269493951036
7.814765815923701 49.53970014994061 0.9836613683085519
7.706477826289082 49.11417079408537 0.9053060980764203
7.576367017695023 48.62763029511221 0.9506562217152186
7.52465133936764 48.221640190165154 0.9833131165011948
7.513006225316548 48.16543978729446 0.9689702651942527
7.491362431934489 48.072341890631655 0.9452605216985827
5.908511387233824 41.995245443860405 0.9514888917675686
5.899193555503992 41.92812163674559 0.9669372065367814
5.876906503165674 41.833605488283204 0.989750083484132
5.8128047712482305 41.59528951814329 0.9103292371050302
5.798963672899069 41.53859896791559 0.922047564613795
5.788265578954256 41.48701944595616 0.9325422457031801
5.771134265135288 41.421130047033586 0.9462751858304151
5.743808241616296 41.31671671439847 0.9680673558580681
5.771220145247845 41.259271170741634 0.9763948022127736
5.845748447009893 41.25151467680925 0.9715532461697728
5.821076081586832 41.24876940785292 0.974125099380976
5.563432738723521 40.43044864659746 0.9716462780359394
10.000859544911279 51.757083331697494 0.9427420974726316
5.597019807149997 40.399464789100634 0.9743045937266896
5.220005106217476 39.33281111389313 0.9491731497456696
5.198791559807274 39.16527599926646 0.9710831552907333
10.022339581472373 51.6708071749319 0.9345612276341808
5.218184271191442 39.034212843880205 0.9865440855899433
5.207826800739083 39.00759825280826 0.9903552247116311
5.311975662652034 39.000071725517515 0.9864601811198083
9.71987315846788 50.33550990647892 0.9919626356677574
9.685760224725756 50.19980073255738 0.9717335684251579
9.656855805679646 50.07894820589552 0.9537902031151
9.632331868406247 49.97125320325092 0.9378986003533295
9.608390012577216 49.867490480082694 0.9225600079758755
9.577653441487767 49.74939058626553 0.9049355608783054
