ply
format ascii 1.0
element vertex 820
property float x
property float y
property float z
end_header
-0.47434239503523185 12.304650474261669 -0.5599185108644813
-0.44541180038177086 12.363871056648598 -0.5596783459354704
-0.426631358161652 12.476133492274979 -0.5600986765134022
-0.3678451526639962 12.58336458599353 -0.5607026050652506
-0.38814750055830494 12.647021628108327 -0.5608981805997191
-0.3152815262272175 12.88201116247136 -0.5545493412960736
-0.22573733584694855 13.183718045041632 -0.5481420300422533
-0.2375173609963439 13.216876758641721 -0.5602540274261429
-0.5249091488568575 12.322993280470032 -0.5595101655245689
-0.5151862584778413 12.404132765541176 -0.5600673778108807
-0.48042076596803696 12.49293570177511 -0.5601960378767841
-0.4779897903367971 12.57874340531071 -0.5599196541965186
-0.4135719282869329 12.686209778357416 -0.5627851166693782
-0.4638842354266619 12.809690248807673 -0.5622204995035105
-0.39868716574352503 12.905867800136871 -0.5594110412972535
-0.359771951937943 12.917669609565339 -0.565248916653855
-0.33873083377314517 13.25074304094739 -0.5629408193365764
-0.6520798855654378 12.396959332876792 -0.5612065870957452
-0.6223872578048526 12.526639072947669 -0.5607181996774802
-0.5805674183416872 12.611043086154131 -0.5618369008960862
-0.5504072456868868 12.689651647099135 -0.5613643081960566
-0.485018652514413 12.83241467310454 -0.555399548912749
-0.49414468843720205 12.901811363767433 -0.5559561978937908
-0.5083695048208227 12.959553503554464 -0.5667375484472443
-0.387285627118378 13.233068900281914 -0.5486058361955441
-0.41811700478249014 13.267123970897362 -0.5593459292518941
-0.2831668586252524 13.615116836983663 -0.549114787653491
-0.2791941442677111 13.641457176270658 -0.5394308983981595
-0.23949213140416892 13.781850400995125 -0.5485754407654877
-0.21906003424443504 13.87429474928789 -0.5512605415649914
-0.20944551748184337 13.944117636824991 -0.5543516414433636
-0.19090792717393684 14.057860126580726 -0.5560215152775296
-0.19007064449501987 14.166415097574072 -0.5575012254407685
-0.1536147521060488 14.242821252171389 -0.5588241818984749
-0.12411995255089875 14.347102672840741 -0.5593842943392646
-0.1141455675252997 14.446710021131558 -0.5637617006790205
-0.09965632824991577 14.576109225625482 -0.5628532912837758
-0.6940821111913684 12.481287560285107 -0.5619403908396796
-0.7229070196398256 12.52391752296072 -0.5620394521491854
-0.6999901345251343 12.619302804730491 -0.5604683818284193
-0.584480090730634 12.936843509704842 -0.5611673832912354
-0.4997200405717533 13.257950605241609 -0.5485042158849704
-0.4809617072439061 13.274878026794273 -0.5548688912875392
-0.2108045475062551 14.190747335687357 -0.560608873023668
-0.19786002289146232 14.262650615233794 -0.5595253278254602
-0.1840400441472992 14.365227335848486 -0.5640632851672704
-0.17114727818713904 14.46509217412843 -0.5635716390252721
-0.17473849749098713 14.554099018756565 -0.5558047946839588
-0.13752049655706972 14.658193901906916 -0.5607015977886449
-0.09353292531886837 14.746867276634124 -0.5628640517623675
-0.05712967271300595 14.857742040983371 -0.5524297945908794
-0.04249427058661881 14.952091624304497 -0.5418391004864156
-0.042567977566463466 15.07458605088619 -0.5445271656503368
-0.034464173081185434 15.130272714820588 -0.542569277787504
-0.028997859941920834 15.213086537080107 -0.5441829323557894
-0.742538842675706 12.613313980438196 -0.563060467854138
-0.6864013114861374 12.98862988883786 -0.5644091437482526
-0.6057735882322309 13.314952442191828 -0.565238176150715
-0.14306992350343023 14.81595228674969 -0.5651341347678458
-0.139921397499165 14.887142504395534 -0.561490465486407
-0.13332309588966118 14.98817627510203 -0.5570310689992679
-0.10458464660432792 15.096110275641117 -0.5529864811394549
-0.09650776339968103 15.169189948514775 -0.5507796707429584
-0.016583039020808044 15.302051758119061 -0.547463142287542
-0.04464899107039311 15.386527344407453 -0.541489537891453
0.002124888245593981 15.432444364178952 -0.5434523581586921
0.016203803935071814 15.533229234926724 -0.5469156134791944
0.03821238015847106 15.640476433301846 -0.5520809298494196
0.05164032490543036 15.788894765413776 -0.5604874803415885
-0.7580851849121253 13.000348458955534 -0.5589440190766883
-0.6640918427122516 13.305594736279879 -0.5539876430558204
-0.7043951287157935 13.340211264845951 -0.5639932505321477
-0.07015190833043872 15.507087898231111 -0.5407919939158781
-0.05784415348556082 15.611882712498176 -0.5441080610263711
-0.04461035191336915 15.724711669314202 -0.5479375196610168
-0.034859379530287615 15.80491696433956 -0.5456172667685875
-0.011363031119050238 16.01099513926262 -0.5625059266414361
0.03707108646984836 16.194919305812927 -0.5367588083690022
0.09343479508481145 16.213260488809563 -0.5934846322881324
0.0995797000223767 16.371099675524412 -0.5707563262499398
0.12882490226805 16.47157844581929 -0.5979334104221292
-0.9863864390799737 12.64869865893957 -0.5620404572946955
-0.9950060225167541 12.69542340473335 -0.5583191047430291
-0.9280453060220701 12.947846628015709 -0.5623447929921721
-0.9014145345331558 12.993166409195846 -0.5653310227205912
-0.7830802432173213 13.373871402749309 -0.5645945862294268
0.00114560884356385 16.154145176992266 -0.5501581161252007
0.01866319279082118 16.38699893623087 -0.529331200717635
0.03077089023288615 16.477350250993876 -0.5059040880159755
-1.0373673849336855 12.669619242288167 -0.5594261890499259
-1.0217585690465785 12.752538208362 -0.5635598132192856
-0.9757483460627591 12.951217839336007 -0.5605135939431718
-1.0087322368315859 13.070883723966546 -0.5235011513950427
-0.9709761520415595 13.117306163742105 -0.5499817458749001
-0.9472124257894194 13.243473542750792 -0.5584300217686438
-0.9289264658500498 13.313831632084467 -0.5562405993357551
-0.8470283998691708 13.444410591282347 -0.5667800540749721
-0.8607144739668007 13.484485321906872 -0.5700314273589095
-1.0804914802290635 13.07604426610916 -0.5443879007288752
-1.0292063092723753 13.102432563165186 -0.4802395220223719
-0.9133746384661456 13.555242640594647 -0.5679763329111784
-0.9083693207031212 13.650377399194095 -0.566001235022477
-0.9013645612524543 13.716364460486728 -0.5631411388655811
-0.883649330746343 13.943196502076944 -0.5678089226733154
-0.8302939325104758 14.05109621635 -0.5528529333706547
-0.8274643147810499 14.10827815723956 -0.5526283930171523
-2.597216982232875 7.939142302087818 -0.5137524217918112
-2.53497485084684 8.046984659348325 -0.5119827357380757
-2.5237778910640927 8.161552629099553 -0.5102201650592135
-1.1910763939350124 13.081515696250412 -0.5608261819057119
-0.904282399978505 13.967708015154185 -0.5755571798556363
-0.8845999315652779 14.04362670679556 -0.567722620303106
-0.8583892681228259 14.123148050785165 -0.5589750853549462
-1.2390195550952146 13.094852023562064 -0.5631821198563041
-2.5299163272105547 9.014151834582567 -0.46102115977125974
-2.5145007062246716 9.054428803938542 -0.4797741168436051
-1.468015923651902 12.842602583277523 -0.5647840863083207
-1.426317961203154 12.96129121164626 -0.5606829369336019
-1.4335207176087839 13.007412627715047 -0.5594028483242881
-1.4069640239626473 13.168668908613952 -0.48532153587947097
-2.838343213899377 8.263910367575136 -0.42556216507070455
-2.560547927286576 8.985304591890742 -0.48034690880942493
-2.533670138564981 9.064231848402466 -0.5168995210643388
-2.5084563365977544 9.205015730383252 -0.5212368373099792
-2.440927458160397 9.51884391138174 -0.5298013983417971
-2.4193786660047376 9.59879014074101 -0.5079093713955749
-2.4017324805602933 9.6524260865055 -0.4712925801218299
-1.5092984920333226 12.847671617743433 -0.5651995106309295
-1.4812433952506292 12.97267937098575 -0.5645510896770787
-1.4657778171974631 13.0565576921492 -0.5650047769590814
-1.4530980685096333 13.167939304891004 -0.5252314649379144
-1.2257170419341263 14.27861721725947 -0.562618831223781
-1.2366902327801532 14.344644564802602 -0.5333386998757221
-0.7483472320860597 7.1125881952398595 -0.3945393800592389
-0.7451459936035226 7.2103727192077445 -0.4018658172808144
-0.7663269721999508 7.160729954161823 -0.3713960036063203
-0.7251243609365916 7.418009240040758 -0.36029413877090755
-0.7233036980544496 7.462672784946571 -0.37233709802161535
-0.7043357810718022 7.578428682896766 -0.3750179855312006
-0.6873073104376887 7.718333282334701 -0.35784262132400735
-0.6710636344955955 7.850059386302277 -0.3492947303409047
-0.5242945294414104 8.159622929469014 -0.3827975809658299
-0.4973815633469152 8.26261010304296 -0.3801231969278047
-0.4686237135995986 8.326957740082282 -0.38881884685428497
-0.45524445942875175 8.403702615234373 -0.38254928869389565
-0.45517532204569533 8.570499728281426 -0.3678554211931445
-0.43637973433748156 8.650323592269146 -0.3678003758922754
-0.41037394417748296 8.727454335159175 -0.36919124315217294
-0.3715433916088926 8.819243240843694 -0.3728573406745594
-0.3335086259739279 8.930996792224665 -0.37495037207129195
-0.32101056382695325 8.997171506784493 -0.3738453352087575
-0.3058526763792042 9.113632825735351 -0.35743030156758554
-0.6560143972644038 7.971564869472557 -0.34144087263877454
0.11608668152557933 10.8723589924558 -0.36133009287338114
0.14521487630057273 10.955749587313711 -0.36410177939170024
0.1549225242138138 11.071792960578577 -0.3548267737897339
0.1767971947962531 11.164179014823482 -0.35233977738174693
0.200718574330227 11.257007738919805 -0.3549524785872456
0.22264516585808036 11.336105812225368 -0.3528859173813112
0.2516674530440508 11.463889021416774 -0.354617452062442
0.2872506454463586 11.595426172020334 -0.35621572738668783
0.2941062106803637 11.625424898084184 -0.3557426535887731
0.3438094334619829 11.810965159177922 -0.35694659811038726
0.14709603934298587 12.992749487239944 -0.36882141595295
-1.0183759190508077 13.088394369711132 -0.3916846703789279
-1.010672912604501 13.118944750245142 -0.37033665694268453
-0.9736434360965494 13.262192310721113 -0.3718614407125809
-0.96530258506393 13.30081888830298 -0.37428454007263035
-1.0254358713444458 13.095501408949238 -0.44884293208606946
-1.030730445510414 13.113777037638895 -0.43252254513435967
-0.9569051532582847 13.34496895488097 -0.37438576963455356
-0.9583256909434802 13.411576278067999 -0.37673524007381926
-1.1796319774368196 13.111017934880001 -0.3703243490049247
-1.2576512218233544 13.13229572657297 -0.37137919829667965
-2.8439058811385776 7.744404387750599 -0.3859420057169112
-2.8211332135000573 7.829332293967211 -0.37594570762184076
-2.7756883503146734 7.94758141444848 -0.3616284408706127
-2.7459251334581998 8.026184842035386 -0.36912952624303336
-2.731010769099544 8.12379586703889 -0.3740093303362077
-2.721266711175625 8.212191895025612 -0.3721796579287777
-2.5222541230051734 9.027243801467298 -0.3925734074780092
-2.5028219132296208 9.046110906659642 -0.3989339600149283
-2.2932255034934292 9.855893225370187 -0.34903067091326234
-2.281650657002249 9.971692882096761 -0.37137789789021763
-2.241791249767095 10.095721446377699 -0.36567024322610103
-2.2185901906380465 10.163230970008264 -0.36415856402165153
-2.20360783779286 10.259890928647753 -0.3675865872239417
-2.1647623958502376 10.36056063008788 -0.3608636967465147
-2.1395364653073923 10.412436978771908 -0.3523335304673523
-1.9649995234461106 11.133971716172924 -0.3663031262973424
-1.876588659880959 11.454330270192132 -0.3633598348937859
-1.875981433304284 11.467233160862264 -0.3647550301518929
-1.8093812640334432 11.718090568492306 -0.3641921104821187
-1.3962823059514338 13.15584394557233 -0.37387436669719876
-2.8112148303346327 8.233943179596046 -0.41233108816655895
-2.773579454493066 8.341306259930422 -0.39934974191883893
-2.7716901023284577 8.453390056845723 -0.4124834589198195
-2.769308876243811 8.527988121383242 -0.37188406486801323
-2.7055684612347077 8.642990433766364 -0.3400342870344971
-2.6470882178240487 8.858966365718391 -0.33699682355743266
-2.6027904350554287 8.921763387317107 -0.3627418201464132
-2.5626216344625967 8.972096212053156 -0.39526222315017145
-2.4267106923717128 9.634904360271593 -0.4220417789944972
-2.3962838219408638 9.667726228432116 -0.38289118259898164
-2.328151240201045 9.868378923392347 -0.37686493627034995
-2.29378349416114 9.9822212441565 -0.3721868895890121
-2.2617222819510197 10.060531746045413 -0.37087273147146277
-2.2412747949227216 10.166687179798558 -0.3718643157146491
-2.2169166669242664 10.259981999298594 -0.3720430084855047
-2.19238973673136 10.349216222413487 -0.37178448402992137
-2.0085524642330084 11.050836651018837 -0.37425466472067315
-1.9832730919391561 11.124468919140224 -0.3718111783141094
-1.9616165842689208 11.224791218181622 -0.3681725782334544
-1.9263887487329399 11.31947871131314 -0.366126183178902
-1.9048500802035075 11.406060950609476 -0.3685162314249975
-1.8740351364832213 11.51702886970579 -0.3680217066487492
-1.8597906172318763 11.61303433024691 -0.37087036937741025
-1.8200505922893442 11.705580299679998 -0.366826283394717
-1.8034590657437048 11.811483830721862 -0.36956363232675726
-1.7847880695984746 11.901401689219652 -0.3686262427574534
-1.76046035167635 12.001055264304512 -0.37152197987577695
-1.7392621196560005 12.08988046835957 -0.3719786588176652
-1.7083585100876886 12.195589060215978 -0.3665311822942134
-1.6938184072895042 12.291027991233017 -0.37260592698067435
-1.6771832113439522 12.390164371175445 -0.37833615237298174
-1.6507901472117086 12.487727326138966 -0.3801799649275722
-1.6195623016002103 12.575119091381879 -0.37298869678756597
-1.5979000207295453 12.686805116758649 -0.3725476924123475
-1.5776124422692757 12.77674854672404 -0.3727839447811268
-1.5552224582063099 12.877874249115347 -0.3761269240407193
-1.5260257307482923 12.98060186092522 -0.3769910865690417
-1.4957455300304128 13.053455622524112 -0.37630791065666996
-1.4499062207607283 13.156061609155591 -0.41223754086943176
-0.8634025981291132 15.59069509849535 -0.39905755929706865
-2.871892831589167 8.34368421268 -0.41585551229223183
-2.802150872024325 8.457857515183171 -0.3976528721544957
-1.246904950965166 14.44970782122644 -0.45771955006775716
-1.2472891223972242 14.53330096279463 -0.4546131420134553
-1.2180391059786153 14.646854016099663 -0.40778006664579286
-0.8430346096514252 15.714942311346215 -0.4056724555546391
-0.8234694420293478 15.785886678979086 -0.40345930467636304
-0.8235947515813606 15.896327495947174 -0.40236720442197577
-0.79642298930252 15.996385883904683 -0.40440386457386474
-1.2714440236529034 14.569927156757934 -0.4520525574261539
-1.2319717209450538 14.652271942790206 -0.42721955730003586
-0.29112917705493646 9.155180064444426 -0.28728940214842663
-0.2928394013686046 9.183205859793514 -0.2657952941636637
0.08143443364543768 10.849065124952396 -0.29341483091698073
0.1528401162411056 11.094502147768095 -0.34846127175815167
0.1792266719709319 11.197210765057765 -0.3485005785418027
0.2072659286607894 11.295768055780064 -0.35006106910528445
0.22190431048289283 11.373616579564219 -0.34647542595595676
0.24384460170250255 11.446752690340738 -0.34697539621685375
0.27123783008807445 11.548673563313084 -0.3495969091892411
0.29854937425491 11.656934922816548 -0.3502571261649349
0.3259536094922222 11.74781920485733 -0.35118304624235414
0.3463487386867742 11.842966700995332 -0.351089761098264
0.37417524855937 11.953429192538831 -0.35310205412854967
0.3860685599131618 12.000534351633231 -0.35120687436234455
0.4293570537066058 12.17877240010305 -0.3487583284751434
0.4388963419848926 12.23349068253682 -0.3477068930718484
0.460089964220491 12.332851452783162 -0.34782310886516143
0.48428279267163155 12.431034839187827 -0.34816113130893983
0.5100787786157113 12.529613996840515 -0.34853544343660153
0.5252140718093485 12.621151766225386 -0.3462697359988685
0.5009338239132743 12.664207103910256 -0.33022448260112613
0.47317846884157166 12.70721571112667 -0.35110060273993815
0.40101777428028307 12.709305211777709 -0.34299064459188927
0.38032752440450013 12.726044237315485 -0.3469738561578843
0.2792544259885492 12.755900126052207 -0.35221330242307697
0.17562312632824872 12.765717204036337 -0.34810344343567745
0.18426752103298016 12.779298271098288 -0.353011410036939
0.10926110260347377 12.824333458233445 -0.3362745089339162
0.13260421753332285 12.950319346616979 -0.3557443850279531
0.1459951665383381 13.03864491024831 -0.34174842813124523
-1.0147382557794535 13.079392649761747 -0.3116567362035931
-0.9965169292565162 13.142069571268499 -0.3630384666029431
-0.976951197114035 13.242644986502476 -0.3646862355811842
-0.9548147076987266 13.33777956022887 -0.36563219759893256
-1.0733453932365777 13.078473050262058 -0.35915671599477766
-1.011218536827403 13.151687545190423 -0.3661839596096021
-0.9786195568797651 13.257601439781352 -0.36938374412062847
-0.9555773398345606 13.35034129877423 -0.36300664147783085
-0.9489729531006716 13.403649489567865 -0.36374624796370775
-1.1733501027818996 13.102863275924154 -0.3644159786165808
-1.2632549757195073 13.12208667548418 -0.3616288302777846
-2.3205072564854587 9.814230368763273 -0.2936703523914895
-2.2861830234353904 9.84381155026283 -0.2820198603524292
-2.2471252278468383 9.905950847964842 -0.3349153102669231
-1.3491198652858172 13.148396112186184 -0.3620803230182647
-0.9820244108340672 14.767195594934186 -0.3507362566051063
-0.9397919915763199 14.901161900905457 -0.37051553071664767
-0.7028581429502625 15.703596932408157 -0.35140877428012735
-0.6968895393839808 15.781389013018899 -0.33825485535742705
-0.6804892685247816 15.862406250685137 -0.3235009171629985
-2.704420739101054 8.65071173479937 -0.24712166995901835
-2.639109019721668 8.742889358510524 -0.2975711836216517
-2.6346041623384857 8.811613189582692 -0.3159120542109431
-2.607471791792456 8.93138914530361 -0.27430274961636303
-2.398287079837417 9.66363495398061 -0.31190723066084447
-1.7037774932118592 12.136078278482426 -0.3575749485923779
-1.5928707084229077 12.683902638279896 -0.36414458216156154
-1.5642660947248102 12.78315301832019 -0.3653812244745583
-1.4773696132527054 13.061913230951697 -0.36463112571391115
-1.4471459217177263 13.124366018939375 -0.3608977127970401
-1.0198258690650066 14.703542367563916 -0.3583405832764228
-0.9968107121706042 14.778568687637005 -0.3715375466157797
-0.9686058803515742 14.882183295062575 -0.370400989487179
-0.9593235690979525 14.967147957894223 -0.36535960607139306
-0.938849310111939 15.086818008987724 -0.3766915125384536
-0.9280667944288246 15.205716048314425 -0.3763421519171464
-0.9084194877351931 15.313116735551464 -0.37735259859098574
-0.8783712452174959 15.440428590938732 -0.3884144941624545
-0.8743585696804697 15.551854120199518 -0.3909813134033268
-0.7247609073065092 15.77170215006209 -0.3637734698730653
-0.7476648793828394 15.843743854087425 -0.3767810427007009
-1.2248039175139285 14.270067427772219 -0.28854156405909637
-1.2186456109242123 14.643557394246024 -0.37165737709879576
-0.8812602125343776 15.63008215354513 -0.3855718626264944
-0.8411965856924162 15.72178557180837 -0.39071701902212763
-0.8275962817855994 15.771059968144332 -0.3840312871591893
-0.8277477510742303 15.880562414470964 -0.3824488093745949
-0.792581967279006 15.972478788562691 -0.39043538987296045
-1.228815772719157 14.692404503563793 -0.33377556369433886
-1.2345614674486587 14.715804056659218 -0.33258587264715134
-0.4060513487221464 8.765286485061925 -0.13898859331666408
-0.406000654730165 8.857719863906219 -0.1313019736993752
-0.29418030244016463 9.165100705758672 -0.22680362063547638
-0.29198161122170907 9.198434483363293 -0.18683852941595472
-0.4069520372757934 8.87538011026394 -0.1399627473179959
-0.4056993353941395 8.953190456827752 -0.13800839020445763
-0.3992060437468756 9.054109098962241 -0.14542404247868665
-0.37490734259411573 9.126023528495825 -0.1375336850028264
-0.3100696510560146 9.253453053036722 -0.14231013478300897
0.09492102937606639 10.825324292330295 -0.18518651257108024
0.08436071184798921 10.837213346227491 -0.1964209932520256
0.10295844622376982 12.813030831996988 -0.2149824205637033
0.1425322844524365 13.079567351576966 -0.20928994348842067
0.159603568429173 13.105161411876091 -0.23526438804676525
-1.3134949468079802 11.292453141669226 -0.21145387269045335
-1.0145731762222665 13.078027987467129 -0.21540791304925438
-1.0256284954868338 13.091186813079904 -0.20863267868715357
-2.541798501895318 8.996924630546896 -0.17802399828504614
-2.31756555036431 9.813708735302306 -0.1872974583550793
-2.290807761686936 9.842118717717781 -0.1918459726047509
-2.6802241577111023 8.675580859012998 -0.20932604687189915
-2.61013624111867 8.917308806778948 -0.16770930061384845
-2.5552018509995893 8.985166788198972 -0.20399927958531386
-2.3275697202045107 9.811200809960615 -0.16069387276289043
-1.2297874439671497 14.698773250963212 -0.22029974702812233
-1.2331152271140777 14.717745837012787 -0.2463361347261166
-0.4098542255712324 8.773718296377886 -0.10682899332463269
-0.40813802872522453 8.830495748013634 -0.09269143337250932
-0.29825871355957945 9.20843081333205 -0.06325424132468051
-0.4161540014791766 8.882386730230674 -0.04960638271894341
-0.4083663120762718 8.939445315221134 -0.06764062670277367
-0.39429285634867867 9.045750331305825 -0.03921543990385143
-0.366347393371015 9.1323477961889 -0.08605405808428945
-0.3082129691348439 9.260405854466736 -0.0868126418260497
0.08027466492440383 10.840152081485122 -0.0977956504221624
1.2337406472004884 15.638828923599888 -0.13826778741197585
1.2727845860707476 15.724294946384582 -0.11756286988210782
1.403080762042888 16.03679085647606 -0.10356268504326849
1.4361088664588157 16.09681553468299 -0.14799191697574823
0.09601789374515057 12.795721661710855 -0.12203851804817398
0.10242120296084678 12.810371608683363 -0.11497368680143075
0.1628957295902227 13.11213678746662 -0.13380390525470207
-1.2867305665551447 11.269869251179852 -0.09021912347112179
-1.0202357189475904 13.084256482982868 -0.13479277550202756
-1.0275361551215487 13.092714278837153 -0.10491551175860575
-1.0375259536598356 13.108560804710685 -0.08941067784201165
-2.52679465565193 9.010704522696702 -0.05049448002153774
-2.318331160526797 9.815916687655617 -0.10454406824701845
-2.2976706867566854 9.833709721173935 -0.07067843205183671
-2.719188329053034 8.638724697823744 -0.03377996786838727
-2.6575105198174205 8.709883521673609 -0.08419273341956582
-2.61914607596655 8.910613435155337 -0.11177624443508566
-2.5602598286474354 8.97610223736408 -0.08249276268304312
-2.452156205623557 9.611060219887792 -0.05534846772769314
-2.3298446124348713 9.808914340765183 -0.11043647871008927
-1.2479531665791446 14.753106106071984 -0.14195126616450812
-0.29028864258338927 9.14632820826865 0.020004441227477267
-0.29530381104902353 9.221043551552636 0.020724480770356154
-0.30481625235439186 9.263753322302746 0.01000046746637747
0.0861093902530431 10.830343420508441 -0.030595741901974352
0.0781229269960122 10.842282400844619 0.002349023586337727
1.3095110637013103 15.855077495964947 -0.03372057815269526
1.348621938418407 15.936668096800132 -0.03583155846563292
1.3840136725187868 16.00049635719953 -0.0858044295055162
0.09425202479150685 12.797531762477847 0.007901138854845752
0.1011723837580476 12.809696783556927 -0.013330060159699321
0.15747806429705402 13.104134356473706 -0.0396648045774602
-1.2878322584239472 11.273487722443328 -0.019851683295126002
-1.3099489044126393 11.27281378829508 -0.01687413245129761
-1.0210512470876998 13.081911327750852 -0.012860272911029244
-1.0266765879269693 13.095837838768391 -0.04149181363895532
-2.573084920821918 8.819854679100235 0.04503136871340368
-2.52751541378397 8.883994979223674 0.06067217722518693
-2.549853211925866 8.978282073463962 -0.022165941949852136
-2.31748230614036 9.813800294383148 0.005101573255429745
-2.2990768809138684 9.833451612304003 -0.014944298632855839
-2.693842699948427 8.667254651579205 -0.012602956008236993
-2.6365915449110506 8.73499191148606 0.01535677866100224
-2.6027567878845237 8.923732169141477 0.03059242827840833
-2.554378204188626 8.989127425299436 0.017664010353463398
-2.369626072614092 9.694082441690515 0.0010843416322996735
-2.343175173615492 9.792932136715287 0.04763719089023116
-1.2425690398271332 14.74036823117027 -0.035296486129238164
-0.2992661029137035 9.225933479116197 0.12562632506397314
-0.30380762810081585 9.25257300304389 0.07379344075637911
0.0770952073676584 10.841619966997055 0.10428082999154434
1.3423846350862534 15.86734594653765 0.05013802113118543
1.3642283230082894 15.94521068207366 0.055558932665510666
1.3747467906329922 15.978722720981867 0.08486883958991881
0.10432717202872455 12.814097304147804 0.08601528727836946
0.1518316910424976 13.09222464897014 0.0811025083147195
0.1555160592535706 13.100764856482867 0.09101877710029085
-1.0197073712727052 13.081279628591831 0.07940115734933709
-1.027286541321886 13.092224702237939 0.09458283144214802
-1.0285330502740075 13.108110450651516 0.12008613254069418
-2.586102022738813 8.812121870001825 0.10757618242404962
-2.5454309322337068 8.865911426735178 0.14557096582185877
-2.5321948605635374 9.00681235526306 0.08394942081821855
-2.3244196505137564 9.809066277374178 0.10075497007056589
-2.2995150115428604 9.833022317663152 0.12424882013369622
-2.6557849602172485 8.719764445996475 0.12780807119408719
-2.619937496087847 8.778948040468212 0.11120498292584009
-2.599703631303756 8.92812517692846 0.1532168161671687
-2.5570704905713417 8.992194409627878 0.11319404662113815
-2.4727225410433795 9.594300177694018 0.11946659457253513
-2.349738713516598 9.78305983546406 0.08541514678507106
-1.236268221155191 14.669692090259574 0.03444864811441152
-1.2470221840234137 14.74074464984631 0.06505420795181532
-0.28672359983705614 9.167761205947237 0.23227734869345668
-0.289590727748242 9.198395140721818 0.21994532324330907
0.0839732779116541 10.832340119866458 0.17875658373560088
0.07457371452398975 10.844438771915769 0.20370394573222086
1.404452763042815 16.034828474927934 0.14819272558468177
1.431220934361689 16.092401778795082 0.15893042331331547
0.10995144071942553 12.819468942805914 0.1827627215781416
0.1654015732901991 13.117888807757495 0.18019612893101392
-1.0167308955802852 13.076196017048039 0.1682828146465053
-1.0267414071851397 13.094749878800155 0.21398057183880778
-1.0277885351577885 13.105366900146219 0.22450503521701723
-1.1839501114757491 13.11183519138978 0.2012234796143313
-1.2766274853287851 13.133489354648917 0.19642743518605596
-2.612579993583218 8.756310301585343 0.18691576614805466
-2.5792551850758563 8.82230327712466 0.22806546354952126
-2.539412317874123 8.868853768553333 0.20891342600051394
-2.313675535399798 9.816095485965311 0.20085018127535825
-2.292465786235863 9.837817385511299 0.2277374111831037
-2.6029951413856622 8.927633912084307 0.22730317077837658
-2.4589353851444193 9.605154095172518 0.2141248311641879
-1.3138230761262997 14.583775622642863 0.11875600700864622
-1.2440910457526964 14.714226030453693 0.13847544912746124
-1.2667564277949976 14.787974160349796 0.17491753504835852
-1.3287949688321177 14.68133929211946 0.16202680892692337
-1.3044956737439823 14.869753731495532 0.20962471590703496
-0.29910502896589974 9.232126712449784 0.31624578196568826
-0.30263166614429327 9.265450071126939 0.2939096873019959
0.07522115713288824 10.843510538415975 0.26863660983228843
1.3711071165919622 15.95122773702175 0.28058553634578876
1.3933843534239503 16.030118501866678 0.2342111817495085
1.409238947648147 16.075276688281214 0.2031501143527062
0.10518209805127865 12.814776665689 0.28258988887219627
0.16776606358298884 13.116392765705013 0.24483222748203137
-1.0446479474856445 13.095978723050889 0.27638896135463753
-1.038912162047862 13.114756275399888 0.3147640912982667
-1.13965937687033 13.097048574862846 0.27881974319720626
-1.2967867685366503 13.137523724267169 0.278342199713702
-2.5532036037833326 8.850470896616859 0.28936339661452415
-2.5332013618679783 8.883449156742707 0.33099028164711475
-2.5491599891070544 8.989302143067878 0.3119589888083601
-2.3171061233817083 9.817160323482591 0.29660240617743283
-2.2977697806637964 9.839786630737265 0.2765128721380229
-1.325030401928828 13.166284387526131 0.31099165037503484
-2.5959380132872227 8.92963316984114 0.31864927628670353
-2.4417069919433496 9.611112836445963 0.3143694950185924
-2.3439032465834693 9.790350030684221 0.33937813864200056
-1.2432387942919572 14.282596397841285 0.3087549651081889
-1.2405814362904692 14.340470213194292 0.3000409959016664
-1.257922648548607 14.463580648088291 0.2743411757273345
-1.2808692550569876 14.49699937787027 0.25714890005191193
-1.2947855736369691 14.589627675169975 0.26006271187460206
-1.2920223893968015 14.668208145556875 0.2540757523662138
-1.2769299605172337 14.776138208640463 0.2429061413340098
-1.275884176152676 14.84126515344739 0.2327699174068047
-1.3385296453778381 14.651959120842658 0.23583349298483944
-1.3048269129359276 14.804692881260864 0.279684502639998
-1.2894755968327956 14.85421041135832 0.24745108831183601
-0.28487454114806776 9.153102783887203 0.45577662683145687
-0.29231666826076996 9.203445500244332 0.40963221446134185
1.3312654057839706 15.871223774802877 0.34247015574457446
1.3518881634881936 15.916128942912575 0.3558347483633478
0.09506196396856781 12.80082745340412 0.3921972568540452
0.10477011312592555 12.816336482994766 0.36834501280019066
-1.0237517781774566 13.07889584698617 0.3966849222937892
-1.0643076477044682 13.094711673011199 0.3822916038689062
-1.0382450655048445 13.112112221725862 0.3565407092525952
-1.1610106654936856 13.101331778328094 0.37282742892683784
-1.2877763263028081 13.129306834207231 0.35297682594633284
-2.7396732409783677 8.0268287470028 0.47950394761965837
-2.558277404405501 8.842476183021262 0.40695138392676855
-2.5272515610095088 8.896281960026934 0.43221810437940955
-2.340754866197183 9.724810173270985 0.4629760074526306
-2.3237679246225156 9.739988131834343 0.45886378401558753
-2.266620095073994 9.90733566929836 0.43863680807324773
-2.2597209268327765 9.951026148226562 0.4555825717315053
-2.6064188066720666 8.922646545628083 0.42177891331261436
-2.5675976296820515 8.966508331826372 0.4147174188961305
-2.4449053288663123 9.511634612367182 0.4033730159080634
-2.4219386303230523 9.604225956520718 0.4118470295769804
-2.397531587237948 9.66431342102464 0.4395084465633848
-2.343699566119219 9.787954017046237 0.37007134064598396
-1.2388056565430667 14.289302237434281 0.33219908025153105
-1.248666628932213 14.323578661820036 0.3556241365217705
-0.2819639474342899 9.141520423917232 0.48946251816756825
-0.2928076240678152 9.195606408926986 0.5091031530924939
1.3572912145744047 15.960714456248033 0.44085184468259525
1.3808777020559029 16.01998078761462 0.463106217333707
-1.035391117243578 13.100663924746275 0.4379360973802552
-2.8249573464729276 7.952065160434284 0.4982546158816099
-2.7810115577043395 8.042518439522755 0.5090028340019591
-2.7575140121634716 8.130801999408249 0.5358096851551392
-2.6973654291170934 8.217946175456234 0.4996910723233916
-2.564414897152468 8.844308140393906 0.5606111668668008
-2.5197482433688787 8.897857251212773 0.5019433084585854
-2.544189250877767 9.014091496975489 0.5673410875444089
-2.316589305544815 9.743423876579065 0.47244501179648524
-2.267068559014623 9.902791488016348 0.4755669101238107
-2.2536283657722156 9.92010339904012 0.477124195270485
-2.951637046441065 7.62438502844417 0.5137642284097818
-2.89870808148454 7.868459455283974 0.5179337930905379
-2.849179395101158 7.96369845024153 0.5514482450518283
-2.605445879111344 8.810177735354118 0.5741543550303261
-2.6006441114868415 8.924980342026213 0.5291222695752316
-2.556981194157096 8.983592563388996 0.5095708270029844
-2.4229444569731937 9.635120479994397 0.4702297288296522
-1.2720420430171018 14.447510978124715 0.4634247151728725
-1.2884351041215676 14.491562891552842 0.48523533660274637
-1.2870275987753776 14.575680889001678 0.47535723492775545
-1.2919519417819902 14.676755899822846 0.4866525485259302
-1.2710476841401435 14.739405861314918 0.5070896664390223
1.381056115874634 15.97223909404245 0.5059173150507841
1.3936026670427923 16.00297138228239 0.5307613652075355
1.4264422757512425 16.07582800642409 0.5609383199353397
-2.7635059040913825 7.78636872872465 0.6811067248492528
-2.763048396178576 8.133726896402631 0.6303038759780544
-2.7383554733677706 8.1998793120773 0.6556245225656325
-2.5707832700641733 8.83517386548632 0.6158295280892641
-2.540439103948209 8.865699849064983 0.6301920989420777
-2.820309477290993 8.049339614745552 0.6138076366985565
-2.6062674483537256 8.807160793591727 0.5860934740171271
-2.5956658615616472 8.930375166009998 0.6233437013907248
-2.548611366320466 9.007800119889119 0.6621911903672624
-1.2886560786247845 14.76992811779202 0.5453759441807473
-1.2887959313026216 14.816162918571589 0.5393914559735971
-1.2969254671074277 14.856906234181926 0.579404693355638
1.4545872205652612 16.18706177680839 0.6421740203679123
1.4884719528503658 16.26157692058552 0.6675365273950926
-2.902262065021499 7.459925114492182 0.720268821308671
-2.8944453307815237 7.548104904761727 0.7343113638018497
-2.859954182795007 7.6418300421290795 0.727911822884441
-2.8298007048043785 7.734164118492178 0.7396407885640801
-2.7555137162622065 8.14909765321664 0.7309355697947708
-2.7282241328308747 8.21320736956476 0.7246220859183032
-2.572950812643364 8.812072339090474 0.6899104145444672
-2.638274306122024 8.748953719615926 0.7375407671512109
-2.588440432419076 8.942149121184976 0.6929706733027612
-2.5631089402862504 8.987933370669099 0.6829687810865717
-1.2619004203429394 14.723423751926779 0.6492528360969168
-1.2750202094257321 14.766084667625389 0.6681778857718028
-1.2936144303620853 14.817285718217438 0.6139741349862708
1.44655050431283 16.152912715860886 0.7286653289423228
-2.7747503204855537 7.745078769850199 0.844511932899616
-2.7402449129733277 7.814989668036434 0.8443581268095222
-2.948847676986516 7.429248249194875 0.8809082272340973
-2.903764820299871 7.5765660438903915 0.8104150328636681
-2.828984919312966 7.661638229778886 0.823798160561632
-2.8101616229389084 7.725341821088518 0.8033010652633406
-2.781832458739003 7.802178932047521 0.7879616979175708
-2.787394365488855 8.090958737512533 0.8141726783760865
-2.765763125751428 8.126193530144139 0.7848674256014581
-2.6491935865632685 8.723405427147636 0.776201075040954
-1.2737539563346232 14.751540885587078 0.7493088055352564
-1.3136879306340596 14.877061334790795 0.7965499081565515
1.4735128220932219 16.151234920194256 0.8820491393083116
-2.784091615243816 7.691142670674287 0.9023296785267376
-2.9028838410758833 7.494629896996097 0.9409697875026273
-2.876892412356588 7.654882447572599 0.9368316301635458
-2.848123866941655 7.727121442853519 0.9344950315095584
-2.7996227152843973 7.866074475086274 0.9518483979590351
-2.951278077695119 7.5873497443084625 0.9815164023525456
-1.2547964153892615 14.704198959561934 0.8609325651022137
-1.2763857095827467 14.77655158728109 0.8345577035529412
-1.0761742587557925 15.217445723957125 0.8618944495347034
-1.1069457203409505 15.353713514331313 0.8799871183686514
-1.3135163581094882 14.899203972530682 0.8255027664944541
1.4928773870599876 16.20377130720667 0.946455095655081
1.5131809332146 16.25773189857892 0.928177105212366
1.4782006677081339 16.519895269450757 0.9647878384575928
-2.9764375489013633 7.398130234538073 1.0236769776325125
-2.9228792724941384 7.4382029250058705 0.9951763777261764
-2.917412611341756 7.526450642788449 1.0087474037444975
-2.8008329943177204 7.8296567720804315 0.994838441223775
-1.0827808988533896 15.442119390777163 0.9571778377738236
-1.0361079215833298 15.51811863633261 0.9907357214849735
-1.1251903329714836 15.450237287410921 0.9669208800875233
1.4549600719856 16.10481309472084 1.067661651313285
1.4994263729685247 16.232146422464144 1.015240132473623
1.5077581668217843 16.273799472234234 1.0488667998317875
1.4334783395386195 16.057502766031067 1.0431304300378132
1.5121251951153112 16.57487445002617 1.0069185101859075
2.0206986235344195 25.644973420181017 -0.23928794582829094
2.0936957841781525 25.624999371697243 -0.23911912909244798
1.7667679048204437 24.793193132687165 -0.21276291574665224
2.191631166296449 25.603782256880354 -0.23905477285167664
-0.7796706458299304 15.935411623081784 -0.2509913847449335
-0.7920812212017855 15.87125434544641 -0.2445886493583327
-0.8118946670697196 15.803704298541952 -0.23786882301026896
-0.8371358482992806 15.693932462461163 -0.22695329592933533
-0.861746710997122 15.600930165450464 -0.217726974155323
-0.8841872402903037 15.511827701471582 -0.20890287101930438
-0.910739064840247 15.398942496192475 -0.19774225620310587
-0.937130589490313 15.299433594962348 -0.18793633330691223
-0.9613387573427334 15.197792947108397 -0.17793586174589843
-0.9807008086569049 15.132667018962763 -0.17156555414773014
-1.0833434343072068 14.714186358983943 -0.24598695174765145
-1.105717653258088 14.62922722497734 -0.2349491419503117
-1.125795433415406 14.512475230577909 -0.21966769733666125
-1.1759355486936884 14.434445883349325 -0.21020032860058036
-0.5344379554864523 15.915310918748819 -0.24945977963957905
-0.38212654502428633 15.903621395121252 -0.2491755692757171
-0.3903232120442593 15.894051248969749 -0.2481632582774504
-1.5021578250378902 12.949266648102615 -0.2061252743279563
-1.5353166595737981 12.851711451025501 -0.21126557230802084
-1.556534256281429 12.778106972515554 -0.2174313181063391
-0.3440863281848548 15.89339989289879 -0.2484445976243721
-0.30101375466149793 15.854007370489356 -0.2448845268365331
-1.428954061324714 12.966382480614177 -0.20121242637331022
-1.5369947211065589 12.81240334385054 -0.21208382398280418
-1.5574122885693655 12.75141231154825 -0.2021038720656971
-1.5825972133970834 12.66211591934245 -0.21556472833905643
-1.6092706517740423 12.566148352777287 -0.20013261697322202
-1.6374822363588617 12.46939180120104 -0.1861965730562388
-1.6549238568787483 12.392104735581434 -0.17507267940690605
-0.18682300425327036 15.84989968125874 -0.2456219569554674
-0.2421793079902509 15.833277680771216 -0.24337867180028877
-1.3089049493978377 12.942853833167879 -0.2106640562061528
-1.345773294775817 12.94063245872657 -0.21820619517587664
-1.971947925422736 11.166910403139081 -0.1724166872385851
-1.9843329256757642 11.108929454687642 -0.17911124614589147
-1.9985994575708164 11.052458678859654 -0.18657447029497393
-0.1485870556135433 15.854592037245379 -0.2465262687705993
-1.23512804606212 12.922109436730665 -0.21217777583291442
-1.9878601827354825 11.069322638016349 -0.18265439279402992
-2.006582513480599 11.00078020480586 -0.19263243677940586
-2.0313950184601017 10.902959146498942 -0.20733260681977883
-2.0525568485178676 10.836572698713184 -0.21895265054787127
-2.1933317134926167 10.282094301224088 -0.22464872935495306
-2.212066127231785 10.222796352303808 -0.1855473547160457
-0.9869871704757319 13.171029011385 -0.22471811543114112
-0.9987090104749548 13.114432275716904 -0.21178414036828858
-1.1372957540904411 12.888767277350249 -0.21005274278856373
-2.2187985974825857 10.179594741271698 -0.19138980120669127
-2.232972727246808 10.128972432591436 -0.19926356506197151
-2.2580279693190457 10.031403256369604 -0.21431470861887036
-2.280397338272156 9.929701987851585 -0.22976423143926672
-2.302755386634465 9.839820900020136 -0.24400376311516098
-2.328763722864238 9.724037416062675 -0.17346858176097651
-2.3450462063028876 9.643282632681435 -0.18363117304604323
-2.355420748533482 9.584117822047292 -0.19097900473829427
-2.43993805298494 9.454075080863156 -0.2135629614945283
-2.467073815862567 9.355740292357977 -0.22697163449210617
-2.4895099838060393 9.258175907412458 -0.23993443810309223
-2.5010683988658178 9.20359114498951 -0.2471385004093798
3.4033063171945614 24.551538807152752 -0.2160311607000251
-1.0097090298094473 13.06174932833338 -0.19983031761271053
-1.0307000626334235 12.98548610779157 -0.20869042812263655
-1.0557542357163918 12.900030957962434 -0.21934201018629185
-2.5877152563107053 8.861903863616838 -0.17701385426057104
-2.587601474936723 8.763749134305824 -0.18567824427552668
-2.5865177138987647 8.67189165300043 -0.19381164228890335
-2.6041441295740273 8.614020607188097 -0.20020485237331237
-2.617050147972296 8.550726301438374 -0.20678591134097024
-2.6425961812221086 8.455422801568998 -0.21713304444028142
-2.6615903666927023 8.367263107246272 -0.22643969643762674
-2.6932253932782055 8.257224164391374 -0.23859524991633496
-2.709583410762825 8.179384791297474 -0.2468404762858225
-2.9376592019172754 7.278969601262221 -0.175754054365378
-2.9596240385226467 7.186459632817718 -0.18270419900494228
-2.9846915596188834 7.085616590694801 -0.19032667806727852
-3.015941992050508 6.9701232895660015 -0.19916485781256799
-3.0275281666963965 6.908607461264274 -0.20369958496839574
-3.051353571483556 6.801892818989137 -0.21169565631053228
-3.086798417516601 6.67214521103231 -0.2216727549554331
-3.07906689388311 6.645831561686127 -0.22316167568499456
-3.208219955642302 6.344721592344292 -0.24807070357248773
0.1253470871478376 12.926162819776948 -0.2007639650575496
0.11607207011969334 12.8641981589576 -0.20533157894549914
0.09510753759037782 12.785115548328367 -0.21261837011172346
0.06645881255087238 12.672871525055477 -0.19052961002041738
0.07003817354458475 12.60168141917266 -0.17375018372063286
1.2011028406833968 15.425365618659825 -0.23903159448291306
1.2248333252596 15.36966053043063 -0.23482707529512697
0.13506981137349872 12.576247050329105 -0.17746784959662973
1.3020615992994227 15.340841508656595 -0.23526028316002473
0.25659886911895413 12.554231958058011 -0.19233180517548737
0.22914976293441958 12.551282219803102 -0.18705608515098152
0.32578115680050357 12.528589684185967 -0.19910313254768763
0.33050682507218565 12.5139735863348 -0.19694258076452342
0.43211620129824113 12.503774139207582 -0.21409965467985076
0.4830778393446591 12.476270014272812 -0.21880868681638416
0.47774528762242574 12.416312161947921 -0.2064459569190527
0.44769626707111 12.307668799554541 -0.1804614239723797
-0.4690126591027372 9.022368202779319 -0.17395377218134647
-0.49048106112374623 8.939921799889387 -0.18581439235014915
0.15902368456843574 10.341823318311556 -0.17154408418108688
-0.3026060963917536 9.153191502678139 -0.2431502325648071
-0.3491819277638066 9.120226089382259 -0.24790238241097085
-0.3874260189503986 9.034333318842508 -0.17337394612743112
-0.49112512304784106 8.560220052350827 -0.2415306680649142
0.21103172054518982 10.23603168921679 -0.20171572129631418
-0.24984748546979357 9.135601132985645 -0.24789476521314013
-0.4994381958865984 8.506376913582901 -0.24936246894117253
-0.5736144004744135 8.1994912932789 -0.1763331883845989
-0.5956229144818269 8.105834556396676 -0.18669842467296935
-0.619132288114766 8.017291149126612 -0.19650793412398485
-0.644434554359556 7.906064520629279 -0.20886348288943174
-0.6707578389087836 7.807938157578896 -0.21977877730904988
0.09457986973997978 9.741613263326952 -0.22861170236153439
0.07882654266405831 9.68283546164195 -0.23018981425675317
-0.6918314226656256 7.707893971760607 -0.23092506350080116
-0.7137400814388761 7.618890806826091 -0.24085569497432946
-0.9285339844399809 6.695514761910356 -0.17436480590637043
-0.9517873856955099 6.599136325622997 -0.18177556710867196
-0.9749155131675205 6.514758800699238 -0.18828416278514026
-0.9988573891999997 6.424547007902572 -0.19523905482938902
-1.0238046351541066 6.32642620595122 -0.20281049895231917
-1.0502533375962826 6.222525506399618 -0.21082687660860305
-1.0796803818751124 6.0988802930029795 -0.22036979064468692
-1.1088612473004278 5.983331934332894 -0.22929573006820964
-1.1366948319703742 5.885704380509959 -0.23686670623045064
-1.1681834087968177 5.7584813375160655 -0.2467024179829937
0.6896538933982375 20.618182670598948 -0.08378916258662678
0.8207872040600148 20.729876525719696 -0.08775430830825892
0.7387657464186854 20.61499712862505 -0.08394366346883153
0.8984432757952625 20.707913191276198 -0.08750849929114349
0.9764489624772816 20.680863836376442 -0.0871210714909664
-0.7571045359339144 16.012817181392435 -0.09976223213041932
-0.7780878728135482 15.940254461707116 -0.0950496532563131
-0.6790743271296303 16.026360098907105 -0.10076001450073818
-0.718415807433632 16.023767465619017 -0.10052326394348207
-0.7908890349399875 15.885890542601457 -0.09151819589550347
-0.8099294716008761 15.799214136524649 -0.08590414741090718
-0.8355815425304329 15.698112281195653 -0.07936051449777781
-0.86017728587993 15.60385483117944 -0.07327035020024548
-0.5847114163889449 16.027504199062715 -0.10106900688303869
-0.6394622441649495 15.97485055730468 -0.0975055955670383
-0.9883793021039149 15.083926453053898 -0.16675974871846497
-1.0066446879688948 15.019288576291808 -0.16045620011782002
-1.032461642122815 14.922226747434856 -0.15100028533366355
-1.061371884943607 14.818493308334899 -0.14094640891562887
-1.0870526617416805 14.709677295500361 -0.13040282747511125
-1.1093913089162957 14.625207025461592 -0.12227203720315319
-1.1270632391160849 14.52898902647599 -0.11296536249421849
-1.1752281781909364 14.438471263952616 -0.10464956980825757
-0.49219726895920957 15.996146597775093 -0.09936574006481816
-0.392739894833546 15.961082026213152 -0.0975597234304377
-1.5033308399165808 12.941164378190935 -0.11910272852299797
-1.529503024445274 12.863575217114802 -0.1079268599168377
-1.5555963733324312 12.782469077299798 -0.12215043924971722
0.0939720325307073 16.911483160245645 -0.16245463651254083
-0.3021032392857204 15.92163806187261 -0.09552481900032442
-1.435173494082686 12.959307838209066 -0.10834146453972199
-1.5612070853085593 12.737071365065322 -0.13556935475355444
-1.5818308028648185 12.663236166017933 -0.13309098602219838
-1.6077495987042927 12.566282396396588 -0.11881353051671123
-1.632533423588269 12.466535541133513 -0.10809613468105786
-1.6573921197469856 12.366731465648783 -0.116762650225607
-1.6798189572142728 12.271384882976754 -0.13584137709385644
-1.7056379847307261 12.17413582622078 -0.12579322256807293
-1.732977010411609 12.078414095057825 -0.11969495208173903
-1.7589465368202606 11.984333728893233 -0.11938239897477726
-1.7873973757744237 11.894278934617928 -0.12641478400994727
-1.8160930754519966 11.809049829409988 -0.11288739514537541
-0.005469163897425022 16.423234484342405 -0.13013961571916796
-0.04500253136174348 16.25117930675033 -0.11870840527438994
-0.07038074998672617 16.181833134552157 -0.11403135253886804
-0.21581793739263688 15.853084793122619 -0.09168699605704994
-1.3089658584925763 12.942052356039202 -0.12573434730833258
-1.360726481952546 12.943101176265746 -0.10725571453125385
-1.7507381099037924 11.965122162518975 -0.08846116803149745
-1.7789717296166134 11.874331188206858 -0.09835673519414773
-1.8075676342343905 11.78430314645079 -0.10876727591747956
-1.8376675046186994 11.689296145581046 -0.11232734307109907
-1.8540460133462036 11.590293959250447 -0.11129999275179422
-1.8854810213719913 11.49419591314613 -0.11912180295328315
-1.9125665327354693 11.39444140835328 -0.12391377445221857
-1.9298652306631399 11.296141513243267 -0.13055348730294658
-1.9569514262502212 11.20296502599664 -0.13980030931446058
-1.9849585416035676 11.10804945410096 -0.10245394863036078
-2.0073598042289094 11.032071194305027 -0.10926246751635202
-0.10934516485002693 15.985462494994483 -0.10104683069588152
-0.1472856363680844 15.85312353680676 -0.0922117512157089
-1.2222930881408196 12.918081011075044 -0.13435341671928608
-1.9881693636943434 11.066586584250368 -0.11661053877213573
-2.009331102944743 10.998628054974088 -0.10953880390962117
-2.0334875126180303 10.907832634871275 -0.1216871783407838
-2.0562943267773637 10.82903674438666 -0.13473702531733409
-2.2013247280779398 10.2421052652167 -0.10897469987832875
-0.9848879829552399 13.166451069212654 -0.1376204661869616
-0.999789150006162 13.11094933679027 -0.13517857952093232
-1.1420603919752077 12.893272201952568 -0.1315803752296157
-2.202884185834252 10.208778411202779 -0.11213946625428739
-2.2242414110288036 10.1282493980248 -0.12202310262095153
-2.2544580753725914 10.02589656762566 -0.13514733756788702
-2.2757558276342387 9.930213137084909 -0.14685225543790187
-2.3018238125023087 9.831552247286291 -0.11734151520445552
-2.323236696203846 9.749668521082 -0.1047534978193368
