ply
format ascii 1.0
element vertex 846
property float x
property float y
property float z
end_header
0.07907821414884253 16.93678745926324 0.4891551832451758
0.047273774481749686 16.893901854695173 0.4986573741754525
0.027726385027892653 16.71996416280905 0.4943322019850689
0.027572019504786494 16.65687461212451 0.4965900337837921
-0.003130544879845931 16.578809507476223 0.48791516900433046
0.02899920471021361 16.62288980150845 0.4950312549570836
0.010288307290232168 16.554677814484112 0.4808951749031277
-0.0020365962992438535 16.47891260157042 0.4646438509462525
-1.9037011923162912 11.521283142554076 0.48726690037932785
-1.9336960331429238 11.391031915779902 0.4957882032401458
-1.9556777109690118 11.303379461070032 0.5015848710116012
-1.9737378702175978 11.220567430602134 0.5069900690490209
-1.9959734058801772 11.128793788173859 0.5130518610944262
-2.020102537125998 11.030217796645626 0.5195771392246704
-2.0372531773012255 10.943893961565506 0.5251840180765014
-0.47653631950902914 14.805745006916569 0.5045885074544265
-0.5317806409792529 14.753639301483396 0.4933420550906017
-2.0513725682048594 10.881112000487818 0.5293141398496988
-2.075548325454346 10.798836834217827 0.5348881319014595
-2.09445425664206 10.725171148299482 0.5398069528950219
-2.1010433018371346 10.611208309658535 0.5467983314789328
-2.1497069269588978 10.411528904395901 0.5600923220752385
-0.42278658816462883 14.781374039322982 0.495024101151906
-0.45700379348519 14.746738193485811 0.5107699621389474
-1.032550030614526 13.156703720193434 0.4623316613021412
-1.0466454868285153 13.098060726819066 0.46815980434127624
-1.0765173863552095 12.993167282621652 0.47883999107412334
-1.086682312485913 12.937152433047752 0.484272348720719
3.405283142304542 24.515535203951757 0.5460838752723877
3.4326632600382783 24.48970605648699 0.5455092418184562
-0.30720581234965266 14.765041838948848 0.4765068411276055
3.469280881940811 24.492307941772715 0.5461486793748179
-0.2172412457736252 14.721129759615211 0.4684208791049948
-0.1764597504025363 14.669806967099717 0.472472552787878
-0.16053888761743712 14.608483249159825 0.4839688478119504
-0.16822296030041434 14.523491363987212 0.47688688661819983
-2.9609517505028635 7.174228744667669 0.46417174434783914
-3.0147786281911526 6.958676927633986 0.47106467077866454
-3.063430094603159 6.754043587554969 0.47758399423992814
-3.349530894411368 5.902862937943556 0.505521385784662
-3.3733377326242886 5.492615596113378 0.5179101035660862
-3.4574888128845482 5.165250245762559 0.5284155466028377
-3.5295177498745236 4.863411846224556 0.5380555111599928
2.352855910327736 20.11095597391529 0.5536331135396568
2.3217014625867973 19.990077266724626 0.5446916931644833
2.290972207627311 19.87323337615372 0.5359982693689801
2.2696204119041177 19.78055494974159 0.5292326719893861
2.249522326434381 19.69157900446356 0.5227195456386036
2.2264532974370175 19.59734318057323 0.515805848392651
0.1390007243713124 14.234573674621005 0.5221115308699019
0.09569525471665835 14.217860171196303 0.5542022128491374
-3.5937616847182765 4.573702364671547 0.5472620409879294
2.2043476830041233 19.50693700465436 0.5091454144920943
2.170542603527483 19.37370982179873 0.49933259545536396
2.1425847216850706 19.25740879271643 0.49082628920841137
2.130105578341309 19.19523368725474 0.48634493112374055
2.1048986090396893 19.10596628162457 0.4797109625933359
2.0810052786466624 18.988183309624603 0.4712525784003071
0.2983203351961746 14.26163951907972 0.5303460515156303
0.24514661806530424 14.21897163899393 0.5199564882104496
0.1978610034524782 14.151804075617578 0.500577573949465
2.154704529095276 18.968995239375808 0.4725796341588783
1.828857864289705 18.0110138914321 0.5021955147798997
1.2707637174563484 16.66158032694242 0.5303550957447158
1.2756866724645293 16.611933949251746 0.5227919786334677
0.36180354676960147 14.260232525744547 0.5080019358797591
0.30390217121922225 14.233753503476734 0.49143684818108047
2.2558318426780604 18.943671903794176 0.474647898389309
1.827397436651357 17.966530990094036 0.4979693006412122
1.8056514702747564 17.88764866202732 0.48941746123077406
1.7861092493234434 17.795186286850896 0.4797658052659701
1.757258696570598 17.687020539851293 0.5046717233445341
1.7410911410280494 17.616298573726876 0.52765693345156
1.7123763749275762 17.507145920832112 0.5347088620313208
1.688893147830159 17.40108841369266 0.5201317158918924
1.6624130927340854 17.30241345632957 0.5062619740718367
1.650343173097321 17.25659409086743 0.4998609035589892
1.3480351768252803 16.58049770534882 0.5280200599629933
0.4588194786245512 14.253349453966127 0.5072635438146378
2.3090156832805424 18.927356312862997 0.47562399848041975
1.448731964246435 16.543914288105587 0.5108450911000441
1.450348485793523 16.448125602717894 0.5291990462481094
0.5314163683309737 14.19983936846484 0.521188157313987
0.5538736029819522 14.141574105086185 0.4751740658806686
1.4477697407728758 16.41004721721747 0.5038229411954829
1.4232049160318514 16.334739395658477 0.49923172502603747
1.3993298914218226 16.24457559875155 0.49371804991684076
1.371556256491648 16.1359579942493 0.4809063898165405
1.3455680862742825 16.061119957874723 0.4648081293358425
0.5756890356929617 14.082798636736992 0.5007258629441446
0.6035211095537151 13.969271968081708 0.530018919419653
0.6366561442050761 13.959207125142687 0.524318097746179
0.8503423356814694 14.048847848860163 0.5315767705221838
0.8225646967749976 14.00743055373529 0.5229374365842382
0.6895793543935523 13.82830214341299 0.5004802953965835
0.9122359728627198 14.033956850905838 0.523974792432043
0.862022526680354 14.031099936255739 0.4951635628801065
0.8105525817368906 13.874432358217842 0.4916831246736282
0.7924041640107305 13.795508143922339 0.5110830003710234
0.7698840967187602 13.711478607079158 0.5132197178925271
0.7470555503463712 13.615444114187927 0.5076261706865843
1.421623754390696 15.15688921257307 0.46087371887649886
1.3896637121190214 15.058308952754281 0.46351682826530943
1.3661794486522891 14.964247780369355 0.4703191616169743
1.3475157440271832 14.863516666849156 0.48155320665052825
1.2965961858126498 14.78880632110219 0.4836183998325147
1.2697070611910923 14.670031448469038 0.5010541836863367
1.2532057567036237 14.577245480169214 0.5023544982677339
1.2441692590369544 14.495027623091943 0.510227794251229
1.0003035554210673 14.007231666465627 0.5118471501095577
1.261714514898571 14.52246614422761 0.48409785534829464
1.2404473935033762 14.456393313838737 0.5177534761323841
1.2262934819230003 14.374883150876682 0.514081608453857
1.2075412726093722 14.277697159962507 0.5017627477757396
1.184912994604332 14.178940520152446 0.516892316196524
1.147477653038564 14.101827935964177 0.5216475873028128
1.1003295269352493 13.986864818684909 0.5053635961302069
-1.3737694838082826 4.878370535706566 0.5204716704221456
2.1208478533493587 26.196099899734463 0.5949837198828535
2.0492624738500917 26.102940592523055 0.5911626160679869
1.9411260151650123 25.62596812926088 0.5728282203706355
2.210815038545121 26.16380340537769 0.5942944941956442
2.318252053044212 26.13612427296792 0.5939568577539152
-2.4492069498599114 13.62346077902497 0.6422332296440758
-2.326642213860069 13.667550301344408 0.6256762782552151
-2.1826212498189617 13.708580106541291 0.607147841961599
-2.256035028225345 13.686452982137292 0.6166816743273018
0.5960713542839379 20.676064466955275 0.5668531819821873
-2.1008088593709857 13.718102615955402 0.5978084624809883
0.68554653078473 20.65947939998151 0.5657123383424131
0.6211454004713725 20.630401603459802 0.5635468231006924
-2.04047509557322 13.651070285897562 0.5972720510319731
-2.010903373694087 13.614678246329424 0.5974343901253758
0.8188407648753498 20.77422288287072 0.5743759828560804
0.7391354990099758 20.654127068498973 0.5654291133812324
-1.9599524681184164 13.548629946388719 0.5982271460051891
0.9462933855237334 20.75071813392567 0.5732575859305099
0.9002041690353593 20.75278362761153 0.5731588637329864
0.5177676359035868 19.660907821995004 0.6412287923289831
0.4948608583212762 19.587649728379557 0.6333502980937892
0.47969171556152934 19.53009851508179 0.6271451822874743
1.0025178365339167 20.752485757186786 0.5737184530878164
0.9634081278277642 20.73504036251411 0.5721990315013704
0.4647142369492753 19.452646733549745 0.6188289218037787
0.4441625737960758 19.38106639054826 0.6111451760602594
0.41818228112677774 19.273552709699175 0.5996223645164699
0.3936922568342291 19.162893920646045 0.5877763251966915
0.36985553833655227 19.075933019426092 0.5785075862194455
0.34785234592072395 18.969939413773147 0.567196775367713
0.3316011172612775 18.90973473814812 0.5607995068938684
0.2779972064583477 18.700993672004234 0.6541072615899846
0.25523428381376556 18.608127220748177 0.6410831295083455
0.22960488095209575 18.49792773156375 0.6256555235265537
0.20625460148515273 18.401467785137164 0.6122180462925964
0.18050481685597025 18.292824966543233 0.5971347256763632
0.15664976303292638 18.232745630311733 0.589004200619909
0.13825297716297968 18.135089244945476 0.5754648369382663
0.12135551219625423 18.043287485589456 0.5627742923765444
-0.9302355034205267 15.397517387650419 0.5612932745601812
-0.9273340801280172 15.314500074949885 0.5638424172526092
-0.9433022438667433 15.210711006082976 0.5738443464532871
-1.2488160782227316 14.410676410097484 0.5955547278430735
-1.3711847611372288 14.203267414752421 0.6203269064088912
-1.395272943502883 14.111057747171932 0.5944215344029952
0.09691993523972736 17.78736168073057 0.611706650976091
0.039300400088642606 17.714032224809035 0.600723393079838
0.015650288895514675 17.610377944835832 0.5966504980353603
-0.0016207930151542205 17.527750391918882 0.6081501343829746
-0.9145661462005212 15.274219244601738 0.5623239201869533
-0.9408338969859493 15.197364726328429 0.5741139737180602
-0.9628509310035591 15.108153659357868 0.5866328697915432
-0.9902535302837254 15.013603497229074 0.6022306505592152
-1.0228208603623714 14.906247722722194 0.6004534908470305
-1.0407697610006297 14.814761485163238 0.6065801682585378
-1.0628753292719142 14.72706228699399 0.6189352491054161
-1.0890077169834296 14.648069658438578 0.6056744187374192
-1.1435683321243353 14.53180737293113 0.5976897737346889
-1.177809047672867 14.463397388319041 0.5774585132263106
-1.3221917410800827 14.15089737519 0.6397492014048676
-1.367681436598861 14.067594131230306 0.5953880440414115
0.1933512657272668 17.84765548589387 0.6197234378290618
0.1682212494541354 17.77382494067335 0.6072122064368133
0.052394267217082235 17.18981438535571 0.5729628877490953
0.014691542048314743 16.926449340870274 0.5771164000072317
-0.004700680631220311 16.908192172853347 0.5691033465393034
3.4910959057029145 25.862456621145547 0.5949043571024181
0.08710226287267131 16.93198588855038 0.5732034711945182
0.05496605627550594 16.899336572994564 0.5675045674103952
3.636288596818227 25.81965954734723 0.5951537093310763
3.580832566308024 25.832358940354286 0.5949274881714066
-1.9160990326304748 11.488957087773692 0.6524044374280283
-1.9301933505233015 11.417521300534363 0.6594203719783094
3.7065059715591024 25.7978153839735 0.5952922425243067
3.6704025361302834 25.802851653725288 0.5950440896285523
-2.1491905725165363 10.3686844855186 0.5626538834650845
3.6547181168970915 25.516543963401762 0.5847212771968657
3.521561996722388 24.98415412559077 0.5641199655061161
-1.0439934928477075 13.104581762362589 0.5665809096827427
-1.0696275152386934 13.006898717864225 0.5798333873919733
-1.0917466258137785 12.931339427603383 0.590259912828087
-2.1606200464037975 10.300604595119523 0.5670555630671785
-2.1902501207001253 10.194900598900263 0.5742159908498979
-2.2249134262613284 10.078361497087137 0.5821651052404442
-2.2642627455162505 9.926455101050376 0.5923820784090419
-2.270595805720836 9.840755820964556 0.5977371959176643
-2.3736869817465522 9.573628818761186 0.616602760037966
-2.505505406275134 9.24074911738148 0.6402064304680269
-2.5477743950041156 9.095154411245751 0.6501377652026197
2.2059909462218887 20.453585208698364 0.5724855998609131
2.2871238231030975 20.43643120993467 0.5735120061191128
2.3798870397981413 20.419399628929757 0.5749863427772061
2.3853790265107726 20.383569580964583 0.5727700363478753
2.3748496818466776 20.21185358848731 0.5610150440458529
-3.708201961596858 4.140778343951917 0.561196666454665
2.166292350873357 19.36189872600741 0.6487132674279418
2.133130907555247 19.23416661201993 0.6347061743756169
2.1190001159776077 19.168583755103928 0.6276392067362467
2.1012375352224724 19.095902336472797 0.6197432691725913
2.078755266980762 18.981517160871036 0.6075643288953956
0.1963435522244379 14.157446199787138 0.5641669077290093
-3.677182841614723 3.978529302954465 0.5657320864074972
2.1468548551364597 18.966523740701582 0.6095131727869112
1.8241543725474831 18.001278243427496 0.6037412930087458
-3.551058809299275 3.9571974461266333 0.5652101991864377
-3.5958187609547423 3.9580492927567796 0.5656019196209158
2.247106670207234 18.940056465546434 0.6122128266470954
1.824588700622714 17.960465806470193 0.5986996920173904
1.8132452211986818 17.910184129633574 0.5916334468943553
1.7888633459471717 17.808613690723877 0.5772949665608821
1.7628910445189736 17.70341617177676 0.632372971309135
1.7347721068699973 17.592219364574593 0.6361805179882903
1.7120126368964717 17.49793865229259 0.6197046052547418
1.6924794236590839 17.413577723108578 0.6051088524935474
1.6753148927632269 17.32861886939026 0.590737449852011
1.65336093482972 17.26036655476643 0.6177915240639807
-3.485015564709213 3.951371680330622 0.5647941470508425
2.3065159732596423 18.921303660508997 0.6136521160237483
1.4463365299553328 16.55221469438406 0.5645422079579783
0.5639873827334202 14.129564698227455 0.5651878280514562
-3.3796300872637803 3.9264484128021238 0.5646031850686944
0.5771636965974627 14.035987138563117 0.5917476300749381
0.6032761172970453 13.979617919718322 0.6081575215168648
-3.3050734410698563 3.880871265295294 0.5653034133582903
0.63722000255678 13.961743821096793 0.5996707991705343
0.8474248237897422 14.050430793951708 0.5996128265119841
0.8222933352508195 14.01036779223057 0.6089423839102204
0.8106051950520832 13.943701567401753 0.5680269243964058
0.9088505125089328 14.040230188531927 0.6068936665881672
0.8074964664788571 13.875443467425876 0.6169801880935261
0.7903365998263863 13.792524438048725 0.6122471343976753
0.7662713228903488 13.683802311086959 0.6084862727713444
0.7417902604520465 13.595682688771314 0.6116686857031992
1.0105785958232116 14.009794267295284 0.5963922718078817
1.2194059803825672 14.339412609296994 0.5653930699180971
1.2030406021081925 14.275907475033625 0.5782302807910568
1.178554616902593 14.173160188939708 0.6000925642991355
1.1407347843452476 14.082340526051782 0.602043290844326
1.1012792241884652 14.002646781792318 0.6034401827973803
-2.3226765618522536 13.651836247944761 0.7450042841128615
-2.3924757426648484 13.634237950428467 0.7562409761032194
-2.1643471639664433 13.690173594613839 0.7197717711968958
-2.256534453898449 13.66809017667533 0.73441996011858
1.2795083503026587 22.560845251544485 0.7062892317964881
1.2406100867152563 22.54520595324085 0.704857969908406
0.5971862936314758 20.643669052661583 0.7472919407071177
-2.110936541712316 13.6869433766061 0.7129835200522107
-2.090920279196138 13.654132401472651 0.7137862714883682
0.6741967521052938 20.661760944791325 0.7493950232123935
0.6143068622081554 20.633227506122047 0.7462052594198463
-2.0009100987982817 13.59899910952288 0.7080102999758349
0.8381083742669356 20.75691119920221 0.7604001785406393
0.7408027265671051 20.647582837454685 0.7481016099178667
-1.962589865462859 13.569022594620408 0.7064267165016553
0.9285938157854621 20.738853987045594 0.7591249069806973
0.983767951029381 20.73290521598665 0.7589811279764301
0.43924063277291553 19.260922734871187 0.7332689038740131
0.4141124186389507 19.179554426910126 0.7216845935745647
0.3839370707203338 19.08014598361075 0.7075754453777751
0.35466768517672775 18.999598781247677 0.696212670510746
0.3272548044296756 18.906305873850272 0.6830445943718789
0.3018104009871865 18.79828168547251 0.667794105529011
4.2531173828086235 28.893357653508296 0.7122136846881448
0.48462565671344837 19.156837732573088 0.7182394710257258
0.46443280207848736 19.094617681917324 0.7093547944166497
0.45159738103948255 18.98771810496338 0.6940404327138675
0.2529023415256813 18.579655981623226 0.7492946666296849
0.23081306598257811 18.50053719018043 0.7354978377842175
0.20797200276385874 18.39741939517162 0.7174800570695431
0.18492864898108957 18.31370364536589 0.7029878054904571
0.17659883376690244 18.192280136697377 0.6815151023828346
-1.3272886578242187 14.210037842906276 0.7129134012872318
-1.427437252850092 14.09297101820794 0.7067462551821936
-1.4556379589234598 13.997998754583051 0.680948836007073
0.09444011258276985 17.77865974859191 0.695634472625287
0.04020739385430194 17.715980836899707 0.6845060541445669
0.016735726497991765 17.622155727172288 0.7101358508861466
0.00014357582530305502 17.527420082279956 0.7248390813423835
-1.0799411708316227 14.679519595425631 0.6641775569577274
-1.0953287172274218 14.62989110613897 0.6748632552992099
-1.1354845732456738 14.530286142330954 0.6990190789327517
-1.2095110622933758 14.437641908336978 0.6934076680069624
0.19116274570484004 17.879934103162277 0.7140998096029456
0.16248487001034279 17.76359762828473 0.6900483324705335
-1.9430042646526573 11.36278966799136 0.6649002037971831
-1.9564794175691853 11.30616785746446 0.6705824240205406
-1.9793793662537928 11.214921518897118 0.679807988572091
-2.0024621117436534 11.1216341741941 0.6892358228509836
-2.021145730945115 11.03286585522421 0.6980668441649532
-2.0482059497346166 10.928418002112153 0.7087026926014317
-2.0688628269174982 10.853534063281485 0.7163943140395289
-2.086231257486147 10.783682780512272 0.7234855935167006
-2.09842448100438 10.722460029656512 0.7295736085611737
-2.1091094705104365 10.62145241385965 0.7392119028573417
-2.1142361520952266 10.528290198864406 0.7479144467315214
-2.1351422264708715 10.444996418672579 0.7564169303155442
-1.0445467749514505 13.09702285177129 0.6678162914268465
-1.0698115867974058 13.009026945531737 0.683050968764064
-1.0798279134891149 12.933544245237188 0.6951504785503243
-2.5967677313692517 8.93300958377338 0.6612542622991402
-2.5987675206442464 8.83826202898269 0.6670829133850782
-2.5707340771309712 8.776141858874336 0.6701837718673644
-2.6202528127863913 8.56867969766721 0.6841061943118414
-2.654981882581791 8.422567887727272 0.6939169092575549
-2.6935784286273434 8.269488417376852 0.704250439863358
-2.7234757287691105 8.134528670155543 0.7132688556157557
-2.7050701226627396 8.107019734430137 0.7145217721755759
-2.748623155045624 7.932522100349348 0.7263098598738397
-2.7859931035423857 7.766308706616586 0.7374435453727629
-2.8173869890433387 7.610736996671193 0.7477892621927288
-2.861098467591021 7.425777844455325 0.760239968872183
2.2082999563287498 20.45615851082168 0.7594007381316186
2.28238249058103 20.432630708357046 0.7599074006301948
2.3800985290404 20.391280526138253 0.7597662266144719
2.3669521009600736 20.23614842242771 0.7437712116235469
2.329617328309041 20.074307011996808 0.7261320389398291
2.3099161094143024 19.95883198990383 0.7138623133145168
2.2922355095779414 19.873579960089856 0.7046510319145157
2.262497213179806 19.7610125053169 0.6922532555850784
2.2369585035589834 19.659524281931944 0.6811064852567856
2.218587292814209 19.576581790199526 0.6721452751426391
2.1996662603963526 19.493771446128477 0.6631466588165233
2.090618786785865 19.070581132813096 0.757680094373169
2.0839595356705907 18.99085317551367 0.7469576600259883
2.147979916970113 18.96705384870529 0.7480691811104585
1.8271332895044634 18.00573520367414 0.7084564449991164
2.249479958360099 18.943103018034304 0.7519284653271949
1.8219614368374044 17.95474773344913 0.7000507037548527
1.8062722628488561 17.88690546425383 0.6880954418191481
1.7812797856370917 17.78497630166944 0.670055543027608
1.7529870144301838 17.69869100504449 0.7483824564515609
1.733612953183192 17.61483273708297 0.7307518584515778
1.7094901514044727 17.517124117058522 0.7101136640939726
1.6860564956918167 17.417776282299894 0.689345281006467
1.6615259371539624 17.313959953963895 0.7086144828551852
0.7883163071790746 13.776371240708414 0.6715825966857236
0.7663088016470738 13.692876849074853 0.6937698403984608
0.7431792672846801 13.594989340786489 0.7201169969013775
0.7240607099523291 13.520616334309285 0.7157987256142064
3.631362837438613 32.39770287465265 0.8339682827760583
3.7495848530437375 32.364903748065814 0.8336206941807592
3.8344943706704484 32.32980687691651 0.8330129707659109
-2.451645000740423 13.631483458437078 0.7645872569708793
1.5078689010747568 23.422870122050536 0.7703015058227456
1.4627419917873121 23.401576249234417 0.7683932039219643
-2.0740108032159266 13.662096644638536 0.8229876660173859
-2.0993162555406535 13.663779731682345 0.8268562461410105
5.02426404736009 32.05927800397992 0.8345131379551826
0.8024878514188486 20.776629287649328 0.7622996580012514
0.8754822115480055 20.761997723215913 0.7611893818422659
1.0290037343642162 20.807518848130737 0.7674585794848601
0.5450982775143589 19.528365880171883 0.7715226453646695
0.4154779821872647 19.196067678701397 0.8581692134939574
0.397756537605495 19.094446193006803 0.8400388906733668
0.269816060360433 18.670398055671708 0.7652870786539994
0.33071088409906424 18.675438032282827 0.7655004681508327
0.249711807466539 18.565721403789887 0.860032682332313
0.23280350896438734 18.492689468897368 0.8446406204492224
0.208690876713358 18.405208927555023 0.8263410659638055
0.18705475261303883 18.30583684436416 0.8055018640944082
0.17313794810907135 18.241670628092745 0.7920881784256404
-1.313802594252429 14.299854618485007 0.776273141697338
0.0962074679786667 17.784767172840947 0.7837866452276204
0.037019498658967365 17.717524058434876 0.769791002738328
0.19979862616562055 17.849143170056152 0.7960275591687329
0.1740761552189547 17.77954849351881 0.7794284054058583
-1.908588373954704 11.505566953692373 0.8139570770732292
-1.93202668757543 11.402039635685565 0.8278494893365455
-1.9608215304822982 11.28584579632956 0.8436342629403492
-1.9773459452963893 11.1880139656388 0.8564535608737571
-2.151853416534268 10.368618585634838 0.7641164252924822
-1.0451662090781295 13.08921573787922 0.7707926203528971
-1.0654397473792263 12.999073983814078 0.7890862438904864
-2.165938358090009 10.295398954864117 0.7714163299008793
-2.1847528925103195 10.211327022973139 0.7799226076634121
-2.2228528707016584 10.087986754607943 0.7928496623541083
-2.230335448204913 10.02511354074443 0.798945079185876
-2.248278336334882 9.940811148551965 0.8074513454909947
-2.27787650720612 9.831317841513474 0.8187719458449356
-3.053148474031637 6.788570431582221 0.8041192051944985
2.305955041013999 20.43246251560046 0.7608398690250733
2.33993119694419 20.41540051143223 0.7605086875481472
2.0383940663445013 19.15565269450515 0.765541957114387
2.085094876760721 19.141398830120558 0.7665118033788593
2.080233355204215 19.130510894355876 0.7648062021892795
1.817475678782156 17.96598553577796 0.8052107409300431
1.8109860529918578 17.933895039112056 0.798506153327451
1.7959961697905455 17.877385840908012 0.7863141502119821
1.7801862316242831 17.80104786802012 0.770366073933728
1.755145989015969 17.710671381807828 0.8469229850716455
1.732359791296199 17.612003675740446 0.8226176814669189
1.7065364829216052 17.511706097620117 0.7976559860017378
1.6849604009486427 17.41554075659294 0.7742596910106959
-5.223512227560318 -2.3602286401559915 0.7687202298155167
-5.128152315187588 -2.3756661620172146 0.7683701973857996
-5.032324914520871 -2.396967414639125 0.768184976940225
-4.942705159100989 -2.438894195497255 0.7686782527328114
-4.876677375720081 -2.4461193590298542 0.7683602342206669
1.9653831213528805 25.765770478733536 0.9431721760248521
1.7648446924847718 24.855462200899414 0.875767154286614
-2.4371395179466253 13.629275359382243 0.8866106457516872
1.2818100691290792 22.557953804907513 0.9578925974561302
-2.118921790596535 13.646151051218716 0.9478436974628789
0.6894117922661753 20.65317379839568 0.9331425445720513
0.6345236515273492 20.63361716012766 0.9301198802078187
0.8230472370692499 20.77588358597009 0.9515968728885341
0.7442367987888894 20.670864214161323 0.9359847476663795
0.9232870830039009 20.760437113965004 0.9503800242845145
0.9074881491371237 20.753788854337515 0.9492696913877562
0.9962884058620032 20.744475460697604 0.9490181674370339
0.9673503507178206 20.73444677798797 0.9471937708676194
0.5466185134090701 19.521522076481418 0.9163497822938795
0.4974099729624872 19.51686900654358 0.9154721977210639
0.4538871609103963 19.27956213568088 0.872999561738854
0.4280579074015732 19.22765094098469 0.8637649015188079
0.381609830050739 19.03493254695358 0.9594427276903823
0.2713353477741327 18.669842787143367 0.8820668697771373
0.3269816382089893 18.66431808521095 0.8801466589357083
0.25791101840707453 18.61127865023759 0.8696795825607201
0.22437484371673178 18.4801576251769 0.9539269561667684
0.20892595475624348 18.419936581093786 0.9391537821829751
0.18327345359088165 18.30784729355879 0.9116546233476758
-2.0010288417250073 11.092158843542895 0.8695121998815424
-2.024684811261701 11.012347660367428 0.8806489804154295
-2.0350161641771463 10.956902427075033 0.8880058673451618
3.601483550209296 25.57266071151041 0.9571735357786547
-2.0565929942174157 10.880613739921401 0.8986014098634227
-2.0711032587867693 10.816294165443257 0.9073089341237253
-2.088920584928982 10.744870660075527 0.9170962264554657
-2.1187311125456323 10.608073477551873 0.9355973185964164
3.403045092166009 24.719145604187137 0.8938089444952313
-1.0416023975754036 13.087908739027998 0.873882186829312
-1.06167828118986 12.988431154096675 0.8973263654999126
-2.4752732725749462 9.36757763781093 0.8696974489564693
-2.5147688906221375 9.227699041249357 0.8842447567055177
-2.5381294713648708 9.12206413831202 0.8949710250435824
-2.590420752237558 8.953203737047163 0.9127351161154236
3.4298310464907114 24.691684344765477 0.8925287273757155
3.426926743546104 24.518507936921708 0.8806163594654784
-2.583767482710263 8.754176107814526 0.9309822352875841
-2.6253356844382973 8.564519119224844 0.9502984329322887
3.4759359049432175 24.504386382170992 0.88088788104482
2.209343456975999 20.455319446655395 0.9474316887707188
2.2887331636673656 20.433383550928596 0.9485403335996543
-3.375430866230298 5.497840262268003 0.8915895026605155
2.353478089776445 20.421336667322805 0.9503592340949859
2.3544664530435715 20.27329608292994 0.9307686211282669
2.3558917789211296 20.205593956013388 0.9218854101596016
2.239035665742485 20.051712787181884 0.8950518423769777
-3.403580530546742 5.318448032181486 0.9033926198227749
-3.415741822133554 5.177997704196478 0.9124294486040272
2.461412776506575 20.345415131773777 0.9463268732668015
2.389304523684335 20.241235119040294 0.9284945756690575
2.046287990159902 19.154040765545773 0.9102179277103899
1.9994577756473904 19.133376624956284 0.9034034045955288
-3.4956813646017193 4.849931244042317 0.9346529075696434
-3.5621430657341095 4.551126317440621 0.954770861232156
2.0868141562609734 19.13767626816132 0.9106034081595313
2.0898780092139657 19.116528687525445 0.9074016871937997
2.080665172089388 18.98196413212059 0.8848935466899676
2.146547870686757 18.962402810701292 0.8870534010208397
1.8160638790741008 18.00416186933836 0.9188493537512911
2.2492096196067 18.941062688784175 0.8922912220841958
1.802857330381765 17.898718483784116 0.8940211797023232
1.7704288558607 17.7924327250658 0.8666617064027362
-5.903477473370828 -6.329237402700816 0.8935290197222556
2.1256519180346696 26.20249346728571 0.9762300955799545
2.061206010599216 26.156897094528915 0.9722919141295292
2.2185551139937125 26.18858896152609 0.9762766173215283
2.325970318316455 26.158873638186687 0.9754689872621028
-2.4442389628667094 13.62739525024527 1.01384198113201
-2.3447902610791225 13.621547769799802 0.9951075297232507
1.4892487093374482 23.366750155390022 1.0470549076736253
-2.24104516267185 13.635753528194627 0.9728637858105986
0.5549876666630096 19.503555667084537 1.0601388152384381
0.5200555279914998 19.50129386240634 1.059578031055596
0.4555835450430018 19.32693127652883 1.0220191096957647
0.4424489009367212 19.278059901827085 1.0115362430980908
0.43836048450479215 19.20563534087478 0.9959534849130589
0.3992786117136241 19.09682980540219 0.9726716222353922
0.26773473900496153 18.65989464216679 0.9983032846780254
0.25793732845211914 18.635987381731706 0.9924530150048685
0.3230043346028233 18.661385446193094 0.9978422552293027
0.2451333864521729 18.574940518065585 0.9773394356841311
0.23274393072855665 18.51189839342844 0.961735845145457
3.4989952273709446 25.878608638019728 0.9759663359425326
3.5886129913875635 25.847824817973198 0.9758255224478581
-1.8923125914368142 11.552173596854932 0.9705470697846896
-1.9160711497374896 11.481465942835257 0.9831451109007014
-1.931016094603554 11.407897285955961 0.9954422460326725
-1.9541446329271985 11.301651389013404 1.0133654087325379
-1.9844028713910964 11.19743587216174 1.0315958152697555
-2.0003692312246133 11.11589487184991 1.0452540871591371
-2.0190871316700503 11.02700485987395 1.0602708713114704
3.588893182565748 25.65589232260011 0.9625677386308263
-2.1556776040113204 10.388255506112753 0.9647397013084799
-1.0304962181611301 13.11736367291978 0.9701634803482359
-1.0559381817010944 13.019852077780204 0.9974347462347471
-2.179623691240518 10.273661578366042 0.9802432981388146
-2.1946780872960474 10.19694944366777 0.9905804327690408
-2.220150435258527 10.098898231566238 1.0041607381833835
-2.245073534535512 10.000703010032824 1.0177413278085496
-2.2697171199927517 9.902405308588284 1.0313223240384035
-2.269628258910751 9.828590645101286 1.0404769244669312
-2.6671359378182626 8.402413887341353 0.9670680849941646
-2.7061651154570523 8.247837456601927 0.9830297133495239
-2.7224355675015017 8.144262351928427 0.993357997007232
-2.7190342025401235 8.082101426924833 0.9990602660272164
-2.7390268610507764 7.963006248258762 1.0110026273946306
-2.769538182037463 7.81385576861135 1.0261679487617048
-2.8124352545328066 7.631223197935162 1.0449586906545638
2.230034725242909 19.97893355771805 1.0591288588817918
2.2178883500618527 19.903304538609227 1.0457812727462528
2.0309565347996568 19.13401335042296 1.0511583507331301
2.0644817827267046 19.141511606557245 1.0556179096649685
2.0880511043279153 19.11069314312501 1.0517203293956083
2.07889641374973 18.97630221713725 1.0246777072729736
-3.7153139886087727 4.010017501565512 0.9918919793084081
-3.660320480055937 3.975360813031278 0.9929087721291538
2.147105219676882 18.96181440712023 1.0284315927901977
-3.582698905710587 3.9436511184387086 0.993282394123434
2.249241318273505 18.939519408763015 1.0344168764588701
-3.4673129786699155 3.948906859479676 0.9905980673049503
-3.3659094501040436 3.913110812680266 0.9908228751997252
-3.305013235059325 3.894183312803703 0.9908145629963945
-6.7522986446652835 -9.722287366243123 1.002503913813861
-6.670259628457241 -9.751815498924131 1.0027480346090099
-6.579716935781402 -9.77515793541792 1.002695144138703
-6.484496119012097 -9.782818446804413 1.002186815781091
-6.393608645526955 -9.79727563168958 1.0018735644525032
-6.309914228711758 -9.83840194064565 1.0024764918889328
-6.176754410964305 -9.871517359361153 1.0024200190790475
-6.038372108769124 -9.892937612022042 1.0019803515604813
-5.946022969697452 -9.91018212634642 1.0018180082901609
-5.8625219837215 -9.935237244280291 1.0019114356697685
-5.7824336246850585 -9.973520233618153 1.0024867838353038
-5.688113676565477 -9.990308122620299 1.0022611864423627
-5.596506194233993 -10.02042482640002 1.002517273275747
5.170795821913979 38.361065981344126 1.0648443813449855
5.287472560190978 38.33163195102132 1.0646655788106059
6.470640246172929 38.06153251434627 1.066324461231284
6.544939182508414 38.03124246317117 1.0659501031395169
-2.437563137998612 13.63424277431339 1.1391869240952501
-2.3918735906075566 13.628283562830985 1.1296864487025786
0.6785434884490404 20.665255195759777 1.1217390164218197
0.6545279393293596 20.629384003809875 1.1151868037605268
0.8140815121144735 20.75135290762561 1.138268628305378
0.745835757821826 20.663092706798906 1.1218310914093392
0.894469797429267 20.722201309020296 1.134040988664079
1.0062843577074203 20.732237720622212 1.1375666532934228
0.9673663024374908 20.714417267948335 1.1337452823482201
0.5363841195335222 19.513031824686912 1.0621362882990273
0.4440747989407052 19.283796664481574 1.1538569442980804
0.4399769712110273 19.210673468005663 1.1354323997963667
0.4009214398044841 19.090478303858355 1.1052790515563515
0.38339104151265413 19.023273431352656 1.0884405103854133
-1.9043781800996737 11.504862434516106 1.1455370656555024
-2.046634593407646 10.921750878247886 1.0785065615102711
-2.0782831497109253 10.807654956821665 1.09843834617801
-2.1015933792642296 10.706046893894893 1.115829610762316
-2.1092562745674326 10.589677033878942 1.1343094215724767
-2.5058794838056033 9.252928537151936 1.1253362689865072
-2.534981948654405 9.135137112330924 1.1416288762115328
-2.852156317266251 7.455960210360891 1.06294214627388
-2.9893184915426194 7.039085743405575 1.1073008695566615
2.2014048707599296 20.45577637082958 1.1369826280998927
-3.0557420106536815 6.791136143798182 1.1331387711428396
2.3112439679985135 20.439067353552986 1.1411486972647482
2.2749339430550486 20.43435039344859 1.1380182241761063
2.3520471518797876 20.41412066773168 1.139673374477737
2.3307581590440947 20.14013137718336 1.0927645396387444
2.4598575026226333 20.31497764164526 1.1307269887203966
2.406885021175946 20.281374681125378 1.121436234378275
2.366110683353746 20.134282866590056 1.0942812882676862
2.0551425913242123 18.954597547547454 1.1601087546668742
1.765882911666192 24.839256119717106 1.2082144633907643
1.2725768799685373 22.56274326168558 1.2121235275813662
1.2233370889732453 22.562993849425766 1.2114321129796388
0.5569414955957489 19.515169596647677 1.2123014518415118
0.5239185253653029 19.500909778668202 1.208614550873905
0.4571880942952829 19.316756463806335 1.1621248342708665
4.232363382963636 28.89311193850942 1.2009259990989507
4.275862840569247 28.872480712251036 1.2003571113799232
-1.921885424739778 11.411398613447762 1.164272901894078
-1.94789913142362 11.316689909098567 1.1841336909264266
-1.9762099011489482 11.198661756811092 1.2085115108693483
-1.9975937224607243 11.107290372528155 1.227358462491606
-2.026326584528636 11.00004295557174 1.2498751906870884
3.3992210476643225 24.698683187540965 1.2338973800880302
-2.169453220277713 10.299145566766276 1.1837583876501572
-2.183552464009437 10.22460460748308 1.1963778223533106
-2.218525736341481 10.107649255345258 1.2171393540519981
-2.238041769195041 10.020561966046866 1.232133954417618
-2.267694380100432 9.912135119534282 1.2512003379198744
-2.5753342424733257 8.99211476388478 1.161707975769984
3.4200772008506193 24.543505398662077 1.2187597291144863
-2.6110441021514026 8.855715121658498 1.1807080537088823
-2.590253342198555 8.809110247000769 1.1854119885944163
-2.5846151589751485 8.695646496290601 1.1993456955702784
3.4756840246818586 24.495862356689948 1.2159368814248204
-2.5994204344028815 8.563428445242156 1.2167631264787715
-2.6933723625777586 8.284333082958856 1.2568665150809684
-3.307486442525222 5.836714838072675 1.2325507330742733
2.2173890690350464 19.99002713539906 1.2367669814211912
2.245774995403834 19.926187914912404 1.226352846269913
2.2626171941352373 19.92361931206885 1.2272655003281916
2.2320988993373843 19.805134969842488 1.2011581853577438
2.0439983722888235 19.270726097817594 1.231634737503211
2.0349536166516833 19.141127574289772 1.2007653140484704
2.064522453168591 19.139585361812145 1.2034790050529036
2.08894722453325 19.127324248980425 1.2032357681432924
2.085335159047368 18.972685363658922 1.1675359585960325
2.1495057944371507 18.965087579646188 1.1730162557706747
2.2435382765225707 18.94189195672591 1.1787844797514666
2.2985033856847625 18.929147066995593 1.182596815571475
2.0690647649375267 26.183662794677495 1.3562556804308061
2.148489793012945 26.201577045929625 1.3594475972022995
2.2205464158942676 26.17847525310543 1.3581888346814006
1.8715473654361734 25.344458685129915 1.2637320995066377
2.3292491077443036 26.15660568350015 1.3578440815562909
0.6753995506734309 20.647056160594076 1.3070571093177004
0.8078539557416242 20.75981337881607 1.332664629624242
0.7287895157422457 20.643172648722743 1.306669832741476
0.9179346702178454 20.75919723841114 1.3342019230298603
0.9062898915530679 20.74988941983408 1.3320137808482868
0.9807537244071962 20.735598761405697 1.3303243805147753
3.53811391317012 25.866762148027412 1.358335195673846
3.481417424404505 25.87510934669962 1.3573619181973067
3.6100292731811803 25.843012125159007 1.3582188775156725
-1.8858843374429717 11.570740108420228 1.298613148447432
-1.8924120072436104 11.513610709086176 1.3115474069775295
-1.9311351075539704 11.383170538495143 1.344012387532469
-1.9415821722399023 11.315161193343629 1.3598047988307
-2.049259105989985 10.90315828012991 1.2699456976311934
3.6842196421326507 25.828539919848602 1.3592441011342224
-2.0681045105890714 10.811997716981164 1.2885909802888922
-2.107136158284972 10.680695501479317 1.3166142970317052
-2.099551590444133 10.61322346623465 1.3284360394954313
-2.12677491960207 10.476529350363128 1.3564315855530766
-2.2705430551703056 9.832463322479255 1.263854174455184
-2.722217886163588 8.15210780922455 1.2750589035534894
-2.7282383002682784 8.06835105129808 1.2859488734664317
-2.7526670537272313 7.938744597055955 1.3036047580359238
-2.7522943555673183 7.785238674064852 1.3230463608329612
2.167511386995413 20.522056085803342 1.3402525581611306
2.1998256681000257 20.447465815415395 1.327464696100736
-2.731159772833438 7.680743971177138 1.3352676577128189
2.281149178959005 20.431998795900334 1.3304783715115744
2.348658303729155 20.427655149533507 1.3348714573564109
2.3603169250541263 20.406400249641692 1.3315278276070517
2.2906108835284584 20.129296802863138 1.2705145972402716
-3.4151240799275673 5.19075395054702 1.2977501504328626
2.4200788168746206 20.216147058203262 1.2986179929466077
2.0825880948494366 19.419529265894163 1.2700087603121843
-3.4193759575834566 5.066974018329066 1.3097034226906796
7.1980036624898345 46.829924959346485 1.391789709626386
7.3004730446411 46.78723955915592 1.390964274999879
8.493653731284718 46.51886542657843 1.3928230042206682
8.603558650628559 46.49638022058154 1.3930390207036774
3.63830309441084 32.403327916190335 1.4381945143131152
3.75813828814654 32.379334934126994 1.4381506244683304
3.846805606305186 32.362815549133984 1.4382907581406672
2.113171678708439 26.221167364604444 1.3609082586025352
5.033582802492618 32.07411010058925 1.4389130979181055
-1.9491375803266844 11.267973974372415 1.3708097150312093
-1.974533221918977 11.188590364295184 1.3908492644267323
-1.9979877380211488 11.09257393130341 1.4142562176784843
-2.0169706542629644 11.003107327449598 1.4357615143584228
-2.0315100409616167 10.940187559516367 1.4510475910306164
-2.1199385735070293 10.446629026832824 1.3613911334630369
-2.1295227045831853 10.383373603458955 1.3740993319697814
-2.156899706778286 10.283166903728956 1.3953724781601622
-2.213810264257994 10.075283534421056 1.4395519114823012
-2.5009845708026583 9.269724237046795 1.368475119914885
-2.539053037136354 9.132889337731722 1.3926411598234643
-2.60078311618736 8.944153377490128 1.426649261259408
-2.5807440194152123 8.867547454691199 1.4373131407081354
-3.716692324628827 4.018709278304778 1.4198279989135798
-3.670367213000124 3.9597017323131958 1.4239512054993582
-3.5873520800667418 3.9429649778661666 1.4228525620527566
-3.476473480514768 3.9348747984759402 1.420095579523346
-3.3736471584286645 3.902769361471865 1.4199758219645853
-3.3083479606892925 3.8970322753648006 1.4185219216428928
-5.224242662405719 -2.342392190130326 1.4224205854861065
-5.127965780785881 -2.3550366988854385 1.421384899832816
-5.040537870931973 -2.403028144347399 1.4227691271458045
-4.941622032813572 -2.4144174260426396 1.4216385235676348
-4.877357798227155 -2.4274026314394668 1.4212985583792601
-1.6884553578558057 3.5839492835919025 1.4092011844585424
-1.7486760502675036 3.489718747981776 1.4197112213425827
1.7388460291659418 24.855788805942183 1.5461842225766607
1.2956693526535246 22.962260160464325 1.540042077570802
1.2462791916418434 22.747880919040945 1.5009737966352148
0.6779361798256245 20.656409984518127 1.5008918354456624
0.819206537220377 20.764332682589483 1.5298377716556906
0.7306904127992362 20.63960509995014 1.4971987746104982
0.9556889418201395 20.743433352601542 1.5272175372585408
0.900470523011802 20.74482616381693 1.5263930812964328
0.9814191817556461 20.722385574384052 1.522529697750659
-1.8977483561513084 11.508636236616749 1.4852457766225222
-1.9179376459433661 11.41000635808508 1.5122567588103908
-1.9416892792587235 11.319224168521618 1.5378780896331117
-1.9586014967068337 11.255682451541816 1.5558653678763843
-2.051225796136429 10.866838890257725 1.4691897044026943
-2.073210976738855 10.788207099932391 1.4887591488951093
-2.091772820526578 10.714372587676012 1.5069037170294908
-2.1114205067371157 10.636837430490145 1.5260010849221355
-2.128776553465697 10.562514375870805 1.544148502540271
-2.2433202451886327 9.96759404948413 1.4624582958200778
-2.2714598071485392 9.8615373579991 1.4849568818318626
-2.378927211400681 9.587265579573483 1.546210354177051
3.4228821909290774 24.544468146152425 1.558212896293814
3.4434969994794553 24.49806569092536 1.5528489143286395
-2.59426715045416 8.713461133381237 1.462573164681605
-2.6111795168248038 8.610857062419713 1.4799567120045598
3.474194883174765 24.483679330904227 1.5523936279031467
-2.6438466339483844 8.470116016649547 1.5044718795615197
-2.679912422483485 8.322309121693571 1.5303421605525416
-2.7250898879676737 8.15282052209083 1.5602866187187996
2.1635301886671083 20.506124901868162 1.5332227770956788
2.201966427016029 20.44974788804045 1.5230795424200654
-3.0643943929590622 6.778735167244042 1.4665986292889197
-3.1141950341351627 6.568105343943255 1.4958998099596068
-3.1641080245253534 6.353330184523987 1.5257416394811956
2.282083038461325 20.43079755086684 1.5256501286927517
-3.2212322328401766 6.115999560252813 1.558835575297554
2.3862500930081008 20.418665677425253 1.532374536578513
2.3790594594063355 20.400562208002246 1.5274697806749542
2.3763507404007087 20.247338162607342 1.4913922530103825
8.743165508068849 52.77267225641273 1.6223003246210557
1.8954164996840044 25.48492446245158 1.6385113110990237
1.3998313381573666 23.390152215307758 1.6182414575162811
1.3468120827972625 23.17637428864434 1.5791766121393849
-1.971285336419947 11.198705830382874 1.5716811279246776
-1.9887923610676927 11.113587746403741 1.5951367931446412
-2.0176882955259727 11.006308672875372 1.6256543051506411
-2.035671941699602 10.937145738308434 1.6452738242999452
-2.156371498742395 10.467363876982466 1.5680056493584769
-2.1938769144028107 10.329297820529968 1.6023675544704088
-2.222012490690547 10.206229824382692 1.6324492154473658
-2.2379533536741505 10.127259124760236 1.6515542189577437
-2.397315093791699 9.494072716253783 1.565453131820867
-2.425699220818847 9.379661475863333 1.5895906986345416
3.397016737806132 24.57368867271248 1.5609423348196692
-2.4562746952370214 9.259925054482945 1.6149512004783677
-2.4849761666814985 9.141515413269044 1.639906505760072
-2.761397135564774 7.998870984770956 1.5871783791371898
-2.7961459850494426 7.844404990456013 1.6140738030044943
-2.8420361394744695 7.6583372883137155 1.6467443370083747
-3.2862681403615195 5.852053483912112 1.5957204385812094
-3.364138554569564 5.548635272802716 1.638294345689292
2.1351423734659702 26.21464055440861 1.7468835486353138
2.073110631792844 26.18514891685392 1.7413960923078933
2.2251537827726033 26.184417639764483 1.7446381235604462
2.334596035355792 26.165748483211456 1.7446514721852755
1.5852176649551648 24.162594195047653 1.7595468592004695
1.5190546719584777 23.885252379334922 1.7087770895613628
1.4572303335928347 23.62713269726435 1.6616074204462972
4.240896359111721 28.909148206972585 1.6942645984495472
4.28388650672437 28.886604696098864 1.6932031133013525
3.506401888162611 25.882310377294804 1.7442871411504692
3.5364771042185086 25.850736544848516 1.7412759044503094
3.595650086021981 25.850536862619137 1.743760252710694
3.6717649969904267 25.841696133449005 1.7458812267915054
3.711628222131698 25.78669404389219 1.7401453887483473
-2.052323275400886 10.86946249118041 1.66435158507159
-2.0703375479321893 10.798261341383313 1.6845155637020441
-2.0868538222319013 10.728460366994149 1.7041384144507452
-2.107136678954345 10.649881064398176 1.7264791949600962
-2.1322986947488607 10.560849280624144 1.7520810758551681
3.582381400873472 25.26275040843028 1.6630774672892865
-2.2640017490821327 10.027313217764208 1.6763707366582081
-2.288747647569942 9.929025729359248 1.7007114008853947
-2.3165055649708592 9.823594970268504 1.7269564831009048
-2.3344832739833112 9.737297070102997 1.7479654804317806
-2.519946558926277 9.006732314458844 1.6685357722060288
-2.54512695425162 8.89120474702425 1.6926780363308287
-2.5783484980659677 8.755814977494811 1.7213097462566782
-2.6183504732966156 8.602059548990656 1.7540246489194433
-2.8868222581502145 7.469834642121416 1.6797586940069156
-2.9387209967130534 7.263015659501278 1.7161670481474784
-2.990437826090695 7.054159022988776 1.752916877977143
-3.4449070778800146 5.231567133042745 1.6827636312549707
-3.5122904637364494 4.943517361655573 1.7229056734602313
-5.951414574983356 -6.321892290489952 1.688529007972657
-5.871617188613515 -6.338929872426643 1.6881948106486666
9.72200016910705 56.51445227304235 1.7673384630241153
9.861069146361398 56.47870821301157 1.767492025027425
10.002391329859655 56.43780574245352 1.7671201776950718
10.144746582664501 56.40027326176563 1.7672827914738765
10.292115552560734 56.36919106469536 1.7673743624075073
10.438320656470514 56.33787394970635 1.767854402796388
3.1373738585752156 37.37977369197264 1.7899562542986585
10.581250702551147 56.31914748974546 1.7684143524079485
10.719561944566207 56.280486684494676 1.7686063569712853
10.860031884507935 56.23663391717541 1.7682794299098137
1.6583401858445432 24.476606394938493 1.8169351738530268
1.3000458228762195 22.976509660699044 1.8172895623949028
1.251990227052972 22.77529957986386 1.7731449039433036
-2.1515015898880745 10.48185804816359 1.7744241725696357
-2.1710965397033326 10.40093008152539 1.7973119046406778
-2.191882736286456 10.316409995502692 1.8212868473376302
-2.2137019199156787 10.22812394700018 1.8463502485803371
-2.3649383467196357 9.622541046868168 1.7765932615958
-2.394862809882503 9.505516365557748 1.8056999531818525
-2.42200681294427 9.393669789203635 1.8333778917156236
-2.6538126837340372 8.455010703672619 1.7851091215801151
-2.686169567050356 8.315200201777031 1.8145596191877293
-2.7223427651083054 8.166523507870496 1.8460498834554384
-3.0375510743984386 6.854144877869727 1.7879678107978054
-3.094567370123517 6.626405139228041 1.8281155118520234
-3.5819249701993474 4.641597738249338 1.7649437350356438
-3.660072717762338 4.3092180994481435 1.8113190150699754
-3.7258071514166673 4.006166531974243 1.8533497932809349
-3.672293774435772 3.966839814173891 1.85601722299339
-3.5876510175148484 3.9546994037114516 1.853825709397196
-3.4804003470008253 3.9365196117788095 1.8515191607216313
-3.373812868150089 3.915302249116934 1.8497396150250391
-3.314380483250445 3.8915920537286883 1.850339452654638
-1.5996688184277832 4.09536085745926 1.7658711125592903
-1.81323041210887 3.5098183338260114 1.8499842825236514
5.139544215950194 38.37361610648712 1.8842399764562265
5.298917147549548 38.350622411846544 1.8850441780482068
5.221002891796783 38.36699826592741 1.8851073365212145
5.374579540439872 38.324279803875896 1.8844715184350433
5.454477058220982 38.3171232488666 1.8851406647209514
5.568130529611941 38.27863328227889 1.8843367346274382
