ply
format ascii 1.0
element vertex 825
property float x
property float y
property float z
end_header
-0.637918619220884 3.4772286982514826 0.1448919379203377
-0.7626788209122423 3.408014839162263 0.14649792290897826
-0.7208318940000813 3.3583852167952646 0.14756627330178806
-1.0758284456024612 2.5568839630539317 0.16487209092750754
-1.0607393099715494 2.5220098003214466 0.16566412137312847
-1.1285427099822098 2.4227804210010726 0.16765776818493217
-1.1467410840657868 2.3039722657835506 0.17018285671704797
-1.1725002437690069 2.218137068567592 0.1719533485265925
-1.2022659620213818 2.1136443106494522 0.17408933406278793
-1.2511256736825218 2.0296792698206896 0.17566265878841075
-2.128748970952596 -0.16402138324043336 0.1884203404254439
-2.1872856537531344 -0.3219526337243426 0.150233790018305
-2.209416779010051 -0.383857624762012 0.1806686333002448
-2.2416072522872437 -0.4842402452032484 0.1851890407675535
-2.262323619681483 -0.575772560430317 0.18431809353122652
-2.2888495540537868 -0.6733641382564148 0.1832916977992076
-2.316794777221916 -0.7698016646942603 0.18222143753823114
-2.343042469107093 -0.8673115822970323 0.1811311406501167
-2.358945222202161 -0.926060906061307 0.1804630906549324
-2.3887011425364326 -1.0590527559619993 0.17897082017103677
-0.672120825007442 3.3493672449276835 0.1477260182098826
-0.91772472870688 2.5011477126139408 0.16634074444646751
-0.9537701705733905 2.500702240326714 0.16631475788054895
-2.2896254017589333 -1.0138653168627778 0.18040538783664214
-2.4929397484644813 -1.4556225151335218 0.1741354421531099
-2.512614108376579 -1.551169868796533 0.172981961797
-2.54135726814672 -1.6545503050945933 0.17164967547427673
-2.563750014023814 -1.7470351567450886 0.17047665653131241
-2.5925052227469765 -1.8528281515911196 0.1690971571083983
-2.6082615310397874 -1.9359149267910312 0.1680595559253688
-2.6340899236354827 -2.027088991996278 0.16684862584765625
-0.8682503517150634 2.490556476258482 0.16660372450088018
-0.8863919656547049 2.481812824186614 0.1667889705552075
-2.6436884011388426 -2.0772891329362864 0.1662079957983227
-2.662745663154374 -2.144229724841267 0.16531511232172508
-2.6849408860965336 -2.2377699005321103 0.16408486913712705
-2.710488304491685 -2.3390625539756806 0.1627401815696375
-2.73657892602138 -2.434480817430699 0.16144914163250051
-2.760251010227849 -2.5295315883151916 0.16017383642844146
-2.780627846653752 -2.6239780324233246 0.15892809444643108
-2.8052890987868007 -2.7263928739112853 0.15755265846029737
-1.8291085561009615 -0.45447533386848504 0.18065408174980413
-2.779343223010934 -2.766606219228742 0.1572429505254709
-2.7846200411511006 -2.7929205633318865 0.15688627100243124
-1.7299312739708763 -0.4644025492224837 0.1716809565591033
-1.74318308095018 -0.5193454449605752 0.19052436963709785
-2.6072778337728826 -2.797766224823026 0.15798586006075618
-1.7051854079386808 -0.46573282266301463 0.14632060808047137
-2.5543592422091406 -2.8228600714475967 0.1580063606434618
-1.8142569368940082 -1.212728795097316 0.1821210334544645
-1.8162071522240062 -1.2671053293866077 0.18145870900424976
-2.4778769006378183 -2.8436353719933596 0.1582004330553901
-2.3773602339650237 -2.8728638852662405 0.15838568159857197
-1.9284337515065748 -2.000852366081813 0.1717178421171717
-2.076748758280065 -2.4618175077107356 0.16510981278081333
-2.229903290200346 -2.9032481278469 0.1587266165365015
-2.1466832321543152 -2.9219725626996986 0.15885082972518397
-2.172353192280063 -2.9228661210351587 0.15872709398205145
-2.060693435235409 -2.942415515848335 0.15892735846864425
-2.0723132378282267 -2.95331706045417 0.1587440161150015
-1.9632932330143973 -2.968560210501246 0.15893236711528697
0.7500931390137119 3.7908951868656064 0.1312446208461331
0.7600716465976677 3.768125795362444 0.13160940183516004
-1.8696838945258405 -2.9862678216224063 0.15899053944048439
0.7925391881207023 3.7764164684451353 0.13116808813830472
-1.7788266216342192 -3.012610459877089 0.1588811005637448
0.9377395565427545 3.6758037789259257 0.1318079939868329
0.882497864562778 3.6036773208917596 0.1337217826126152
-1.6823427367598323 -3.0438847257522106 0.15867272021348605
0.9510837035108325 3.6481691309432858 0.13221139858955822
-1.5855889238592997 -3.075408992851667 0.1584126018656149
0.08033442413692127 1.0994114288895367 0.14798625823902944
-1.4896512228696857 -3.1143633352613334 0.15799918267684154
0.26011805171704727 1.195991171668219 0.13670977820545255
0.2738870785522415 1.1576521464736396 0.13721831862178813
-0.5562700917059464 -1.0175087360868362 0.13200902416617288
-1.3900253069159187 -3.1396667023724145 0.157730005932038
0.3017843358506792 1.0944986476336152 0.1376739373719948
0.3219135416013722 1.0177080438630899 0.13864405551121256
-0.5238815039112813 -1.0263570904454091 0.1311812334699438
-1.2974701125322856 -3.170723852568207 0.15733041449353202
0.3433555356428405 0.9637345498904804 0.13882334642278
0.3572267229730516 0.8981922258000128 0.13945086094699993
-0.40481737347287394 -1.2009428882361892 0.18295572554214787
-0.6795504668443877 -1.9677042777904596 0.17352361438815697
-0.7052394119798319 -1.977442456912372 0.17346114680268132
-1.1692210026353655 -3.1776423690030704 0.1572154935158637
-1.2215195522880942 -3.184616438050292 0.15713276685895147
0.4447397273018131 0.8452878427814102 0.1358643236376198
0.4153335100708516 0.7493711365752304 0.13881379981922937
0.12293765824673808 -0.1313604085182012 0.1893704243989643
0.10437970374049221 -0.16469634805 0.14836338148945258
-0.1388446445550443 -0.741707123347916 0.15703487930453042
-0.37375595904372805 -1.2318434035699173 0.1823367873661465
-0.3306383038289642 -1.325638111737071 0.18078659079912135
-0.6186444133436584 -2.066980519737047 0.17191976664368747
-0.6442253656463661 -2.141451319002398 0.1709572668114333
-1.0931053435702167 -3.1944886972421953 0.15692676911666803
0.8285797463807004 1.5479443916920594 0.1689151286539639
0.5158497591605516 0.811590264712474 0.13888770958557853
0.507360132937326 0.7242849705525382 0.20151358712605394
0.40689594000192664 0.39040279301486464 0.21220117277759865
0.3906640853334612 0.3316362084035161 0.20282368131568126
0.35401030997790117 0.24936643039337197 0.1767046861413895
0.3171977970555483 0.1996457812204897 0.14484290478215694
0.13666599502631016 -0.14444270949463112 0.18906500721265385
0.12172315964905278 -0.21084649807302247 0.17241503909267697
0.10297951180534515 -0.29839116566963564 0.16426588769411662
0.07576472820668556 -0.3640152695166634 0.14357401842527773
-0.05639420834648756 -0.7495874073909532 0.15783739529107554
-0.5593467600011477 -2.069896162503597 0.17165846489752473
-0.6406978140128597 -2.182329236847252 0.17036980609799765
-0.9908380910058627 -3.217337952893555 0.15649809062113365
0.5564540526648639 0.705795335187235 0.18179518549956913
0.5754471852851976 0.5553682076364318 0.18212347991704686
0.4394795689276144 0.3958358780187419 0.18509630901589424
0.4389129679412508 0.31883407457574026 0.20309405798918087
0.4215570371246816 0.24788809579233095 0.17602901234024637
0.3427718116169821 0.12963348943255582 0.14271168050868904
0.05263230466196345 -0.7603946362434133 0.18450188548056495
0.03543813262525031 -0.7617174249143435 0.18468045818655315
0.006401691205342064 -0.9924577104991763 0.18228171861894232
-0.46918345508506976 -2.10969279378695 0.17072600035058072
-0.8942271809275363 -3.2430096780341957 0.15598715598633872
0.7201112162079629 0.6011852603172099 0.17921095706659113
0.6732592860744803 0.5744328872275791 0.18020253970231273
0.5730289229543065 0.24078399731199018 0.1486025229230014
0.1110728170017492 -0.7819855670573521 0.18358516647081796
0.14755782968776565 -0.8074471534665746 0.18287563151823633
-0.2438129822732369 -1.9256287972821051 0.1720873815097227
-0.2985193255891291 -2.0638023459217 0.17051261872051549
-0.3673911564641763 -2.142870414588338 0.16978234287174232
-0.7962129863540212 -3.266293604422035 0.15546454360976564
0.7455232840863862 0.6164677256588326 0.17866736403273198
0.785711054690524 0.5478483431302407 0.17817287580899577
0.21554586466854675 -0.8512142945682741 0.18158959848177922
-0.1493445894183486 -1.8048378140800547 0.1731056695515915
-0.23014085249377814 -1.9262651971815898 0.1719960676052612
-0.242288588395843 -2.0056252842862072 0.17098588044457197
-0.26787112381756706 -2.076665724916361 0.17016023840270866
-0.31432699487143123 -2.1478903654076023 0.16943877541241603
-0.7366303085571055 -3.302080101405985 0.15482152564559987
0.8800519754698096 0.5257130132230072 0.17646103172424987
0.8535255337032196 0.5300378554672504 0.1769478852191222
0.7501028538302205 0.17430133038705864 0.1793542278525123
-0.08817583264551176 -1.8850811753442882 0.17160053066164482
-0.05048566665507548 -1.9156289267310604 0.17092151590078197
1.1745075157498235 1.0599248695512382 0.16790516147475554
1.1708386441722252 1.0264396920120398 0.16823084622601908
0.07742587697392056 -1.8939067895595352 0.1702153174293819
0.018511126073849082 -1.9474012351836245 0.16998237882561612
1.6346991505991153 1.8996075523295504 0.15127479035706956
1.27240439453234 1.1182970683358042 0.16564782092157232
1.259558237346487 0.993318537416211 0.1668399041944661
1.0240359933467005 0.4073296749890191 0.17404656060836796
0.998985777237272 0.35993911565987347 0.1746075598912713
0.27321432200279505 -1.4872090246736966 0.17362447918811205
0.26686395090130477 -1.5011217263514427 0.17351861772516175
0.17364204772917569 -1.8659118660206222 0.16976661062498286
0.12637470997582734 -1.8700531461660639 0.17012066147800226
1.6927607327713896 1.8683088953318596 0.15067468746581952
1.382055852308485 0.9839320741854365 0.16463739142911604
1.3612156983461894 0.9727395355972279 0.1650996868840281
0.27121933902990547 -1.8625916454419158 0.1689609975679486
1.7861912050473925 1.8314300973066957 0.1495195418312969
1.453535479377647 0.9533271584159563 0.16351563279924342
1.4139583789386538 0.9577611583396984 0.1642220679392207
0.41263666858979675 -1.8169851242881554 0.1682297640047633
0.38038998479478614 -1.8746419424103606 0.16782135188464448
2.0918204652057866 2.2896393330080405 0.13891470728932884
1.8670344918571895 1.7783966478280822 0.14872203130964767
1.9027887771509748 1.7371431055125082 0.14854870233390247
1.3632715765594847 0.4465114223437018 0.16754536299325906
2.1480163938378536 2.295661034607773 0.13791907173722348
1.923488454281276 1.734849954169807 0.14821205108727248
1.9420129911810138 1.7028743954415861 0.1482213472776622
1.4633332439250628 0.4491572555677367 0.1656477872692404
0.7883972103387317 -1.3405189522143435 0.16933652459925863
0.7692457597202235 -1.411339240701195 0.16886277886360024
0.7483757759183406 -1.4683237522581638 0.16853018632282435
2.335337787259465 2.362326527181895 0.13400971901844894
0.8912713182102642 -1.3557112094474773 0.16783806099467108
2.361329356920349 2.3479329513040255 0.13375795037832766
2.2074199443156233 1.7477119438112534 0.14310608044134543
2.1871692387077717 1.684566713241324 0.14408716533924423
2.1576620032671885 1.589839994429814 0.14551505076611765
2.134328402090307 1.496660637552074 0.14678271819336858
0.9953663970836945 -1.3802542103495965 0.1662070351190486
2.1372881958206698 1.4762715738476966 0.1469100322024684
2.125385786100756 1.4173962315993704 0.14763387395310665
1.8516150597763503 0.4609135034929347 0.15827349899953605
1.4270780652743755 -0.638426010116645 0.16491603068502286
1.395689756536092 -0.647242757753699 0.16540693153723823
1.0853829988599526 -1.4033482989370702 0.16476007531929981
1.8823150061014466 0.48874219638298194 0.15761069123847743
1.7314153480813381 -0.081331131185156 0.16102792394971144
1.7108048159148304 -0.15733928163426525 0.16133213871227764
1.5354581654111952 -0.5759291038149263 0.16333364692024951
1.482051001561039 -0.6108447878598722 0.1641027874924203
1.1821475194458544 -1.4309447322690765 0.16316433106694436
1.7295086929927272 -0.17451292688473463 0.16096259498446763
1.6994680278247603 -0.2694975215938946 0.1613545442202611
1.677458844891981 -0.34119928701317903 0.16159606587408593
1.6509157063256685 -0.5658927386887522 0.16136335527640283
1.316907398847258 -1.4597054578000808 0.1610014006295627
1.2724968264037066 -1.4534718395425636 0.16168971075155403
1.3569172850413254 -1.4750103294463048 0.16029663676954098
1.4044483525677296 -1.4968028230764523 0.1594268804711109
-4.163427399777336 1.9678108077280527 0.271720811251299
-4.207971668218925 1.8785323706674852 0.27201334992174375
-4.231163206497982 1.7793375758094376 0.27196112766790453
-4.2568155885850665 1.6827192174048946 0.27201500628632247
-4.278005668566786 1.5852594691778616 0.27204504849903643
-4.301292203182809 1.4886611106134282 0.2721694915057725
-4.326617063510263 1.3945268321736415 0.2723919326828354
-4.328785214077675 1.362085785158483 0.2723511600180486
-4.3522832225905255 1.2848562173745575 0.2726487056676633
-4.36446585400331 1.1811541772251164 0.2727454984335725
-4.357083594764265 1.0735014804951328 0.2725511786109609
-4.383328399007878 0.978203416105327 0.2730242095075508
-4.411350449914586 0.8883158161008223 0.27358091207190505
-4.439017287460608 0.8104069100245128 0.274163358481083
-4.406621089550711 0.8754051598140834 0.27350818388924836
-4.423469374272636 0.8275468581284333 0.2738503160886768
-0.1760555543112492 7.907454841146246 0.30691972626638225
-0.08777309696922964 7.885214226965618 0.3068093339443473
-2.4627038951812104 1.2936126299443924 0.265113474593656
-2.5031695370586435 1.2726178271072632 0.2725619004541022
-2.397646684922754 1.2970856879735542 0.27494013857391547
0.1871755467239996 7.812747863208975 0.3064858020984519
-2.273371718183893 1.2839097232560004 0.26800930127875033
-2.1540960811012577 1.2598371360751157 0.25778424771862796
-2.203056490321717 1.2694320907729906 0.25759540820127563
0.4252933478722368 7.701420078747176 0.30573334383492
0.3873926138173279 7.632985550547663 0.304759402409829
-2.084455045948254 1.2447429924265554 0.2614089114238162
0.5325545440077809 7.722129521523637 0.3063389458436879
0.4805304463475072 7.721791848846585 0.30617704885474695
0.17841288353565676 6.823293549450144 0.29377805796376266
-1.4281564229632764 2.6224016005193054 0.2788173464455668
-1.4648160241370816 2.548312252486207 0.27762548105638474
-1.4878400566267609 2.447485740747751 0.26764242247749814
-1.5142257310775395 2.348966841582457 0.2715913431952367
-1.5373492875397035 2.252555279269213 0.26705780746139596
-1.559314007918248 2.1792687512392255 0.2589680258022878
-1.9601878192376772 1.310551854156731 0.2766519692999331
-1.9678072804975288 1.2049247345736438 0.2780884433972288
0.59189218075149 7.695549696096565 0.3062082864099266
-0.06086718285627224 5.955266864842394 0.28199107832938825
-1.3436624863441762 2.599536721185493 0.27222458546708495
-1.538875115208626 2.215292072008766 0.29806509560277583
-1.5623808910813188 2.1486078520457412 0.26647273184801046
-1.5881854848091577 2.0568491741767696 0.2609714477802373
-1.616526434589023 1.9608567295045238 0.2601255345092697
-1.642138871943941 1.8692002942797932 0.2814711497968967
-1.6532236514483987 1.7611636344668837 0.2813452671494318
-1.6798914025691625 1.6686891366105563 0.3000737485720832
-1.7164457687419024 1.5227394566128947 0.30163729185534116
-1.7363908156750898 1.4708161125491719 0.27962196191583955
-1.7571862825389535 1.4055473973024442 0.29570519741823365
-1.8385033589655424 1.2520262750244906 0.30241643409432595
-1.899500163327171 1.2155073770751608 0.29518614917677494
0.689055728684392 7.67264762229262 0.30625930046801064
-0.00485748281722076 5.944709016994976 0.28199346442839845
-0.26574093541943045 5.0832036544829196 0.2702560808655843
-1.2463910743078706 2.5717222690835433 0.275347871427021
-1.7047670005533442 1.511251742146721 0.23146165019149234
-1.7162289111071853 1.4803974289279687 0.2541321579813517
-1.745513484060595 1.3473727183382067 0.2926639247803735
-1.7729001407916773 1.2728030142889035 0.2902468371433873
-1.9804255108877795 0.570188313173212 0.2918110745873881
-2.0166218963909657 0.5056317045269586 0.2872665676041265
-2.0577788160919637 0.41426852595867875 0.274241049700391
-2.0843895069406115 0.32308288233959476 0.2670849118336429
-2.115826835940373 0.21974665529299658 0.2611947736891721
-2.1347273391791424 0.12839922996803366 0.29279690699600236
-2.15348316721788 0.06792963086977843 0.26031261133816885
0.7883248594206479 7.6488805412426535 0.30632676711404333
-0.22148714473872555 5.07727083893382 0.27029279316079896
-1.1475548084898246 2.544825562666313 0.2712670933543697
-2.125109625312064 0.11186345839826073 0.2588303766083323
-2.1379659732070055 0.021835336719580378 0.2612121668586259
-2.142937159141567 -0.09099642200607205 0.2628021797738401
-2.1535510656723944 -0.20300985989950782 0.26407078878942797
-2.18047527209027 -0.27952405328771734 0.26489310050790005
-2.2041973370129555 -0.3500331836157442 0.2700055002416637
0.8851029721310918 7.616028311876363 0.30629146778546856
-0.42080333352877847 4.2199046870087065 0.25878142145159755
-0.4616594059040043 4.087735439862709 0.2569889956516559
-0.48403693566782097 3.993631896596651 0.2557196424438798
-0.5254606589337601 3.8230455650948096 0.25343367414890555
-1.0507478634726197 2.521010147458388 0.2742380339204976
-2.1199088604877403 -0.14823325629496498 0.23827795607740734
-2.127594568420146 -0.17509821865668085 0.289155525166809
-2.1847450775457937 -0.31684659794920456 0.26490644932344287
-2.2063342812178024 -0.3877368595232482 0.2735975156627786
-2.233023052935603 -0.47920715969924 0.27407625419484805
-2.2599560372022047 -0.575945181965551 0.27875832052202515
-2.2862888504338086 -0.6768932353462294 0.2789085207440869
-2.3117223729710825 -0.7740564813484969 0.279543188325652
-2.33244167115049 -0.8600592342764763 0.28941657416924693
-2.3811155494869745 -1.0455786453811882 0.2854509518711681
0.981421398620188 7.585968808616141 0.3063105372888958
-0.6128279905308033 3.473672094509812 0.24876519346406878
-0.6352327638857826 3.385205487548186 0.24758001109840339
-0.6556449226735972 3.312563608633562 0.24660463505122246
-0.6945511231289868 3.21292668878172 0.24526376564130942
-0.7194670134972616 3.1152473634249827 0.24396437378809313
-0.7583708654341099 3.044056143300339 0.2429983054731354
-0.7861405618154534 2.914348589119662 0.26194947324978146
-0.8042417731330307 2.8276364789993593 0.27258079943345614
-0.8401983961494192 2.7171280161300846 0.23869078552023504
-0.9232114028807756 2.4985500578064923 0.2821649761909827
-0.9592008290167943 2.4972134947575872 0.269164717055707
-2.252232061747252 -0.894632495317635 0.2509212657705739
-2.284284906317667 -1.0024865046294913 0.2810917066876574
-2.469852649661179 -1.3947110429130964 0.26201772639928267
-2.4854881284433774 -1.4541136011904119 0.26321123876888664
-2.509057753636991 -1.5546093429195802 0.26520871214151887
-2.5334683902128172 -1.6526284851231778 0.26718399919786173
-2.55243214981638 -1.7244225868454015 0.2686507520780218
1.0788362854934057 7.561953627371132 0.3064304696609913
-0.8013948393928407 2.7110416309193797 0.3155593038393102
-0.8261125358113895 2.6016950031382633 0.3102826273190945
-0.8647702279931699 2.4929888385068804 0.28525988662436774
-0.8832858024462716 2.4747806204233123 0.2604936729911606
-2.224007898304798 -1.038738075904142 0.25285674217426024
-2.2300883020024513 -1.089354120134858 0.25377274422473556
1.1787528752129175 7.542537239250833 0.30663908690894753
-1.8248153193795176 -0.43766663068375355 0.259197746752201
1.2771283805840383 7.5200343098343 0.3068233903884089
-1.733132113908093 -0.46664349466759614 0.28497842399848494
1.4171069676329524 7.499514038567168 0.30725492436802676
1.3638033678055335 7.500546505424593 0.3070081570926433
-1.724625050770122 -0.511565189375772 0.28425672677218705
-1.732733273629991 -0.5696510244752893 0.2870717323612719
-1.7462773221916694 -0.6670397312023746 0.2918577415669218
-1.7648013298294531 -0.7661047176795848 0.26799251388304113
-1.7762565363982166 -0.865605296517731 0.2713623206314604
-1.7901137807371557 -0.9438925914409859 0.2819998297504853
1.4813705749783637 7.479567804574226 0.30734957438927124
1.4611185898628936 7.472360421892739 0.30714763941713286
-1.7927277497323675 -0.9856279292029626 0.27742743701026196
-1.8040917894298585 -1.0716118227231852 0.27574753832688403
-1.814916001879875 -1.1775266011293821 0.28141998796988077
-1.8277434591782438 -1.2750704329851055 0.2915494344276056
-1.842132683019175 -1.348577611382668 0.3089320576510185
1.5754239486025985 7.453255036174157 0.30752385441556745
-1.8396973614620271 -1.3904881977963093 0.2794144052200346
-1.8444316207549283 -1.4820439223715323 0.25619910531170575
-1.8561320901748553 -1.5867505779757283 0.2583033827527625
-1.8665534001328825 -1.6770260242062023 0.26012751905064724
-1.88029609619426 -1.7469828489276382 0.26159856706383494
1.6726404353032325 7.426874071413594 0.30773698896209534
-1.8395268223923158 -1.782686197269624 0.26192471113838034
1.7689319863927078 7.397792588142512 0.30793224496398397
-1.794702631696703 -1.8349137233907797 0.26255509398593074
-1.8029165538928185 -1.9151626223737435 0.26419231313393193
-2.136971871800453 -2.915879470615174 0.2865552120186843
-2.150110625960524 -2.926642362885877 0.2868689746013471
1.8719236723256087 7.380709766460047 0.3083308863314776
-2.064149379808255 -2.9322447380128915 0.28630630819694136
1.9591010329341003 7.353701338394882 0.3085354454098307
0.7225181176846617 4.0221051165162205 0.26135394387049005
0.7164713072199219 4.008431842838035 0.26115343408739533
-1.9666032598655074 -2.960184401014562 0.28613391699274027
0.7901527419966236 4.026415691058871 0.261852001755423
0.8067620523419518 3.9685089902673933 0.2612943418357012
0.7364736258102694 3.7647226617735683 0.25845356682115395
-1.8689846229308418 -2.986248932560481 0.2859715618609301
0.8043817231864764 3.773232294852458 0.25903030418162454
0.7852913242148999 3.7589428455096927 0.25873204514430204
-1.7706297798072768 -3.008838178116604 0.2857832007226814
-1.6728618850465955 -3.033800103196544 0.28569546680862
-1.5756562851861071 -3.061642446118281 0.2857185917942502
-1.4781559108204267 -3.089001176220089 0.28577890665585653
-1.3865475533744485 -3.1207258081922093 0.28600348895544225
2.6843503810627363 7.172711425432963 0.3113552106452142
-1.249279396080968 -3.1487981287704105 0.28601922012803427
-1.300174500387644 -3.1457817947288627 0.2861541678753432
2.746359454272443 7.150697837729998 0.31157075011540636
-0.39734532406721484 -1.180913007704076 0.27507684767988266
-1.17714738216271 -3.1733928787474426 0.2862669486265063
-1.2219578796852708 -3.1750175289115026 0.2864593476391257
2.8440230415444434 7.139094555347124 0.31218608476975773
-0.36875601179652984 -1.2082448121379434 0.2700190388777818
-1.0915713596256322 -3.1821553896110943 0.28617419731349303
2.953837854771122 7.120465670622974 0.31283341418780297
2.9491134602517204 7.111542082262405 0.31269894850862767
0.49749060897773034 0.7106086224395571 0.2657399792020595
0.5188528635079658 0.6351766820304894 0.2795632522348468
0.40496509894322863 0.38557853209581566 0.27450304493680866
0.37354189727399245 0.34114259778563105 0.2733188120389938
-0.4843174811118306 -1.8235408531926438 0.25721593552309296
-0.5023369864886367 -1.8410481809736645 0.25756140759376983
-0.9896776334117068 -3.2064381767008427 0.28639544513594684
3.0074830660770306 7.078787041450544 0.3128012170722232
0.5966385963112287 0.5675617372308033 0.23255758464979182
0.534823290849256 0.4696280823069774 0.3295181393963159
0.5122416102701296 0.40168477374239225 0.23174600418341018
0.4380027688848208 0.2745173130694356 0.27728419254312153
-0.8933468578082688 -3.23222362336723 0.28670849386658753
0.7273927845181546 0.6345984422745119 0.2901428241694382
0.6425701849700854 0.5574445522700261 0.2686882523591285
0.6192659122985819 0.4663853615875867 0.258517077094378
0.5838540821615127 0.3992142997483512 0.24747161623624683
-0.7954717961936285 -3.2639716338678593 0.2871881895774304
0.8024829859919426 0.6155466310703364 0.2939456004320271
0.7606573381446083 0.534927935678061 0.29188852712734453
0.6583713871643214 0.3953413599489553 0.28729728874362215
0.6084993527444839 0.22021725523792068 0.2606819049666609
-0.6965250033562794 -3.2854962991439596 0.28749693051367
0.8456857219658184 0.5701278850471292 0.2961621788350646
0.7360205965845149 0.17782152962699527 0.2509277263973041
-0.6019022451635618 -3.3143290563371153 0.28800572028044724
0.8889004841104781 0.34763216519719625 0.2993538835310634
0.25234297605567135 -1.365033995639496 0.2513317802041196
-0.4930975969096812 -3.333475178450543 0.2883495103949062
-0.5167411914046842 -3.333868125880403 0.28836549715709026
1.0056633291716106 0.35321397443160735 0.30523828731945507
0.3793734227667872 -1.3029459648745096 0.25126192586417395
-0.40920391958857744 -3.358613888781152 0.2888644976874609
0.4468202859208691 -1.3803261897994032 0.25318929792293954
-0.33226168854138394 -3.375048891783533 0.2892254616948715
-0.17262632629238195 -3.4180831550816713 0.2902370661854953
0.5546939635741802 -1.7827122689104493 0.261171770077552
-0.11290090233049732 -3.4362857753175167 0.29068577700463655
0.6202416118324326 -1.8218325285180457 0.262392698141229
-0.01628090403064042 -3.456375452717971 0.29124844222860535
2.4010948941340744 2.5396119897769394 0.2648104477985723
2.3759967462921714 2.4624744916067276 0.26404870343753567
2.3488222294939947 2.363974941067524 0.2631596388320494
2.325694025612161 2.2856814243363894 0.26244723191912034
0.7757497056415207 -1.8042311623029395 0.2633928683734472
0.08388989820894677 -3.483348756317108 0.2919925470911461
2.3215751872812445 2.2393227279388537 0.26216566450467793
2.3023979703607313 2.1733139724133537 0.2615905989454612
2.2759828418882657 2.0773337889947374 0.2607947452842409
2.2537336906502734 1.986059730645821 0.26010238113799583
2.229906075413602 1.890039359551326 0.25939570343458584
2.2035068547845023 1.784380421132755 0.25864921246486994
2.147953954588644 1.694313580959922 0.257551280451397
2.1067934707390954 1.6075369020644499 0.25669988110888325
2.122689146584339 1.5084068417424152 0.256702985734118
2.1111035382581456 1.425116556731212 0.25636300079799035
1.2962315276092942 -0.701601648208894 0.2530767872301757
1.219009871980019 -0.7205007758567203 0.25224207575511115
0.8002878358158293 -1.8047309386593178 0.2636203196834592
0.832792032802106 -1.9205493937288407 0.26590365244396696
0.1703332742863649 -3.5036460084006347 0.2926043178863882
2.1320022220789467 1.4543949441425066 0.25673278381095077
2.100527486895848 1.3721086273673107 0.2561155120109976
2.082194125860066 1.2954559683925067 0.2557318952346559
2.0546539179205294 1.2023263750909212 0.2552190513503376
2.0307762746842646 1.1118779184657415 0.25480158268681197
1.3611578453210322 -0.6827428555663972 0.2537672362537786
1.7332614196577585 -0.09534626304620186 0.2539124659174435
1.7099810136492608 -0.17067867988910446 0.25410438841501326
1.6789765227844682 -0.2672634645152304 0.2543876236906109
1.4932776795536413 -0.6202859335836914 0.2549557551520616
1.4336116983393308 -0.6609301977884641 0.25454162441108086
0.9978656149402486 -1.8402249463210338 0.2660381186903624
0.3975070852072319 -3.562025978403833 0.29443799300469975
0.36724698109899634 -3.5628090205844707 0.294351681780189
1.68922963237595 -0.2623240986150631 0.2545061158485582
1.6605241114488796 -0.35872053447579133 0.2548849549228019
1.6354865425629779 -0.4579865689661853 0.25541067105501825
1.6174868931750708 -0.5610489234230638 0.25614380136700793
1.5066881558102287 -0.9863054330673242 0.2593521758693311
1.4916697969627397 -1.0419298726964117 0.25985071750402283
0.47448275319342426 -3.581952275947045 0.29509911883396645
1.4914051858727904 -1.0662207619645487 0.2601556443775017
1.4658115126807751 -1.1479258608396317 0.26088258356160854
1.4433059800604933 -1.2426217071492793 0.26186438982242044
1.4229629621937656 -1.3360641990604558 0.2629022156793559
1.4014538360900444 -1.4381263692935977 0.26409478684563736
1.3722657434790317 -1.5374620118777182 0.2652050904910884
1.3471936934200364 -1.6304149518144444 0.26631516885112866
1.3237013771897832 -1.7290661010310344 0.267570910570993
1.3006884981712954 -1.8150387812470925 0.2686712158988017
1.2649760018202856 -1.9168457754721262 0.2699279165982345
0.5787951642179653 -3.6096976854975518 0.2960406340403492
1.2910010229547058 -1.869672123668906 0.2694372451160453
1.2721073467822785 -1.9249443824341246 0.2701336712744511
1.2501237056851369 -2.020872293308914 0.27147619810336787
1.2428748407578971 -2.0846347579729043 0.27245848194931305
0.676745737923706 -3.6343942326604894 0.2969273178620417
1.0818218497093683 -2.711915552888355 0.28193844855234784
1.05150372003847 -2.8174387048651033 0.28361953295422204
1.0277575166403095 -2.9120528200315485 0.2851730656065873
1.0040751441262374 -3.0125873470200997 0.2868577379427154
0.9796183860516708 -3.102365615042223 0.28835642408148066
0.9556992500306752 -3.1987758576184406 0.2900003118424712
0.9322238347221202 -3.298131786298141 0.2917195566016919
0.9079166049649813 -3.3853617369666633 0.29322301582652865
0.8853422247183352 -3.4626213069177165 0.29457508399507315
0.7687420941224269 -3.659709989921529 0.29782877437984523
0.8763913281696408 -3.5174211726396507 0.29558740920473303
0.8594430371582461 -3.5773107613112307 0.2966571887958885
0.8418371759011088 -3.6771102919187433 0.29850611336990296
-4.172600618881995 1.9598217395427635 0.398391167417229
-4.205407155207374 1.8791704724347718 0.3984920102786178
-4.2260536926497 1.7790903656162909 0.39778177615005483
-4.246999594551228 1.6809495192499067 0.39726988456391465
-4.273607878154298 1.585549288327102 0.39723268266453504
-4.298647887216868 1.4831362155898566 0.39718214067291
-4.323776417204328 1.4009759130446304 0.39752117464860914
-4.345700500261535 1.3290743019372138 0.3979190893497856
-4.331383944729497 1.3516327775307655 0.3973878957899488
-4.3532352214003955 1.2803932894015144 0.39784422383183005
-4.365325686255115 1.1828867872373903 0.39767326091788824
-4.355494455209137 1.0748304277600167 0.3964342048628804
-4.385209278827561 0.9800847861554535 0.397509931148351
-4.410269347533281 0.8876826810441973 0.39849866083497465
-4.452863280021769 0.794944831838623 0.400534756895655
-4.404817640488478 0.8707687390765257 0.39815626884590816
-4.425443807271244 0.8230576936355841 0.39913999955673374
-2.646417477194017 1.2956022725766703 0.3803101818245308
-2.5692739242997744 1.2844719289012918 0.37374794869282246
-2.4534373928160806 1.3017498323620917 0.38763487101513483
-2.390690145386349 1.3037117153072166 0.38383470940194286
-2.274449769683864 1.2889757397219785 0.38189827880912397
-2.1644015734845983 1.2686000159020572 0.36817182023481154
-2.215950799145372 1.2771086371058562 0.3732703999425241
-2.076808163912391 1.2471164975245483 0.3672092999470684
-1.3956644857458866 2.8124711507165383 0.4060973441936684
-1.423189442955705 2.7391545691013963 0.4007350849314031
-1.4479859395827681 2.6351010480839685 0.39292687141709204
-1.4710684083610719 2.541466607618196 0.3860098700401948
-1.4964707965936341 2.4435074847460627 0.37890998079004523
-1.5209998361320305 2.3455580346396845 0.3719128804895089
-1.5478782490686935 2.2450631780826136 0.3850397082681234
-1.5642848309645316 2.179483425180127 0.3844217269422182
-1.5895855148499884 2.100349065523952 0.35529723085917353
-1.9627545640459103 1.3134177098194129 0.3964356193485308
-1.9640463129944234 1.2123945676860162 0.3884545357977469
-1.3154063470551387 2.6325810087992743 0.3900772714476787
-1.570030048912595 2.135015124347775 0.39700761267576057
-1.5954127824409112 2.0551363332695227 0.38097847987295186
-1.6250158060473519 1.9673544807980168 0.37574377384723157
-1.6451755252561733 1.8663250731979997 0.3699781001519379
-1.6656495951015837 1.7632678208293997 0.3601228160501113
-1.6802217961187371 1.6645116550534598 0.4008945186075654
-1.7170859526847022 1.5229877683599287 0.39103043472828913
-1.739393450780557 1.4717373739234851 0.39267240887271837
-1.757210373384956 1.4025310854616375 0.3813658863799888
-1.8318557935973907 1.2508450762746777 0.38152370563650706
-1.9011738322341434 1.2165461939662663 0.3882681113811651
-0.5726198287427798 4.250891243598897 0.3899941416392315
-1.1852053699371443 2.5984433643713194 0.38531628890523817
-1.2383922744883735 2.605094513210456 0.38661019718243117
-1.7439680270692706 1.3467094697236952 0.3854090054448136
-1.7708571224594143 1.2749468030820994 0.376435143909285
-1.9757868502986908 0.5680547572058356 0.3814082896657556
-2.01322106392394 0.5043257171985831 0.3742202143974167
-2.0610528869730906 0.4147993469369318 0.3807507236413079
-2.0871433305410854 0.3281923048737763 0.3888707855528869
-2.1273739669924083 0.20459544163190002 0.3916295307039548
-2.1363472370858942 0.12900109367737722 0.38997490402353907
-2.1551257806202786 0.06415493728185162 0.3519149426805951
-0.23041183897600392 5.0624542790061104 0.4306607648930133
-0.4885975214146706 4.241357632135723 0.3899409858419285
-0.5727741564907056 4.0114116992616635 0.3785443194895496
-0.6852805349780272 3.6298010565278025 0.35986229432721606
-1.117786014537199 2.613627421358853 0.385828654986473
-1.1398187987896602 2.5752194966126853 0.382877280961917
-2.1325481366822348 0.1053601195667303 0.41355282987417286
-2.1453203149842874 0.025642123669533 0.37616996224966315
-2.152415369020018 -0.08617493178896918 0.36421351233578647
-2.159164121435719 -0.18429899703227026 0.3639662739091617
-2.190015805366701 -0.2812320247271046 0.3778648694841157
-2.2177300337729897 -0.38133852595357776 0.3883281265660913
-2.2412482032711414 -0.4503290107145599 0.3857248092669052
-0.4314931276451806 4.230549507132479 0.3897538179314831
-0.6579462133740801 3.635612195546221 0.3602308982742005
-0.7048187018199293 3.4648229501113095 0.35189624462859337
-0.7231440633778425 3.3037345764379396 0.344136912210968
-0.8615783355445028 2.971451976807468 0.4142653488752325
-0.8816065931343411 2.832371502668745 0.4027177580348138
-1.0143624572097336 2.612238391379106 0.384887388043627
-2.1291119849745463 -0.16509554038475827 0.39023284011985027
-2.214903982625529 -0.3960542634011597 0.3572581202108761
-2.24599740596075 -0.489951127374751 0.39844014406792005
-2.2653680169916126 -0.5663099759236789 0.38447645888405635
-2.2961859846645507 -0.677807824595773 0.3788473961898916
-2.319867705601567 -0.7707602865398275 0.38606074967241377
-2.3383334193971916 -0.8418218015853873 0.3916864442120179
-2.371604155373726 -0.9990034424232499 0.40389110006304696
-2.3901175732482267 -1.066894583514376 0.3633718567162708
-2.4075388021821182 -1.1203893770838018 0.4141609747439313
-0.7826307158296506 3.048430520762529 0.4207870377877122
-0.8150377708047544 2.9675043588061785 0.4139930624125425
-0.9013885467497066 2.598887695750288 0.3833631579466378
-0.9335821924935414 2.591256153743294 0.3827947936920646
-2.3040111362626727 -0.9445947270463471 0.3960294938510204
-2.364716442559731 -1.0602109310935042 0.33115865952554524
-1.85579380433827 -0.4375346287020052 0.38299444189586285
-1.754022404117126 -0.47826187630860373 0.3916409165324386
-1.7586223147680182 -0.5529937339351303 0.3655772496711982
-1.7710538027431517 -0.6154806937967685 0.35823918761456
-1.7618883008299409 -0.6037241873624899 0.39047673604745436
-1.77537780133618 -0.6682776997767459 0.3702228366717921
-1.7866141858149096 -0.7551145416213538 0.3798329864785909
-1.800373008189942 -0.8511188174051507 0.3892960680196298
-1.8164882660124724 -0.9511152900121109 0.3929631765728918
-1.824604982692847 -1.028739260472137 0.3747942629010348
-1.830769311736364 -1.0883221327085015 0.3797044656179277
-1.8424157467963012 -1.1713973092507943 0.3867452064934789
-1.854174509555237 -1.268275075932754 0.39494181544935825
-1.8688907547405869 -1.3780494746163796 0.4043776962530439
-1.883455962722409 -1.46116605966671 0.4117078542071163
-1.8719538167561476 -1.4934831792795469 0.3649379978627396
-1.8878790910553702 -1.5932869062438735 0.37582538513421826
-1.8934681704567726 -1.6647953309363512 0.3778531252856403
-1.899346887117134 -1.7668077696349116 0.349606956351451
-1.9052204173590095 -1.8218838426717008 0.3525561899390566
-1.916812032463168 -1.9035794603032492 0.3570124731402785
-1.9112337046727181 -1.9479264212767287 0.3591658709103882
-2.087801810363058 -2.487748674591689 0.39096993914225253
-2.2637376389126334 -2.86552826477143 0.4143828689404597
-2.268276855186099 -2.887983931400864 0.41565410746189924
-2.1628801730758775 -2.9040981257199885 0.414242423645403
-2.0643163917594363 -2.929616901430977 0.41361490054855254
-1.9654969049731963 -2.9535510586500697 0.41304699348890317
-1.8672498044820989 -2.976711551327675 0.41259518798839057
-1.771227764086204 -3.007238127951984 0.4127210633795161
-1.67307326085986 -3.0305183554577617 0.41257014414721094
-1.576237377044542 -3.0595915291922813 0.4128991730511321
-1.4796806766169242 -3.0926329969223065 0.4135948591277485
-1.3969315791121515 -3.098740761964489 0.41307891682796904
-1.378510661434848 -3.1217757673504156 0.4141787457806284
-1.2747821783296278 -3.1390090949720495 0.4142333559685816
-1.2912548626934384 -3.153072549456751 0.41514673465362684
-0.40030433856557396 -1.1911387506583575 0.3677472826144915
-1.1857085865068229 -3.172828612800857 0.41547074249167015
-1.2103104702643055 -3.1784986870582266 0.415947087493307
3.533337617530517 8.942845738917352 0.33764165521938916
-1.0930625864361383 -3.19110789377081 0.41593945662008736
-0.4745003263066409 -1.8617926182160234 0.3419246097150509
-0.9905836520161361 -3.2066885474565163 0.4163442904410214
0.6168052686518485 0.6279298931342808 0.3887343850642905
0.5866717236476288 0.545552342835021 0.33374815196067353
0.5734559972945786 0.5063519895658206 0.3326895871844555
-0.8942857216386797 -3.2369200792358566 0.4177288080611584
0.6716235436578052 0.6124575488152597 0.39528088278657025
0.6181924276283389 0.5412611265380642 0.3364687508398003
0.6180353514798996 0.4449822210030964 0.3368432910544029
0.5787807030712119 0.37364712492323343 0.3484101706182571
0.5912620887619725 0.2673680483244993 0.33664706948927836
-0.7964020851784362 -3.2594599896373033 0.418817183370078
0.7362140796993469 0.5990171329016282 0.4030249774163577
0.6887717457933685 0.41183551858274936 0.3431480374047531
0.696835550845866 0.3403514868760502 0.371938979931579
0.653887225596102 0.2434167050948745 0.34237890580880226
-0.6973890117568969 -3.2858933541727993 0.4202522109266804
0.8002880231388886 0.3669159547230185 0.41191581977069247
0.7670986602695086 0.3525557744154255 0.40810398739031273
-0.5628714498139363 -3.311078830808259 0.42181291451752057
-0.6100409794187159 -3.3060299056876215 0.42145169739036936
1.0623706655137273 0.7900111846090558 0.37566215538883896
1.068077270096063 0.7662547112538647 0.37593157300258584
-0.5014170735201485 -3.3278584668534705 0.4229055642253702
-0.5160796463862811 -3.3357454820006023 0.4233092224272823
1.1491043843366353 0.745255854033264 0.3826769055171646
1.0316027843519122 0.4231137805969638 0.3725112039692293
0.9642340696794146 0.2858526831821366 0.3681347612946826
-0.40400684001622894 -3.352896339314775 0.4246491326088131
-0.30462585148051335 -3.380719621045296 0.42666899532435043
1.3517310270862066 0.7032459490720856 0.39976792256628146
1.1924820058232335 0.23287722418092938 0.3883588721796368
-0.2011888988916345 -3.4114542949018816 0.4290005052461835
0.5503522316274788 -1.7766335065223202 0.3548569194857695
-0.1304780303560441 -3.4223757507739405 0.43010867366604566
1.3644027098994442 0.18192893076837657 0.4037750132925605
0.616922889758026 -1.7862115121599118 0.35709090380208364
2.384141539670969 2.4701863851606607 0.39667572238960014
2.35336612604375 2.3805573994227984 0.39325869902801636
2.323612896172345 2.276231423408251 0.3896206688618499
2.307725778403233 2.2102369424222665 0.387486795755001
1.512069459079798 0.17286760633157172 0.41649058460057853
0.7221789941066253 -1.8053424925059882 0.36089772407320275
2.299607987463369 2.164060861594119 0.38615594691389765
2.278146398112179 2.077643138539849 0.383430581930989
2.252354608973164 1.9846016998915283 0.38044676951661494
2.227476313357674 1.8882513955636002 0.37752685194586333
2.207694830683117 1.7916586448053637 0.374931914374508
2.1509132218908236 1.6949643552998368 0.370684462974635
2.107492392004169 1.607025193209016 0.36728271315190597
2.119404612256687 1.5067816139038968 0.3664573026852336
2.1057297310819245 1.4088998311074472 0.3645599673904105
1.2606811455520646 -0.7608111618305811 0.3396444327308541
0.8241533708697911 -1.82155512633087 0.3645815195788783
2.105535480883291 1.3814707967637516 0.3642335688425119
2.0764234839682394 1.2988013282129427 0.36191137668907936
2.0527427672431338 1.2013571441428499 0.35981494495263755
2.0311439990627678 1.1061969682290842 0.3579734136198405
2.010592007156057 1.030235780005861 0.3564341593748114
1.3776050945622442 -0.7225858304930495 0.3436834777494854
1.321227227324334 -0.7410360988067566 0.34171603947584717
1.3392907165468575 -0.8392622802703265 0.3454272439824204
0.9411656821780484 -1.8435554520029658 0.36907929025200725
0.8925068475887025 -1.8383219385268526 0.3673688683730234
1.754277067506135 -0.014858414812930043 0.3468573139619169
1.734247871325572 -0.07228213454146626 0.34666635579184557
1.7092825256821982 -0.16717017581101257 0.34689975849320165
1.6792512534590833 -0.26012901663332566 0.34704281272837934
1.6594698381322823 -0.3104203190891244 0.34701871386556415
1.451071495673789 -0.7006286945489348 0.3463656878774989
1.0039040372132266 -1.8568850233568372 0.37160415826842974
1.7069072239681282 -0.20856373495254776 0.34747219158556797
1.6888107472205967 -0.26881955007819336 0.34766341954540303
1.6557877694891197 -0.3624496490944584 0.3478744106025524
1.6353668478754209 -0.45836963759024085 0.3489258143957279
1.6251368533451829 -0.5648297619900668 0.3508856170071142
1.5980185358101346 -0.6609622319586879 0.3520038035560705
1.55116467003102 -0.7003181269605592 0.3508820496127296
1.50759649360307 -0.9818014822526879 0.35706208627375824
1.4871688918768613 -1.0367172219617675 0.35791920290693513
1.458930494695339 -1.12346407689131 0.3595580682120122
1.4889435491698113 -1.0681191454895311 0.3589999246390302
1.4640096769616933 -1.1472014967998012 0.3605601582310134
1.441044339079831 -1.2414810706805324 0.36283681727079
1.4204873912048912 -1.3412891030955547 0.3655526110521299
1.3947459083473905 -1.439788496394286 0.3681656882803267
1.366532647801777 -1.5329266523635636 0.37062664720841765
1.3413228242528792 -1.6329435777478187 0.3736044815185343
1.3196693420818204 -1.7335009920927666 0.3768610300469035
1.2944026229782892 -1.8242032324308595 0.37971156721185295
1.2463637577533633 -1.9131647692430256 0.3818313314224523
1.3002701506573935 -1.839507933727689 0.380544125202701
1.2708685194890719 -1.9300736133569496 0.3833693923085141
1.2463981424884683 -2.026232603051895 0.38669388810274363
1.2334330295953198 -2.073972179780558 0.3883575690417793
1.0786386977657054 -2.7209900257971276 0.4137093140431971
1.0537243489667576 -2.7961642733543197 0.41670241662343077
1.0317037799874806 -2.8931519509397985 0.4208790036076734
1.0047962598224527 -3.00078503644769 0.4255257845635919
0.9799062484917237 -3.0888789955582805 0.42931496628740573
-4.202009786403134 1.9401687171832591 0.527149618069152
-4.218336519865927 1.886166413171115 0.526743565332122
-4.239903769657285 1.7860170444078307 0.5254902150480969
-4.26718339631655 1.6895908760049534 0.5250658209126045
-4.290942136314073 1.5926540938398799 0.5245818103110668
-4.317713701492549 1.4902403699710889 0.5244838174625543
-4.346026486051064 1.3889986114943462 0.5248183239188042
-4.3686885524275 1.2917902676212605 0.5250138071793786
-4.392134943147191 1.214904419461202 0.5258165855067449
-4.3679435388953864 1.1724369935890482 0.5231231591913212
-4.368558620118029 1.0785418773463478 0.5219811157805667
-4.393135351390874 0.982762398751797 0.5231383959919722
-4.423802332029226 0.886644942542953 0.5250729240818033
-4.447589541351745 0.8113916091790117 0.5267289757182847
-2.6718639319412487 1.2963587794609266 0.4522823044636196
-2.601891652442939 1.3281460318707796 0.44597590840059187
-2.615996132642357 1.3051963221441962 0.44641719979364114
-2.4739229913113765 1.3020626946775948 0.4761372818744779
-2.376150301572635 1.30735000409925 0.48114240427977273
-2.2666653665686387 1.2847230608836742 0.4874214033333282
-2.162414274259158 1.2659757265515121 0.4800540227868483
-2.2119176766433726 1.273254474143141 0.4839180643489325
-2.086808595756965 1.2488790003205572 0.4586869514098897
0.1931373478014221 6.834541514368005 0.517999764983783
-1.3647848674059877 2.7905897571555975 0.48608632110424177
-1.3975747800352893 2.737741747845619 0.4808823448679894
-1.425139798423654 2.6401179971981628 0.47049945377961466
-1.4489081190330366 2.5323445100000415 0.47538034940788465
-1.4761463552004965 2.443211129505327 0.47946516357628033
-1.513813515429393 2.350218248863296 0.4620477243686708
-1.5417003527151267 2.2791099308881386 0.4341658641714572
-1.9577536976836014 1.3100558050485345 0.4990693178730211
-1.9629848408574033 1.208167788710715 0.48221979375222945
-1.2896367074361152 2.679374553924202 0.4714008980665154
-1.4893319719551101 2.3468900988643 0.508548647659132
-1.5192686367636679 2.2389267399305384 0.4945234315431558
-1.5446429691899104 2.1532386862333315 0.48375454685212615
-1.5644397127670668 2.0494208324544765 0.48870960701062227
-1.5795512609498483 1.9454155634981314 0.4822649068214824
-1.6225872395358087 1.865658853612308 0.47523059647492993
-1.6433296764015264 1.757971942308281 0.4573232173902535
-1.6606915852070503 1.6535637941723031 0.4983595569174575
-1.7098466374859178 1.538047571348184 0.4923907619902824
-1.7379681326815513 1.4728348726814193 0.4803553964596661
-1.7566602857265816 1.3999121756890693 0.4817947251465484
-1.8341458554728423 1.2497550444451089 0.46291673153981305
-1.8937750586202995 1.2102236356673974 0.47702967906081784
-0.004789749418380063 5.934716814096154 0.47375828934595876
-0.03273937580332986 5.8824671411786005 0.4710696343754266
-0.27322459677953126 5.0879662835930555 0.43157223991164406
-0.5702941405409714 4.26509037692036 0.5227107836955839
-1.2093937142297582 2.6602957209619755 0.46750728484207194
-1.6246916616350449 1.7130956345659158 0.49337661502601016
-1.6390898406874257 1.6652168689346976 0.4937442689184789
-1.669241696829383 1.5981984904912467 0.4674435903139278
-1.7264502139244522 1.446497357779234 0.5045179131785541
-1.7447609396661417 1.3393727062761056 0.4784041517064439
-1.7690489063074577 1.272933898515177 0.48693047881738183
-1.7905867536910143 1.220426203739955 0.49517855612720685
-1.9746602762523184 0.5723978860255297 0.4849124806573788
-2.0089275002941016 0.5089914313896859 0.4761582049129849
-2.057060931601302 0.4198945223813526 0.4793403810635676
-2.082085324374952 0.3078558321999759 0.48278218722480837
-2.1120620562237944 0.21991865480742157 0.48500163124616724
-2.129955095685015 0.13887205880268072 0.494170733444544
-2.154444868104768 0.07218768893000771 0.5161388558110748
-0.47945686018512496 4.257157638750863 0.5227959201085984
-0.5112223932759947 4.251755252991346 0.5220689869077425
-0.6938595461250565 3.654392149064603 0.4713961653281391
-1.115572976797692 2.634063615028844 0.4628996183863271
-1.9509304998688553 0.5815118570738202 0.46358569390195214
-2.1252157344041063 0.11436194469881755 0.4886334422825751
-2.1414427698691147 0.02043867976949376 0.4822030598885413
-2.1496696864884486 -0.09037484095459503 0.46635943461409335
-2.1600378029052956 -0.19446308574082627 0.4708419188319031
-2.184368645815821 -0.27945507633983757 0.48526601761895827
-2.2154863771405875 -0.37816071700957465 0.47141626295451167
-0.4168083399441654 4.234936664254152 0.5215685375961873
-0.43728496970654124 4.2272965881190805 0.5207243013469023
-0.6559176684117295 3.651782526172365 0.4713854498515285
-0.8608191706554679 2.966299263465255 0.5004407709154719
-1.0173647960426038 2.612053084480795 0.4592036388454859
-2.1170375476473033 -0.14067707479706415 0.48893838592369876
-2.1267989682250112 -0.16282204903700692 0.4719419945593061
-2.18127771555342 -0.3321500282843013 0.5191638973246427
-2.1966443273263545 -0.3753067517076527 0.4974668423991103
-2.222435119179046 -0.4831373503257652 0.48218278126808134
