ply
format ascii 1.0
element vertex 859
property float x
property float y
property float z
end_header
8.980400628425778 47.39401800254538 0.12049976384313524
8.948267473369231 47.258447553587615 0.11979309450173217
8.79860938673062 46.974975786377556 0.11839715617493124
8.797749084677877 46.96762929307961 0.11836472881242138
8.91681001890355 47.139016057374704 0.11919919596648104
8.883651144506489 47.01172415703638 0.11853448124953991
8.85654147937838 46.94626473276419 0.11822263526252028
7.281947300360331 41.26176089471467 0.08845348802654054
7.643728318087587 42.031447266756345 0.09262198679005207
7.420588135117438 41.32953643561013 0.08889241678452448
7.351320696314831 41.293433918055854 0.08867950760606946
6.8778945068543855 57.60722327013011 0.18056687345387668
6.980922519973755 57.5853867717192 0.17947944847878425
7.084491958860338 57.60730366846121 0.17844303935285682
7.055972747386717 57.58082746565081 0.17870793042224498
7.201363907587348 57.66433243564135 0.17733440332272396
7.1636124543846975 57.572808192661206 0.1776228827647696
7.178732051447437 57.54243532196708 0.1774431095331536
7.227441062698078 57.566030745841346 0.17698845809413374
8.058396646603503 57.35408613745665 0.18724998554306896
11.212671639663244 63.05044809743765 0.22058612724514937
11.071629222349804 62.643944047606496 0.2177241326320914
11.280600004841316 63.02521629486759 0.22050554072882483
11.120633357866538 62.72105666257584 0.21830327524639137
11.388223605752726 63.009227247280904 0.22054226200750934
11.385751563815061 62.99642725844811 0.2204399876016092
11.522281736521823 62.95690783029849 0.2203946683091328
11.469382451987707 62.96529820519734 0.2203605834957124
10.564542906751335 60.50162214636879 0.20292764844004846
11.575157702261427 62.94415583942185 0.22039037052814026
10.634019167323917 60.51732411096669 0.20308645308819542
10.50731371346142 60.29345838506984 0.20150048265061693
10.449143174178785 60.06720827046807 0.1999297873301306
10.394956975105849 59.844315592609455 0.1984079541513797
10.347111450421016 59.658888225295414 0.197122884270992
8.706598264673916 55.39451392746375 0.2668512849188243
11.660555511048852 62.914639424272806 0.2203450972195094
10.700917992671052 60.51374477343799 0.2031212505489285
10.296348430049218 59.44345641475864 0.19565518277625235
10.250598685168741 59.25760418458762 0.19437129259793842
10.209612284304969 59.10126526982113 0.1933100954608237
10.169711031243887 58.94477373968909 0.19223006757710556
11.766951620864688 62.89670731415521 0.22043687904861428
11.87254363556606 62.87098718803122 0.2204862104324384
11.958972235521914 62.8433372013482 0.22050434817977663
9.705434718495109 56.91964093705739 0.17852388044717266
9.653559619948863 56.87910504523088 0.17829188992085881
9.635466516754333 56.79171668620101 0.17771611666426496
9.611061719047793 56.69250838192387 0.17705831611787978
9.589066436439 56.60913514798338 0.176508764615839
12.049414828135598 62.83168264586451 0.22064955058668675
9.797097173627042 56.89642920400967 0.1783007123306474
9.378906545396003 55.774039169566734 0.2761147988525738
9.36170232695183 55.69400824102403 0.27284178760311073
9.336572412571815 55.594119573012506 0.2687757981140019
9.321006418808476 55.52318478237146 0.26589116680570896
8.976871570450061 54.64089426755738 0.23266468994411058
8.972351907879304 54.60651003502037 0.23136007365712496
12.151973691733371 62.79811105786638 0.2206922177874628
9.935778679049033 56.980573194168194 0.17884288383315913
9.88083130630256 56.87233223993215 0.17810473729460505
9.309795834061735 55.47544115729062 0.2639468686194561
9.291107044181976 55.40303210347687 0.2610136094155463
9.26737683125362 55.29888333535618 0.2567974206980379
9.242538775968645 55.190697780360736 0.25244222713193504
9.218940347331063 55.1002355013833 0.2488416269410658
9.190769071015271 55.00110790931096 0.24494588481945007
9.163200551744477 54.89347081332554 0.24073086832989812
9.1357673674803 54.80921178537927 0.2375236724651502
9.088375377570912 54.71634901332824 0.23424112035994166
9.024665732796752 54.64395875511779 0.23211061241644887
8.95925424558443 54.32498014928028 0.26875460376125354
8.937928751480696 54.254328028402405 0.2647231771544972
8.923333669290802 54.20006997311431 0.26161371327933813
12.26024039684139 62.785358409498095 0.22089988686769912
12.256490291577833 62.77177728350414 0.22082097400895714
8.949209289741704 54.24900812247537 0.26397501645121396
8.844270436970188 53.839714737334155 0.21392810147491428
8.872016761195564 53.78293164426605 0.2374466582266661
12.381240469881492 62.746860532223025 0.22101908319230323
12.325681988102552 62.75036937203932 0.22086818166547656
12.452485913416055 62.73217126983988 0.2211461665675942
8.541103008903564 52.452019704791454 0.22830022046234458
8.524922400275909 52.37918548446753 0.23003113082237958
8.503091446567502 52.27855840266488 0.2199562870369709
8.481616267561991 52.19819557485104 0.2282510976861553
8.44864289434203 52.10796805483655 0.2690872140006391
12.538253941248936 62.70759413719585 0.22127087213837565
8.506990525884202 52.2430277473577 0.17776454060753927
8.479872799997352 52.16693441327686 0.21224725984967563
8.456427878888979 52.08142129973549 0.22309435504849828
8.430435145953693 51.98711379150177 0.21604764640513055
8.404707174935266 51.891210820075166 0.2130106784781644
8.384097053325641 51.83429770179166 0.20574057993609948
12.62655637687299 62.68706883120073 0.2214356096512409
8.614921320277192 52.0336116398193 0.22080862499967582
8.715736654668152 52.12045231330993 0.2127684395896936
7.6770628375214764 49.280253478420484 0.26467123125116115
11.949096309086759 60.19463869089806 0.20388420424311765
7.717627945694165 49.255164869794946 0.26495423452459005
12.003412260960179 60.14680228158088 0.203793361916562
11.777314148496888 59.22707558156809 0.19742925599248765
11.868717741263241 59.2039987427103 0.19766364389060026
11.806498344700753 59.204978979990415 0.19740874760889335
11.921591477600575 59.175117997435336 0.19772372262913798
11.85742304865205 58.84728559350513 0.1955409929171455
11.885674636364627 58.82435008893904 0.19554145894179342
11.083399893992691 56.612608681400395 0.17925605664764857
11.071794339151314 56.584499870521746 0.17903456823384414
11.17779911968517 56.57103068378513 0.1794861371339996
11.155668909922593 56.563466864272215 0.1793256764182312
11.26067337524036 56.549024095591506 0.17980657485592993
11.258358547701466 56.44565553700141 0.17924128112647053
11.240031102037486 56.36116218879288 0.17869911841565672
9.456257869223187 51.79136265398329 0.24903858438387994
11.219511904724355 56.27318359058456 0.17812762494874976
11.190805491650591 56.17130572798293 0.17743168673591977
11.168925087392322 56.07143688956734 0.17679154131657068
11.152596628276592 55.997787620869566 0.17631660572640265
9.60701483545677 51.805361016181536 0.24775255845398803
9.599889780622911 51.791570365230676 0.2085486678929064
10.978914619954004 55.30744185855492 0.274678569415385
10.946172149157455 55.19437899982743 0.2699550175853453
10.925982075419796 55.10604301357145 0.26641712128222583
10.904356460749064 55.02771465668888 0.26319370680795395
10.851080945476069 54.89522500161141 0.2573276794277008
10.861940451860008 54.83951392500264 0.25575506822329147
9.673940954931513 51.78287403673337 0.2308913561174283
9.66165283258498 51.7566355003116 0.20839203285721666
10.929672966702677 54.81682879260594 0.2568870837213559
9.826681818587689 51.83777173397989 0.2482878038000515
9.761053405593058 51.765093414108335 0.20466268942050045
9.754504155840939 51.73845399326112 0.2344399732069602
11.041938902191768 54.79210952978068 0.2593649690186158
11.003399645401132 54.79599526412626 0.25833664284901336
10.482293925036235 53.413862792905505 0.2448796098678964
10.466097810885834 53.38242353755476 0.24256933184372415
9.84937254455227 51.825460546167186 0.25005496248791975
9.80512431046704 51.70927439748487 0.24674786292235157
11.09482453688883 54.78136178565233 0.26063309533371826
11.09800504076285 54.722722579101664 0.2589582015898843
11.083068067119536 54.61084520985919 0.2551792797950786
11.0700945493742 54.51094880201555 0.25187575994302375
11.047954510430838 54.431186797371154 0.2488976800721217
9.928835176229425 51.639856714698915 0.2697290279041354
11.040136265681902 54.38991420216467 0.24748980911629812
11.019403733074451 54.31134725463125 0.2446478674159078
10.987531422495074 54.222689060407745 0.24118243913802084
10.947983841160077 54.13708197608582 0.23756014448606488
10.923695898573705 54.03838330277155 0.23422038825822733
10.912219788869756 53.926950891631414 0.23117435166903608
10.893665114347199 53.82240156296633 0.22816312121258706
10.86388232707522 53.724882229051275 0.2249864349750342
10.15401424299246 52.039013039526964 0.23271954878519474
10.135803268015664 51.97355811880554 0.22747385735848935
10.109665575798479 51.87996230306972 0.21639765071969885
10.080699661624884 51.783459825541435 0.2210801978384071
10.054156107673279 51.68454245363847 0.22615231445387565
10.029051150505481 51.5913844781105 0.2164715679550733
10.002378785051315 51.489700938719245 0.21415271287272952
9.977692712652036 51.395532838208354 0.214902050076431
9.954630240675884 51.30077256082879 0.21709693038660238
6.791750920325775 57.62304896112649 0.37393053283271405
6.868780037956878 57.62093606801319 0.3717478158581338
6.975574964114781 57.602550885358156 0.36829266853877146
7.091013759313526 57.601358339130236 0.3652337569380951
7.060155775008285 57.579687842258274 0.36533983096340744
7.150567167545381 57.56401415024696 0.36251030148970936
7.254833795247465 57.53016741627894 0.35880026369361606
7.253785325099857 57.49864107303983 0.35780296094041714
7.34695308709183 57.511426778948724 0.3559358992098821
7.450466394754866 57.47548846070937 0.3522923964564342
7.559101775907054 57.44209091169994 0.3486805789038653
7.6574438055439735 57.42789680455737 0.34601720146575443
7.74797625029028 57.40660297772722 0.3433497894421671
7.845384190592005 57.363514834588194 0.3398560019877572
7.899798763871486 57.36008984534753 0.33863910797164926
8.054647652607768 57.37361940477391 0.35577710104730825
9.707173657507578 56.92802739617199 0.3240102410813056
9.654708019395201 56.87556651475856 0.32177696446097187
9.629095158741471 56.776541515719074 0.3176365917177477
9.605413063900729 56.68334581519712 0.31374535332194703
9.58286015403433 56.57902954628142 0.30938826796595686
9.554241425629042 56.47172193369925 0.30491934248798097
9.533899765317013 56.381127184220986 0.3011463706341429
9.520727963755023 56.32929331595061 0.29900059640316956
9.798669202917104 56.90023789499517 0.32299313941054164
9.507806948656768 56.26947209167401 0.2965091238808838
9.48338092914491 56.18957247697077 0.2932127614635434
9.45455014439572 56.06354325068179 0.28799877180768507
9.433061904735368 55.98731859053494 0.2848642846244854
9.412517850076263 55.90396071021997 0.28143703330287617
9.393419815161588 55.818486209235466 0.27792486393335036
9.353135817271431 55.6829024600051 0.37455092260284883
9.337244678783016 55.60093074664421 0.36835274110559585
9.313642828428355 55.50567724347248 0.36120402067038954
9.935726931814065 56.968936699039666 0.3262527850430658
9.88257173985735 56.876689122884656 0.32223139867061473
9.2877379242556 55.39877250578275 0.35319149366298136
9.264290513592895 55.29400607894211 0.3453577749470171
9.241817245364265 55.20759396248225 0.3389559927784522
9.214850807774114 55.108295943684766 0.3316555970954308
9.187265634101978 55.00398527518822 0.3240352804304206
9.161818572421797 54.908507935177056 0.3171213822694401
9.136943729608697 54.828994548308756 0.3114691714324196
9.089044918141042 54.721965557305765 0.3362883170063635
9.038178538284114 54.64665994117191 0.3412853479111859
9.020396074948657 54.54045364988537 0.32175290902838233
8.998924972868572 54.440801453446355 0.3176704544885384
8.975275193215355 54.358078601277434 0.30864440089567596
8.939703188652118 54.242865360430834 0.3445969768029597
8.911089588088348 54.161162144668396 0.348345627132308
8.889832640286976 54.09910929463765 0.3561755386630854
9.124935391801264 54.69872892535045 0.3709262424249409
8.947323893567448 54.2368037211106 0.3272620277834713
8.917254439509248 54.14404299709859 0.3299857234332126
8.895234501803127 54.05246362559934 0.32342181667746367
8.872375016171617 53.95563540049301 0.31787215044719186
8.8536905927464 53.86302804288272 0.3283313406144411
8.86927813058421 53.78625109413782 0.3189517218407371
8.909916148393048 53.71908366153436 0.3075140793119254
8.546264599573393 52.453283535419956 0.3166631578714278
8.524744904855693 52.37845297130994 0.32326282868504563
8.501723009539747 52.28428044900066 0.32865226987503754
8.480228932032215 52.196004734464154 0.3179303568369912
8.48331776552888 52.1722485686747 0.3275924848556935
8.453394397265754 52.080523203933765 0.3373423817584334
8.425039775783496 51.98526949422584 0.32271682358505377
8.39746627941008 51.89037205241043 0.31048287116824336
8.378522965060226 51.840501052893416 0.34326326821485353
8.63571117590301 52.08927313538013 0.3754550292257785
8.727554504927292 52.13255603008672 0.28300106972851613
7.468006501409561 48.471360995865126 0.28925767625014903
7.423562283542404 48.45545239842528 0.2901250334285364
7.510448695949437 48.46675716136346 0.28897871470787845
7.504295768672449 48.34779020902664 0.29238023223579507
7.471515097159917 48.231064539612944 0.2959560394350753
7.448313087939903 48.13428015810272 0.2989036136418053
7.4257352096457545 48.03722716239348 0.3018330587345091
7.402264796232323 47.93633733806299 0.304901268140486
7.370808947087694 47.81712408180544 0.30853715674366944
7.331594674065533 47.67744254575275 0.31284442437808724
7.299950724833278 47.549765795611755 0.3167230234758471
7.263759885615473 47.38085061593908 0.3218275649426499
7.327619481904163 47.34734374022874 0.32221523780367145
11.063297847518095 56.71326840348541 0.3280502356271377
7.4155592138531645 47.32197369763894 0.32217541430664753
11.091016116213329 56.60081171320161 0.32428681247818625
11.058201949179843 56.58662924047284 0.32314430328268456
7.456782046845122 47.2244781538294 0.3246111118234666
11.12671523616004 56.44409091745531 0.3190616265075366
9.349222999223809 51.811376386244795 0.3333512555110152
11.281388068177193 56.54039370726358 0.32572326896597115
11.25527697398745 56.48637715207784 0.32319938495476835
11.204654789744815 56.41847291691882 0.31966671556799975
11.222217351906338 56.2926185815257 0.3154002271906896
9.463388908324445 51.78982729609891 0.3276242164714127
9.426341441534838 51.73393352373748 0.3613048855350032
11.195732010105669 56.179699442801926 0.3107195964870068
11.165267242249852 56.062986707711275 0.3058243812895601
11.140489868094825 55.95887577444645 0.3015192707270451
11.117370385521324 55.86045700720879 0.29746544174226486
11.091541370580977 55.76214937164778 0.29336224601274674
11.070715336291778 55.67572042585324 0.2898055048902499
11.046608633397717 55.58635474497386 0.28607616906477
11.030094509325451 55.51088160624568 0.28302441154142455
9.605982299271227 51.812433991801576 0.33083643421487924
9.577152033662676 51.801896745426376 0.3070110101063031
11.018547977283497 55.45772159518865 0.28087794794519444
10.99659695185338 55.388511717573984 0.27793107231807007
10.971232319462944 55.264300049484916 0.3746777596989237
10.957662705530176 55.20266173026581 0.37011824978304725
10.929104381971873 55.10146074072986 0.36238371870720865
10.912867413556082 55.03224493763848 0.35725701241746227
10.863694848572397 54.89237187248866 0.3462012963070597
10.861951299529323 54.84668886155527 0.3432522975485801
9.66808793272687 51.796338255996524 0.32500660815817745
9.668628727559922 51.77532043700729 0.28802216950005977
10.944389692516731 54.82933899833648 0.3461118766300225
10.921087216046097 54.826791605757144 0.34482036213342115
9.833832521437511 51.84458989815846 0.3138769814722751
9.76339958681313 51.78223901180865 0.3290759458492399
9.760300294400034 51.73361344961799 0.3250454856886991
11.035051357245981 54.797107326266236 0.34868872727136385
11.00633506943042 54.79576976873191 0.3471485262683392
10.488439712351564 53.42319382019803 0.32633029160167565
10.45987046555118 53.381512350232455 0.35558235663013815
9.869386040742683 51.83426089418973 0.33008350282643395
9.8400221608071 51.77937077346219 0.3390292048052541
9.80459885224633 51.699092722687425 0.3178635878380665
11.108459400521655 54.78364448984396 0.3517149707609811
11.113815658149516 54.72077792179658 0.3484059587547309
11.094837575558014 54.609609672455115 0.34114395342828013
11.069569785508385 54.49815828989677 0.33361852242877554
10.14085494438406 52.04577568341124 0.27836479907456596
10.028143874466336 51.783881133321756 0.3413549732605638
9.991296699256218 51.699123188196126 0.3331199944498008
9.968227227854333 51.65659623137328 0.33505048151212086
11.05244384393491 54.415657911852534 0.3282209435879798
11.024083705989515 54.315821578121636 0.32133543557297733
10.996260966868352 54.230905369114076 0.3153301466013864
10.94870458400861 54.12190625014755 0.32088983850743474
10.930150448506144 54.03378090593557 0.3370183548158027
10.925279437221807 53.933535587364645 0.32932054943461503
10.902507221298313 53.823167185792435 0.3201416564749502
10.877203535063606 53.728718164168995 0.3161817908461319
10.15900736820605 52.050833728662035 0.3060423201949472
10.13653293786425 51.9728274713897 0.30657090023572586
10.113267909147014 51.882222440378065 0.32652677110720685
10.083618101161381 51.789491334376365 0.3210693808971348
10.041285018489505 51.71729820630266 0.30919921631387987
10.02626782548292 51.568921050595605 0.27932274384972605
9.995653949580873 51.500699063967325 0.2847188746528966
9.969429361618268 51.351424975267626 0.3519176368336063
9.955355980164683 51.305648455158995 0.32965149916218617
9.95274122071875 51.27026409866572 0.361845619345559
8.641687838979777 47.02669018852799 0.3223358667011608
8.758272064538392 47.13569839928711 0.31855718371780384
8.704267525748447 47.108594161977074 0.3196098057243977
8.670528069329169 47.01242226651754 0.32261554757904604
8.80509603217206 47.107644815234885 0.3191649090274314
8.821211979017981 46.98394860301234 0.3227166453990334
8.851254132843673 46.98153847463499 0.32264177607707833
6.498162953257836 57.79894670730206 0.38765914434845494
6.558348386538505 57.71844297106683 0.38347944155022107
6.668317315936301 57.66749553999118 0.37877066979394997
6.731421824243056 57.653149857516155 0.3765452813020536
10.513068004286446 60.318464041713085 0.46775348213779133
10.452396705573918 60.07460974800111 0.45733723939195864
10.398253906162093 59.85392771821151 0.4479425546841372
10.350599657957702 59.670659938141355 0.44011076470473637
10.303467177256753 59.48517526309942 0.4322164937371249
10.256832892942594 59.293560337076876 0.42405233573958556
10.212940920855962 59.11356022289318 0.41640790230602226
10.171190536305582 58.94133262074163 0.40907821001831746
9.708765686162176 56.93263748389033 0.4702240016066434
9.648212995790187 56.8613191334878 0.464606620922775
9.621892486651646 56.740583421180155 0.4552906622922034
9.606568642831062 56.68119564474879 0.450721118000768
9.584433369330402 56.59205284507501 0.4438544295225447
9.555553707581184 56.47600553421165 0.43493282185261034
9.528590345475823 56.36173776091982 0.42616329651237717
9.509211869592502 56.296123061900076 0.4211352843519702
9.800316267691535 56.90496013319159 0.46845256846144107
9.496660595302476 56.246300114945775 0.41733083380846814
9.478522941792846 56.16854159597797 0.41138276365556237
9.45550214743591 56.08564815978637 0.4050646849715254
9.43403030866335 55.99762316429916 0.39836226342102177
9.408527445951082 55.893045095383954 0.39041694982986896
9.384470967704917 55.798911184196946 0.3832908812266122
9.366509022812998 55.72341016679737 0.3775831445295145
9.338194318090233 55.60157888215489 0.46824822720373166
9.318512482304936 55.5191750268461 0.4592002552656554
9.2911853612956 55.428689136466886 0.4493342436021123
8.981097767147734 54.64773125201601 0.4384614118949435
9.9372759426355 56.9720325507265 0.47442065684517004
9.884632340126831 56.88515891089929 0.46741018740103585
9.307633201880225 55.46569856891307 0.4533143977002946
9.287533947914243 55.39386240799048 0.44548116389947134
9.264815276495769 55.29830170321354 0.4350560670255931
9.239177611421454 55.201490551643154 0.42458161983050435
9.213096740046796 55.09488435414366 0.41308318740268896
9.190832284218967 55.01350190636048 0.40439879172053517
9.163147691906353 54.91297491464927 0.42447982395554495
9.135734705532144 54.82215691888541 0.4213465221085014
9.086002040985353 54.72296859515675 0.4453300181389126
9.023548460992211 54.659133175664046 0.4383779637880349
8.982669388946375 54.5661110687276 0.42680775451973185
8.993589137513373 54.437133747416866 0.40808378388108474
8.972724881545561 54.3453195793023 0.38996778537545007
8.95356017258825 54.288930733003376 0.3770302459758411
8.91637538235449 54.184169978837616 0.41846788105180455
8.822752557049316 54.00667581005401 0.4478462784232818
8.920251058851946 54.131728027895264 0.4096146782536855
8.909186003767504 54.038062395415196 0.3953989595954469
8.879044197552608 53.9460855768606 0.3967939685702443
8.858644201872638 53.85372266517681 0.43507157866594626
8.861610843025966 53.79730464227113 0.40490590119434205
8.555110128981607 52.46238149918282 0.40612901916858085
8.538842840562724 52.37349712188276 0.4172333613626888
8.508044749152123 52.27256859150634 0.41898025836375885
8.482219323253602 52.19722947021547 0.42221988235232827
8.518014388890926 52.27104612457302 0.42681921538656176
8.48381515775771 52.17676139414743 0.4255169676971353
8.457872455462766 52.08298097399283 0.4271887608069042
8.429992821815368 51.98223184158886 0.4304200468571089
8.404071870624495 51.90806526905779 0.4056652716831732
8.625235496767125 52.097771638824575 0.4580885140031129
8.55569017829538 52.02866341824854 0.4402302577024706
7.710715646921616 49.2606433868 0.4033666985893667
7.661654633713894 49.080686518952305 0.4152590293339734
7.610273516242522 48.92361115046738 0.4258622171929186
12.014190282786865 60.12978826788437 0.4755388173451428
7.501818617407644 48.47157542692396 0.4554635551389282
7.500614087675512 48.387752371717184 0.4605242358002513
7.472937858691102 48.2393712478131 0.47007290162749044
11.774928377443045 59.25174310971735 0.4376615187900853
11.857734485576506 59.20390296525882 0.4371233633114628
11.850959581743759 59.18682514650084 0.4363416212021034
11.93080662948162 59.19529442946709 0.437996238227188
11.857010459559689 58.84254572617634 0.4232030715542822
11.890053138478802 58.83168243768455 0.4233642542598166
11.084746745580391 56.61158023730702 0.47033176435723195
11.075534834283603 56.588919399322506 0.46843276229697034
9.298613377784845 51.80165153824881 0.4335969646239411
6.529721588004678 44.585643518031034 0.4075421551060008
11.103655711751482 56.49350105726803 0.4626694793639627
11.135800645206094 56.44546173201837 0.460407109760758
9.355941814494791 51.82264761043242 0.41547262603904417
9.303867084243292 51.81041048129518 0.4308871136738412
6.4592704148530995 44.296617507741495 0.41639082983793274
6.379480808984962 43.97489584498329 0.42621225278071667
11.276219976193566 56.54463306980576 0.47211153667067746
11.271765812625322 56.47016176533386 0.46685180259598097
11.21750802257928 56.406361341194085 0.46056970736183633
9.472150470454157 51.79429743901003 0.41241228584983325
9.42244044944593 51.74302292911817 0.42532623294750843
6.296695369818563 43.637460823588114 0.4365498356035638
6.208232547176938 43.27877353671375 0.44749945264013347
11.225366050635946 56.28194314362948 0.452359313520803
11.201253363899058 56.1892452558624 0.4451800480658702
11.177329057165121 56.08513367512379 0.4372516739534616
11.145892597390786 55.967864663168015 0.4281684166902593
11.12659585025478 55.87666998158177 0.42131578379135054
11.10238492316368 55.78111496139198 0.41399514200636206
11.07645140746882 55.6851761658629 0.4065943898114035
11.058854500470405 55.60722959098625 0.40073213588976137
11.03168966417525 55.51275040245094 0.3934055419901691
9.600578097219021 51.82707433073651 0.4007593399498972
9.538102625210318 51.8141600986456 0.39488663518831585
6.09707455664758 42.84563141439871 0.4608079654093998
5.988377843034555 42.4075014661219 0.47419612694825647
11.01869900168969 55.4570903120658 0.389215801822078
11.005818823004207 55.39315004176924 0.3845087312668088
10.980322638412703 55.308766828871235 0.3779407496177753
10.9537391752868 55.2052514390006 0.47025072590164757
10.927532224349616 55.1071410947351 0.4593843137001808
10.913144465400979 55.040395578665255 0.45222649887046784
10.85709585053406 54.89507656926707 0.4351323873179356
10.873648667002772 54.848046018068985 0.4318841641170028
9.677750009728534 51.82338814527816 0.40731798965001004
10.940706870278701 54.82926435181257 0.43472945304622407
10.932303743547262 54.82330486123751 0.43360483303848124
9.83792400176957 51.83748667051509 0.4079965522565641
9.785006451804048 51.791437792488395 0.4238704653460845
9.784562222067228 51.718422321152715 0.3961008899953158
11.035808652892278 54.79769000208687 0.43865883057570165
11.007515316539696 54.79688315321259 0.4365309529342566
10.472754373338146 53.415581386068595 0.4292484670223082
10.45424742939172 53.37060882532029 0.44651519778209564
9.860090478941 51.83126949766196 0.4201902143614343
9.84264593935565 51.7657793306217 0.43936098162293075
9.81988759995763 51.67738995263159 0.4098583473613429
9.839724802553096 51.575276615751946 0.4563227868447422
11.10628918944733 54.78486918795633 0.44274413523289824
11.10329062486468 54.717453803076914 0.43681918956412813
11.091335435106105 54.61902712302448 0.42772613499824014
11.067623115486967 54.513801952585716 0.41728770058404396
11.054293678877064 54.451798116845204 0.4112545315058854
10.942287537968626 54.14555405108832 0.3783327437287769
10.145264433599884 52.066551720444046 0.3988048003944716
10.124191691386677 52.007078493714495 0.4046663208799054
10.02027508209363 51.79791563106502 0.4236690013995077
9.990497535027627 51.71145077652618 0.423405073846664
9.94819801267463 51.64956275124709 0.431941881296618
9.880048443502016 51.527901475644946 0.4699346040647706
11.04786795745837 54.39941011295209 0.4066103718635674
11.01864483873397 54.2975584607804 0.43108760580348837
10.990805231395088 54.22323251020545 0.4200082990157792
10.94990794575467 54.135736639244044 0.427895188888477
10.929740649522603 54.03461149143906 0.43741833101463895
10.916885825610441 53.930436162721406 0.4263750349112348
10.895018765667515 53.81954021708157 0.42973410488586344
10.870553646538308 53.731428639010325 0.4384230328402546
10.852527154045402 53.682119651136155 0.39760792668299455
10.152798573687743 52.063772332621305 0.4122139182492893
10.121760435543202 51.97396172354944 0.4173838117720817
10.09936495726328 51.87753619993673 0.42115248108300185
10.084296469361671 51.79740981391177 0.4258953436049624
10.014433508706816 51.707473563868916 0.39576020363700665
9.969475363792133 51.35892743232641 0.45975818413842334
9.953173648109736 51.30871370336834 0.4405139758515607
9.976787587753241 51.32004746981703 0.4678336592035855
8.104657007657018 43.786015358367955 0.42010992629914007
7.928950499581903 43.198548612935994 0.43826215783483974
7.826762675577084 42.783796219130124 0.4509315002698536
7.7154217652223895 42.33224408434322 0.4647824160289455
6.722605474092828 57.69481853033005 0.5744482154599814
6.782212060639976 57.705489723891475 0.5724285342598371
6.761722670006364 57.65124665319092 0.5700129153781577
6.864028188622196 57.63668616804335 0.5645478430950449
6.968665688719991 57.60233469485204 0.5578576235114318
7.0458984434910565 57.614812926462015 0.5553544586244373
7.159159613082541 57.57528439439485 0.5481630036044821
7.117399765361352 57.55570013726896 0.5486343853089726
7.250450140377266 57.54669022385757 0.542657682929286
7.283889437316692 57.503722483181235 0.5385671289324295
7.36178743772817 57.492962432541674 0.5348306845515054
7.356968138780379 57.4761945970624 0.5339298873948465
7.462873183465577 57.498443225195224 0.5313597685758248
7.54340033123708 57.4883456540384 0.5277351100612642
11.138713976698584 62.812723795798334 0.5744302722413375
11.07471677792194 62.645005301061445 0.5670872274231468
10.585277757636772 60.53742196068532 0.47719104118540595
10.663859733773315 60.52130793272098 0.4769821910389551
9.556894802682516 56.48266494173417 0.5662141827687811
9.530103825008363 56.38368758945944 0.5551191093715236
9.510291909081689 56.28451003976996 0.5440107344176511
9.497824222293449 56.24479151404756 0.5395823503136011
9.479666359865115 56.18021395682825 0.5323720728361623
9.456600153180595 56.08964840818877 0.5222783972588876
9.435242665037702 55.98899932505533 0.5110693910215226
9.409477473143129 55.89934299208392 0.5011332963015497
9.381086005216185 55.775866271117074 0.48745782660740267
9.358829628681441 55.6904609902367 0.47803938716187183
9.334294802765688 55.60074392174179 0.5688034221594384
9.310714355671099 55.50865970851205 0.5554956216271486
8.970689627674433 54.634089633701755 0.5342939903928985
8.949783407716692 54.59814017023161 0.5147200768049721
9.285270218316505 55.39431791596301 0.5389703128849869
9.26073191842353 55.306421219584905 0.5263909128549399
9.23532588613747 55.20609801357324 0.512065744125262
9.212697012541101 55.10607607777664 0.4978128261814872
9.188078296185434 55.01481266951513 0.5256412885733518
9.164423599261273 54.925058779064834 0.5372959171225028
9.137280363031966 54.82062227583111 0.5324986774099175
9.086339188942281 54.71119556664409 0.514694770674339
9.022727025565668 54.64738430135372 0.5348998211161988
8.94998049738261 54.35644162878221 0.5637091040960199
8.935564996222865 54.26976684510818 0.5332056371291383
8.964655784028766 54.281050913379 0.5254196042276092
8.850568317596021 53.9315770782995 0.47798262283606047
8.48211637479629 52.15288164256083 0.48030960495907155
8.462670683196793 52.07943067093531 0.49659263650382285
8.42767316676088 51.9771059157186 0.5144468587683978
8.41453698865168 51.92756934542241 0.49224627679556754
7.696809429843042 49.2966992689018 0.5398038898158427
11.948517249447276 60.406514323998415 0.4854138603873156
11.93606703658334 60.192626650927565 0.47684246275125947
7.703507315554842 49.25017582544805 0.5437303882436979
11.986882216443183 60.17922505948125 0.47705299925334754
7.447346256383835 48.137267466132805 0.4768232303859018
7.4239990441915324 48.03854062763901 0.483298208249758
7.391913386173352 47.91763427115238 0.49133862491248725
7.370774996329972 47.82243784304282 0.49755516130575267
7.337007873245778 47.695873824888395 0.5059818233288911
7.3029243696053765 47.56294955283801 0.5147787520048157
7.260686674116634 47.37954883969175 0.5268408351771687
7.325531252571743 47.34821640315465 0.5273250680462552
11.062257637647054 56.70849950823017 0.47644408406804695
7.425075497028499 47.324623185288665 0.5266463013621708
7.453858182827243 47.22317199787754 0.5322753382278259
11.188462054425205 56.14815479196382 0.5751517571826341
11.16819151725565 56.06595216210651 0.5659323815449986
11.14924228981842 55.972864976260034 0.5557309192346985
11.120684691490393 55.86441238232676 0.5435152942372395
11.09938625212492 55.77441328626058 0.533529398465726
11.075873696592335 55.68317033820254 0.5233164695540263
11.052139470326608 55.59413886289897 0.5133248187724819
11.039347381299704 55.53642072665185 0.5070033851318657
11.027078643905533 55.481689279248165 0.5010209921744876
10.999466182770087 55.38140476518057 0.48977336130817156
10.976405268838487 55.291655389626726 0.4798270467465023
10.948797378791024 55.18660056330994 0.5684548676495144
10.92512184113726 55.10249441342867 0.556082368419965
10.903698089834661 55.02493031559553 0.5447302707448219
10.862155718526664 54.89263978401029 0.5250414366878398
10.866015092698273 54.84779388642767 0.5198980234656564
5.879007033437087 41.957142037500894 0.48799057630430387
5.761143135757823 41.467561432490285 0.5029279490984474
10.943807909750806 54.82782527006668 0.5243288253740809
10.934201304077845 54.823366223995826 0.5229524300453752
5.583891481898546 40.78308641019353 0.523976527568506
11.040870574316369 54.79659582001472 0.5296188662545831
11.011034537398768 54.793950681448464 0.5264998341100683
9.85622132343703 51.59609846157686 0.49921812774157204
11.098817541906948 54.78516980397811 0.5338436176156948
11.10616436863477 54.731434692195286 0.5285352674858385
11.087073833713962 54.61794959036712 0.5141268998286422
11.072260904901729 54.5065896652827 0.5005985229681129
11.052415771716566 54.43595437873253 0.5456207682794855
10.934516357143544 54.13344063062263 0.5188027732312065
10.915332626792186 54.08324991845972 0.5100082170944183
9.972583770900052 51.69772112337466 0.48292005430516843
9.959083199504525 51.65516798571224 0.49252951827779995
9.876211706068872 51.49295284715052 0.49051822314547683
9.879073347375831 51.474967061192274 0.5335730293937666
5.246438344584563 39.42587093604445 0.565557430072802
5.207173437471714 39.140556901730186 0.5740255843270005
11.046802934225507 54.40234306254868 0.5229577040297682
11.024503409395265 54.326442699924165 0.5288712015516047
10.987663904748572 54.22733699910017 0.5377584522063061
10.946360896774427 54.136552523023674 0.5208460064584587
10.92179803035212 54.02516180008875 0.5231646429986493
10.916587914093665 53.928831871715694 0.5297087322973071
10.89579181210166 53.83013525808282 0.5210226949809308
10.860933429426865 53.724088118140834 0.5284778150612369
10.83155374775056 53.67511579932117 0.571515693557101
10.079215396702535 51.77180364721235 0.476908326710901
9.940577148832954 51.261660998350756 0.4774249959889735
5.282538704918453 39.13286444690633 0.5736920497288456
9.951549757605893 51.263889866712034 0.4775568352529601
5.376664731896561 39.09482855773544 0.5740844947619513
5.446747754641539 39.073969407431406 0.5741831844506644
8.630191772994078 47.03004377114709 0.5262760305555299
8.725886076806978 47.13132515688397 0.5188325925643253
8.657447872580766 47.0048528646522 0.5276009213654196
7.282090147012012 41.256711046605446 0.4986719572588846
7.598653323010183 41.87356367521992 0.47881812906932003
7.401057933073777 41.327009463806256 0.4959217997142911
7.333942135297312 41.30585233875384 0.49690767282844767
7.478028692425621 41.41169054919859 0.4930271472593104
6.564980595278378 38.80295928249643 0.5745024355287119
6.63892891464284 38.79385455126461 0.5743391039111725
6.732638292257991 38.76591726968912 0.5745956453045233
6.459470492966357 57.83162761494853 0.5949457633366937
6.433775136416084 57.81596292853108 0.5952302015065601
6.476613543061054 57.84200100237119 0.5947652933520479
6.5790684622818985 57.7289764088072 0.5831361796329003
6.646888314012765 57.711024964726995 0.5789011490176154
11.21698539331064 63.05902298942268 0.5850783222941279
11.284760700912463 63.032459487312316 0.5844770106529693
11.424821093476451 62.99342808997147 0.5839267404160013
11.37080203195851 62.99942994201365 0.5837598470289955
11.47476439632954 62.97871534083482 0.583735784181779
11.559684372865139 62.94512267977304 0.5830820050974688
11.663956336026345 62.917880174897704 0.5828946072812304
10.295696262523768 59.40575780858676 0.6630590828279715
10.254072591807358 59.25412527896147 0.6511259702764629
10.213535985744034 59.10222756892981 0.6392126646283451
10.174493705820161 58.954149271063024 0.6275864460561404
11.770722690099632 62.90119625193672 0.5832286752265309
10.3406440152099 59.221168711597755 0.6493988947834434
11.874447636475754 62.86767406663202 0.582898436033826
11.963709831836464 62.851653254538185 0.5831845407420743
9.709977357007343 56.93111558083275 0.6168640509793419
9.649890445519402 56.8696513628634 0.6097396289162504
9.62389846359756 56.759255454955756 0.597297502239986
9.601020206400513 56.670476854944404 0.5873096739230131
9.578557928720596 56.573641030469226 0.5764306738291339
9.505451763566414 56.29336390802284 0.6700692906616412
12.051201926802747 62.82834112444351 0.5832016836088599
9.801637894989742 56.905705777649295 0.6145861872871642
9.480840971130696 56.19348746722808 0.6553667773845809
9.45217842146902 56.07920733608572 0.6385801557442122
9.42545730838608 55.97129790409031 0.6227680064378363
9.405306431913624 55.891677096982015 0.6111291549305902
9.381645623982546 55.79196822240092 0.5965803972091406
9.355062729625644 55.68662489510782 0.581260296254977
9.336014498503662 55.58839964342902 0.668182258814648
9.312303884986449 55.4983495979974 0.6519947973752654
8.962350602782521 54.63495255584009 0.6129594925120241
12.156050615626757 62.80378687857059 0.5834012812150239
9.93695802623109 56.958093848165774 0.6216932114951094
9.885903503123604 56.884959107216744 0.6129988120719622
9.446884328698276 55.63450546224878 0.6756981558561578
9.432700961154527 55.59293419909339 0.6681505370922677
9.289742655685275 55.4114928779573 0.6364277499014664
9.262423303853632 55.29726592304536 0.6160022044719402
9.236565155718294 55.20290458401863 0.5992783436611485
9.213942123633043 55.107230973459245 0.6249896380985658
9.19066640056812 55.004808081459444 0.6461652527685534
9.165262133678942 54.90850134287921 0.6260625034128042
9.142898353735584 54.81317533541086 0.6062175165739665
9.09292718844864 54.71638959741803 0.6241532459435459
9.024695372702178 54.65395402469878 0.6322873593797094
12.279352637661248 62.77709748855563 0.5838051468365609
12.224858273765125 62.783865475028705 0.583423693916413
9.321945958827698 55.14992469340557 0.6747242375677974
9.316268212993037 55.1103340166311 0.6661468869500349
12.36686288471176 62.753619221898816 0.5839575092642192
12.454545523641773 62.73069932879573 0.5841780582012142
12.540634383945175 62.70739092650965 0.5844047544362673
12.630081479864561 62.69031401397022 0.5849559886667683
7.470344034004216 48.466070626871854 0.6244968342021534
7.4332503340466305 48.4461203906736 0.6277896116577301
7.497450840900566 48.466646553367895 0.6233786647683127
7.48633289333044 48.40391088800838 0.6295785107325235
7.488341231784354 48.32220466939702 0.6370173668986773
7.464763153651001 48.22592235502078 0.6467718054952338
7.434519368128795 48.11313703238207 0.6583298739292395
7.409760173590048 48.010988704261585 0.6686803302487222
11.787251627136511 59.211828254485965 0.6759269801753002
11.870428171429113 58.873113445891626 0.6541310351107873
11.065954701512085 56.71551194103947 0.6267253145209324
11.893692294104936 58.837152279828125 0.652290886145093
11.081431109912675 56.601405404206496 0.6156729482742399
11.09388151841472 56.486420552542675 0.6044524866331764
11.128211822554581 56.443711513741704 0.6017487944523721
11.278643391291954 56.54801943874668 0.6197009989239495
11.269063103643967 56.46302664556999 0.6106916588602749
11.196139060456813 56.39780741119384 0.6004723356247037
11.17657913476615 56.19740767520709 0.5794097139200072
11.192145147397376 56.18414512757479 0.578905210154347
11.123227045965558 55.8812803841541 0.670104630341504
11.099050012089299 55.78512955374505 0.6559258291927984
11.073743255920384 55.690084000036975 0.6418508420857126
11.04931194647145 55.588003183124194 0.626955163762824
11.026220147336769 55.50115794087851 0.6141413168447143
11.017242817526581 55.452804087618055 0.6073080001306432
11.0030602106672 55.39703774991017 0.5991602955046311
10.97543819544069 55.28939965759435 0.5834432570583289
10.94985268136621 55.18756839783599 0.6700225852204302
10.924301786529751 55.10055963713765 0.6539989782261265
10.909409890885739 55.033349061130124 0.6421343246941253
10.852049396107699 54.886047663627025 0.6137105041772594
10.869654710639823 54.84102582847285 0.6087249281219776
10.940645745897248 54.83037728527218 0.6147943491785786
10.933844786145022 54.82075241453176 0.6126600543660563
11.04508501527916 54.79756065751735 0.6218720752128465
11.012480318033633 54.792239887687956 0.6173368470428117
11.09610666237208 54.781383394569126 0.6255804479947665
11.093930706394502 54.70968258697556 0.6152940771712082
11.085620355597595 54.607647342722125 0.6002617770494366
11.069512264372403 54.508064357217464 0.619050878111664
11.037358437287281 54.421803026277665 0.6516455389029225
11.013121555667123 54.34132903309547 0.6352812109711864
10.956817631391335 54.18734933736582 0.6027981266672499
10.939527265395286 54.14460169053461 0.6233664828692426
10.910707621230074 54.07462976007169 0.6142700916786613
11.010538547273502 54.310478630318116 0.63013205388776
10.990327398588194 54.23980436431772 0.6161314088464687
10.940985933491561 54.13109197189114 0.6286281059556882
10.921273366207995 54.0451308248456 0.6266230207453427
10.910225178202978 53.93315071839546 0.6266368626289457
10.893733873499823 53.82986766647281 0.6072760781964712
10.863597972711084 53.738740519802334 0.587477310050925
10.588687879261908 60.54575823433536 0.7526627377387181
10.719385002172157 60.602829640528284 0.7584532294456825
10.65281739809129 60.52361431040904 0.7516733134034208
10.396567496149254 59.82520191777458 0.695934865042213
10.347009592931288 59.626493503740974 0.6803284301482759
9.703956227566053 56.928594365687346 0.7643628889720395
9.643373659763258 56.85530410241208 0.753224970081405
9.625799573137051 56.774796285209575 0.7412710910392516
9.602343164603942 56.67357955521174 0.7262707820660721
9.580193248067566 56.58806804430752 0.7136050001617487
9.55849603462635 56.500479724057044 0.7006417503183827
9.531259029315427 56.38217844816672 0.6831658925024607
9.802456644553006 56.89989129401583 0.7609559213177768
9.476022903140866 56.15801100476788 0.7716423148617874
9.37574346227855 55.6959539844093 0.687470038054389
9.887479245355836 56.88791105347536 0.7601922577650911
9.455279313600476 55.80770452173176 0.7074440435548847
9.410367426478533 55.71835545785379 0.691292411641646
9.352886640083868 55.55871357512884 0.7639485183132669
9.349746021006899 55.42553629013851 0.7347694332498
9.27592799867255 55.24921322910946 0.6973515372503225
9.258593928709347 55.19739637285782 0.7043317645843528
9.248466729769557 55.13938592959385 0.7617679594821248
9.143954141871081 54.81838099809635 0.6839235784698422
9.350651768614423 55.22999735332183 0.6918355152715803
9.336705824924973 55.18023249245715 0.6811364658635337
9.250379427806735 54.8614961083172 0.6907964977292783
9.207693054464228 54.82136072794739 0.6820517723503567
7.6746554755623215 49.25703131083374 0.6850892335177194
11.933452202042155 60.35412755936634 0.7623008065030982
11.945513485320177 60.21588063619147 0.7525828966172042
7.713440660696841 49.273667840049164 0.6808256373216226
12.012291884382774 60.16188456285914 0.7504051272667411
11.773996592994315 59.24408079361014 0.6778689023607581
7.386502107851676 47.910495036711275 0.6788536461511736
7.354640012309108 47.789874857203515 0.6911861001747027
7.32726693653067 47.67828858935895 0.7025491123868416
7.284816822185964 47.52554971108928 0.7182587667554107
7.252101877861006 47.39261681219912 0.7318116844799814
7.255654389891648 47.34591834621269 0.7360192726961247
11.848987319726026 59.2106398401471 0.6775599165236385
7.317114892170381 47.333545775719394 0.7350322227278476
7.31426498161529 47.324430576770666 0.7359837434217344
11.918699515003306 59.193195418842635 0.6783075964622262
7.415071962328826 47.30460643872041 0.7344149841603483
11.079464786344342 56.6096371854509 0.7639814263548568
11.08937594250336 56.581225803554126 0.7607284484474933
7.445926099895265 47.20814403494771 0.7424926097159342
6.540257001223836 44.624674652605094 0.7103089285078485
11.11916446797516 56.438813527620106 0.7433627837882044
6.46572631392989 44.32489530542803 0.7302517392019617
6.3859147938677285 44.00374725226391 0.751578711962964
11.276882117949249 56.559291848858585 0.7695055798132793
11.251733617586364 56.47917890053198 0.7572511543822196
11.213025711782906 56.40977662887431 0.7455428737041782
11.21126138224137 56.28124322421938 0.7284239152437111
11.194367461224603 56.2167357301325 0.7188140065988852
6.301796226250853 43.66314025712987 0.7742375546778071
11.19197315504959 56.16818151335081 0.7122832248956857
11.170989314376497 56.070126982302625 0.6980186793496517
11.144202076416285 55.97601664421541 0.6838775705511059
11.091206964371507 55.744562019332264 0.7713609692581137
11.072045063272258 55.68561294147844 0.7601777378064886
11.049645499252135 55.599137103719784 0.7443376882231519
11.024955316939005 55.498014878213105 0.7259784948901243
11.001311076217222 55.40354903410942 0.7088190274678942
10.97355018313243 55.295247523618514 0.6891435481478563
10.943025203353995 55.19032697519174 0.7464293392792104
10.923019508537761 55.09784176571776 0.7528365763300902
10.888628988622235 54.99997457525633 0.7306035426190428
10.844084292992079 54.88126798109102 0.703359237988565
10.861087262951674 54.83552369726323 0.6971414925532343
10.957051828570634 54.82324218426113 0.7073298526407974
10.931148487033125 54.81943259897062 0.7032862823996733
11.0332256153921 54.80037949625779 0.7136699080943206
11.09678970659467 54.789057216504986 0.7206007195600261
11.098691287831832 54.728725333482004 0.710726151519931
11.083881406005114 54.60386094511875 0.7101896982796866
11.064097297946436 54.5090142689005 0.7562929451924322
11.038794431994628 54.411753795601946 0.7337127794469359
11.019509171244026 54.35286657436694 0.7194381837218256
10.952947229452768 54.18353069948014 0.6768075474272831
11.012571349601973 54.31403963398462 0.711154809110811
10.994299648048303 54.24870381450818 0.6961060501617068
8.62270732911666 46.991731792439396 0.7350591970136714
8.722509774609264 47.11819898939337 0.7210856897909282
8.702116491573157 47.116951601202196 0.721487207600281
8.668392531551635 47.02124823945185 0.7314583329609143
3.770227527999781 32.991928577247805 0.7618419782549515
3.8731797600898528 32.95931324465686 0.7620165363146354
8.10415865340253 43.80027588383281 0.7381517175973425
5.059015405237661 32.67344120266746 0.7623927359425599
5.134650890144119 32.66712029345603 0.7620582253006137
5.201475966481678 32.618060349188625 0.7631290168048409
10.128700980890866 58.35664374123923 0.7796698787222984
9.60410480779342 56.690391795222794 0.8694077376053171
9.574352098703967 56.56818407959472 0.8468979372272013
9.552151521555732 56.444667019858 0.8242004852308034
9.532294063149902 56.37218061211554 0.8108776534794582
9.512912934711583 56.31140540210247 0.7997199341768693
9.5002131301725 56.25243108983096 0.7889214444045827
9.487950668880716 56.20526940323076 0.7802764199609219
9.386858293980495 55.6891515066445 0.792204940542434
9.359263964430387 55.63329196918901 0.780251155109791
9.421312218519603 55.666077237473495 0.7868775149031128
9.361849161692787 55.58911934228016 0.8394349354892882
9.343698973565798 55.47397930455095 0.8453561110137583
9.311333380014196 55.39501568230475 0.8257003632419386
9.280078650467242 55.319262483358884 0.8069473188683643
9.269633589955275 55.23381174010543 0.7853399185157659
7.951422906967318 49.805653591110215 0.8440068987742372
7.703615819842392 49.242842684529656 0.8272420512965678
7.464617369314922 48.45855440978698 0.7948418899711335
7.432180353603778 48.4486234572703 0.7978421505094262
7.499910156776165 48.45751332675921 0.7930694966924079
7.501847423864591 48.35763666851254 0.8053745214920502
7.469531746370164 48.241808291087345 0.8214692216758528
7.444154942294301 48.14038486320574 0.8354429556446498
7.419435898109663 48.038673667148664 0.8493987822317468
7.3907413229856225 47.92586070352123 0.8649808539505828
7.376133294452819 47.84582817309128 0.8757244787131906
11.069871911047938 56.723069115287956 0.7788282486571869
11.217044701627959 56.27623008168379 0.8684006873163973
6.307514669714353 43.52703908986302 0.7825070918710438
11.214490634344264 56.225887815917076 0.8599606500627407
11.194191212162037 56.156800808453205 0.8469913779816444
11.16729885401249 56.07562767164878 0.8314760967888913
11.14575046144276 55.97755954164826 0.8137215312206229
11.115687559524375 55.865312441954856 0.7929428735835278
11.103109757498013 55.80404751677446 0.7819711123337274
11.058544509687557 55.6374432343951 0.870067197655304
11.040149889005844 55.56950646113842 0.8550630383838861
