ply
format ascii 1.0
element vertex 830
property float x
property float y
property float z
end_header
0.061646038573879514 16.966578696122678 -0.06318611092383632
0.012520099326943757 16.743381527739462 -0.07416147200468855
0.011994037574103333 16.658711960778035 -0.06760734363592093
-0.01192668977312894 16.56007290729555 -0.08138388191511554
-0.03258808658495571 16.485680325633876 -0.09290306859508439
3.607517560882261 25.858697131201836 -0.11184598822045054
-0.034243906852003736 16.44154161631474 -0.0659384131791117
-0.05014078762046048 16.389637191493062 -0.058417966764700985
3.6970844112652443 25.83729134800238 -0.11192132869458686
0.24818547860922702 16.657490234548938 -0.06324451746848091
3.6685044811677923 25.550842636815272 -0.10250022659655826
3.5855303964110234 25.209819135391832 -0.09085537595423825
0.30621611691488115 16.641672565845724 -0.061354817800533396
0.32614276665121555 16.58642698740988 -0.08106845219537694
-2.284604304661551 9.984794441615975 -0.12077701672596226
3.458585048629736 24.748452214859235 -0.07498385508457643
3.440288940322854 24.534292137264718 -0.06797433994744799
0.34276671156294003 16.58989831208984 -0.04685967763171758
0.3306833955996762 16.545782571171788 -0.07301587367932248
0.3567201337908319 16.425428251333738 -0.0675277047160495
3.5149887957963735 24.509418390342816 -0.06785608968294414
0.426482726711631 16.404328861628123 -0.07253879284696783
0.4357260974979773 16.309492013478742 -0.08635037600032479
0.45604090771791417 16.339389071059756 -0.035013617643798386
0.45127146932088125 16.31436319124013 -0.03937381219231255
2.197739442376735 20.509277792852053 -0.04541991143528143
2.198763892737511 20.469530289084858 -0.04288480712671948
2.3026238784965942 20.449329258279533 -0.0440356540830088
2.265352112992031 20.45014863472994 -0.043194034689427244
2.3866660434192637 20.424327901676836 -0.04454086327722727
2.4109268267528963 20.35486869124964 -0.04079864383905822
0.8202531161061948 16.23073091678213 -0.05307286640934193
0.7797270389565023 16.165152596557466 -0.07752960862327418
2.3980119141862053 20.30340627932624 -0.03724238977566509
2.384004205664099 20.250278835274845 -0.03355048025546263
2.365170356046091 20.176042283682406 -0.028419473625579353
2.326028868158426 20.01929978034835 -0.12136552132384303
2.3165494645795004 19.968184189844756 -0.11618802302321264
2.285839153544007 19.858408882096647 -0.1046335424057206
2.2642252216321928 19.75927736968259 -0.0944931218060709
2.236581992067547 19.65407243408008 -0.08354279925564376
2.2135887548438844 19.559607542827607 -0.07381889614775805
0.8865176236029483 16.222729910644954 -0.05485743524451035
2.191698746188806 19.464149847320517 -0.06408331141852955
2.166198504402173 19.358237233527902 -0.05325981867270066
2.141372864787402 19.26023344322728 -0.0692169347932161
2.120457573634761 19.175546425107424 -0.07633801941587115
2.098842038295652 19.090073262696823 -0.06691237785027133
2.086267178794632 18.99602156158367 -0.08599206581087414
1.018232921627752 16.266328383024838 -0.07309287350844126
0.9547976490214369 16.203972518272973 -0.0760363959241508
0.9364014067138097 16.135215809376447 -0.07712882242778424
2.1541032986764526 18.979556756734397 -0.08920785785597436
1.831012378479128 18.007980486873617 -0.07460685440756061
1.0918653114415693 16.23370386782925 -0.07341021855372143
1.125440110470659 16.177389776233888 -0.04364055293834848
2.283952832638857 18.960690178991 -0.05410525152419032
2.2356429906389126 18.960569350332083 -0.09346911174193327
1.8697315226995412 18.07347269657978 -0.050494626823839206
1.8306352019302314 17.96705305517661 -0.06650873234404857
1.822469373501359 17.923177558447605 -0.05920811561482971
2.3461326123337125 18.9562527730894 -0.0628289873618373
2.3573804964506184 18.87131183223224 -0.08361217533742267
1.3685915352422797 16.328639274193883 -0.09268897733258578
2.410241358866516 18.839428188994034 -0.0808465152499151
1.3881080952741442 16.217187662750014 -0.0717892035720245
1.3678603276768604 16.140358989638365 -0.0847379568221343
1.342343464952817 16.040806001412715 -0.07000750445381099
1.314334942403054 15.944829352833226 -0.06261151613111633
1.2915674005426363 15.849179804135883 -0.08023399816949577
1.2685794753294803 15.762025652422853 -0.08072251400674288
1.2390746598348688 15.644244796929119 -0.0765015456922061
1.220533789312953 15.57164805494517 -0.086266455364448
1.4537704646294043 23.573819030027447 -0.023392189917076894
1.410717690500081 23.414723411666774 -0.017958395930143603
1.3811506704777097 23.286546161059814 -0.013617263951962555
1.3534651306844623 23.182268209217455 -0.010054103498222791
1.326143229233204 23.0718283881215 -0.006309020513925838
1.2989829465212335 22.95134821974903 -0.0022165623157489323
1.273330472104941 22.838670959372248 0.001593843478019781
1.2497885228639214 22.74588160308607 0.0047557432747976705
1.227391881667685 22.662919456142006 0.007571709188680928
1.2048996494381625 22.565948031731597 0.010865225968803315
1.1827028514295237 22.472853348380987 0.014013302451262942
0.5170551976550213 20.76277105420605 0.0721292830586337
1.1606246379381688 22.38573980489793 0.016978277004431434
1.1398407924503242 22.29645420289377 0.019993795760909917
1.121049408985802 22.219098115954964 0.022621648822661093
1.102198163534253 22.133635759005266 0.025501983362739532
1.0838602394955459 22.064154455660255 0.027866619384382132
1.06578468280055 21.976562691557362 0.030813471855759743
0.5500825390057458 20.739852951897102 0.07284858803344724
0.5885331452696332 20.660960607255795 0.07539824232415157
0.6894318664204382 20.683177736453867 0.07451250942888679
0.6125807088910331 20.651616098961952 0.07567408312430707
0.8032404056031475 20.80664756391926 0.0702047650232378
0.8252642916208167 20.783527081917526 0.0709133449202918
0.747281498713791 20.667110501655557 0.07493165701570181
0.9165328828691852 20.764922015579067 0.07128169935208034
0.8640321693660242 20.766535456869416 0.07137849494163945
0.5246804531789877 19.670396882329314 0.026935854402584836
0.4961803975936643 19.56841382631112 0.03356532097909793
0.47516012048285483 19.48880131182534 0.03871206536769303
1.0289949485135004 20.84769557295288 0.06819584920000235
0.9922455046109887 20.749313929285293 0.07156303782954593
0.46381897199711 19.440392759897296 0.041838211341986946
0.4465598756856888 19.369491217832575 0.03748278001327552
0.42924562293251134 19.298369887085034 0.012303394230974502
0.39980787020456054 19.17484313916149 0.02585510830383029
0.3765597715538713 19.08632241560285 0.03033022445678237
0.3519179398996043 18.98576172210296 0.038070248248563004
0.32061139177567743 18.900026536393685 0.04199890769881289
0.30738028469862533 18.790603474172592 0.02062325354113919
0.278868463704132 18.697672939166207 0.03415517802997198
0.25482116823240264 18.624625696681726 0.03993992861480739
0.3089909130118881 18.752306349036207 -0.0010020261273618256
0.2895233403668087 18.69098130588591 0.0032110677557511957
0.2610495230983868 18.593218272686823 0.017552661712389738
0.23592256784163923 18.50015959366338 0.02895097887976675
0.21488417034398677 18.400877784084983 0.03641157394046615
0.18561811965961716 18.30454812158642 0.024260332890018135
0.15784073042988744 18.209540765974058 0.029268315982946422
0.130617198779302 18.116187987296716 0.03128176173180799
0.10260165580153235 18.014832542012982 0.025240236338176972
0.07598177762748393 17.915251394449257 0.021878533857571072
0.0478245153616369 17.829808602591804 0.011358554447398646
0.023791546914452066 17.747597611660733 0.015067154815544308
-0.039590002606106234 17.568454208034478 -0.018944918485245682
0.08515588618602488 17.879579904122615 0.016991431252390655
0.04894520105572764 17.792784535648014 -0.005021280031504878
0.02293801750639468 17.715842812599853 -0.006337587287117807
-0.0022214489680807414 17.627492086725017 -0.005018893349913664
-0.025091275737499252 17.510519159685593 0.009126719873031139
-0.04879566490089893 17.432935433631968 0.020245132886556362
-0.07318010886283077 17.334942834524416 0.017774162920372847
-0.0936938303875332 17.240748324218412 0.027208627161610596
-0.11699635437069045 17.145323445147554 0.02712685022757036
-0.047562932458424356 17.096956614289358 0.020529569960861475
-0.14205199269334812 16.80375540963762 0.013402047451431406
0.039792473278515095 17.050540901312562 0.009286941161315104
0.04514757045713036 16.98888882091841 0.02222687010299103
-0.026877399953285863 16.892716552767293 0.03046185005970989
-0.06766840999685297 16.780941498939438 0.01851827132538607
0.06118774867549548 16.964842784211683 0.030116856548978485
0.018424818403387944 16.75060487318476 0.027837100199476345
0.016669196470258107 16.661868303915057 0.022973837024400146
-0.0011069469105984275 16.57517896893569 0.013328136365950552
-0.02964778062459783 16.489490581101663 0.0342598596249831
-0.004542807660493864 16.525509262251802 -0.014494594750766268
-0.03171402754199537 16.45025710113755 0.025403086878285946
-0.04638692126572819 16.394680353397636 0.048490350623687305
0.23685793679113765 16.64659573343163 0.025897325576820365
0.29687791300106814 16.627356761457527 0.02758485132291997
0.32446664510429557 16.58188522386449 0.02603250735985811
0.34155081935424714 16.52993316777382 0.029023708191622255
0.34987671203408044 16.452795415229907 0.03421408096725996
0.42904491876060447 16.459166405631084 0.051471293871343485
0.43777745477786534 16.422262899539525 0.019724193001309665
3.025598296225497 23.021424434346034 -0.01596141282599408
3.0221862922234903 22.922548718452674 -0.012784957093797268
2.995929570222729 22.765898930450916 -0.007560726560351387
0.4760026058821736 16.373838673821833 0.034293712677005136
2.2368877833535876 20.469916603345407 0.07249166685294767
2.1951899526204217 20.474491258364765 0.07275487896792299
2.2993860936815063 20.448580475233268 0.07253195840887738
2.260920788370399 20.453387270903104 0.07277228389296349
2.387761718800699 20.425326566400344 0.07234098108150627
2.396321855573601 20.32392773390483 0.07541420292735737
0.8166735646352332 16.237870414754646 0.03184825220117656
2.3493116411126422 20.109163021303665 -0.023830154385377375
2.336387168788348 20.049672893996657 -0.019782518932914384
2.3104143589926434 19.94510034449801 -0.012590145522763635
2.2891412476185407 19.853612930876466 -0.006347632889994861
2.2648715756903357 19.75970850189057 0.00011565848492284952
2.239310896629351 19.658302235527778 0.007065560683046777
2.221403488073724 19.58091911849827 0.012311488040989638
0.8930390445508211 16.23913338210267 0.03230243817021491
2.2108444117604895 19.537491543233834 0.015265731964326682
2.1925442133137465 19.464974391513316 0.020211249057843862
2.172105263345534 19.374891692197888 0.026271611112017035
2.14617724397623 19.27457699400994 0.0330927659371734
2.1245208442423813 19.177441846923532 0.03956869339395908
2.096861847403959 19.080294744712095 0.032231838074750406
2.0911374427781513 18.999870990830296 0.01993778629169734
1.0170869505492919 16.27466643764554 0.02823906986741974
0.9489098292022214 16.20089108483053 0.0228415152419656
2.194981871488099 18.98722556231266 0.030687838981899928
2.1550563573397765 18.985060434228124 0.01349285420530219
1.846906771889404 18.055304681942683 0.06021122126648302
1.8287533678575958 18.007699361062237 0.02583150165297122
1.811272782799819 17.938629919646328 0.030141633309248968
1.093248522332654 16.240864322331774 0.03071528429251619
1.1274765565908935 16.176012352576958 0.045557556862419434
2.2685744652062345 18.96605683288703 0.037961992061867324
2.2276185095281775 18.965289443162945 0.009177716768030982
1.838795216074421 17.99184250173928 0.024400274525890806
1.8180934872764134 17.925582503315496 0.02055053041564969
2.3442468995370147 18.957527811773684 0.044517546914351745
2.362262678740276 18.870212108256126 0.01299193726650288
1.3468486597584142 16.38789353235125 0.022557076354742165
1.3882325523447374 16.274886735452665 0.00461083287202424
0.11961564629167731 12.980192713306309 0.015185687028509903
2.497306255567743 18.8861394658921 0.04234722223695423
2.3977738695229736 18.834207231493 0.015904696379502366
1.3864337977237438 16.221889176213185 0.023269232932307565
1.3649408869485546 16.145462261065138 0.011183793911447436
1.3383388915772592 16.0481158232768 0.027163325180403045
1.314478702264967 15.949902785296166 0.04409032871658492
1.289161765171599 15.850408299873372 0.032496987582817966
1.2664861836800154 15.747917203953733 0.0297470703901728
1.2428031323426718 15.659150125344402 0.02015310566150506
1.22464149652264 15.59574238848926 0.00837761262143441
0.19290572248728788 12.987680178050397 0.01599034494623398
2.502477956958791 18.880780805327845 0.04241374116252947
0.25383557460586514 12.972515799988493 0.015853018915833402
0.6432792986229305 20.629721433572794 0.07635000107392323
0.5238810630689226 19.673662168138325 0.10787419344498214
0.4985209231164509 19.581586640254123 0.1108861395541143
0.4757478229072132 19.488683147073154 0.11391118953270113
0.46772849948677464 19.444731389169984 0.11534098552090415
0.4463431708549306 19.38207218955076 0.11736516210929228
0.4313104455136274 19.30296736612234 0.11992077373998837
0.39987560314616033 19.174731526660935 0.11918263360654392
0.37514725349538325 19.085509919432493 0.12211518245861824
0.3458893073321586 18.98765008350502 0.12530736383153177
0.3183265842269932 18.90385045736192 0.12799220055905453
0.309262388699154 18.790709930285068 0.10542635819306105
0.28109576067043374 18.698566427387526 0.1117811695888561
0.26327884489500586 18.642005131452624 0.13631372687495
0.3135873135025986 18.757824069205448 0.13284067779253012
0.2879446966254722 18.691702134738645 0.10710816533887309
0.25740202411937907 18.59488384756828 0.11328820873494741
0.23346129282426065 18.50118876140009 0.11731677447936184
0.21156870386743243 18.401048825726594 0.12322002040550091
0.181758281792469 18.305935427298174 0.12520652352049705
0.15419018062356526 18.209753921989485 0.1291380465784728
0.12736798197884858 18.107845076226333 0.12284164795434205
0.10164627735342424 18.01623424906502 0.11702017972220072
0.07745403407675666 17.919291131802254 0.11924534091882891
0.043663652883573434 17.829240681805043 0.12479572644257694
0.008502066354908688 17.732805003259703 0.15236717131698882
-0.014797609957373448 17.646492415109474 0.15263420019718113
-0.011741180350989255 17.62976546142274 0.13016419971421206
-0.03281909779227754 17.49873260175285 0.12925487676008007
-0.05097638621841427 17.43391871824751 0.12765150826584437
-0.0766164365562676 17.334914989586192 0.12915021018494663
-0.09621751728626804 17.235644036288086 0.12758523250747872
-0.11721273142780242 17.14712090860733 0.12824588985750401
-0.0588768166828082 17.101119189163317 0.13218838357353208
-0.1407165892409219 16.804825884043357 0.12326723459347708
0.04032218682785926 17.043797707239037 0.13709956818733343
0.040862427795413825 16.990777280839325 0.1412490031731984
-0.020344239341742343 16.897135892133637 0.13220793265279074
-0.0702769527068201 16.777829475729167 0.1310263324067512
0.060368701440728034 16.966045406181223 0.12555462434651957
0.00921057347316867 16.747580209906747 0.12211757875217717
0.008722242315748141 16.66441114846186 0.12910610598791777
-0.01086977847212256 16.564703953770145 0.12780505862333552
-0.03765925970230266 16.473676110702613 0.13568026576744258
-0.03664518690722174 16.447917022312794 0.131104770858436
-0.05158246039079062 16.39279245491219 0.1472521499802747
0.23141746317820555 16.634650819376546 0.128120242711319
0.20921003957790263 16.623621037479104 0.15028864640243744
0.2822224596099667 16.623501577584033 0.1295097471903499
0.3082996629564009 16.585613440960074 0.1505222948286943
-2.3470844399682447 9.70495031320367 0.16254747108863232
-2.6319021113398433 8.876254616125548 0.1610294748820038
0.344921638544318 16.521668912744193 0.11766701987609485
0.3355097615321183 16.46711404937442 0.09564405897110292
-2.607456906205618 8.846490103337329 0.1611367592613258
0.43594962802356285 16.464366706882966 0.10221344387584588
0.44198901881542185 16.440862698696716 0.0987756849026104
-2.5900242248668874 8.629457465162798 0.16116323415392636
-2.677656476738636 8.326245961911741 0.16067279559973222
-2.7361889394784553 8.086831307593599 0.1603352060234431
-2.7932857298582174 7.840597335447724 0.1599947481365292
0.5139250213970663 16.43991261146293 0.13952929200440184
0.48719826871173344 16.396167117376077 0.10557037710552962
-2.858087857508374 7.573830534771483 0.1596149494359104
-2.9381367583988496 7.26812869795061 0.15914788613792769
-3.0642805738200867 6.721152425429143 0.15838065818365757
-3.326733932693937 5.903170048210873 0.1569227312374544
-3.318908450768565 5.674251753468399 0.1568366670400923
0.8185332495842945 16.249654937825493 0.11621552609110901
-3.434048149053144 5.226679535934164 0.15614310328099473
-3.5383374191786015 4.798680586323794 0.15550223812159536
2.398303316314773 20.30290735432292 0.07604529407158031
2.379350371350915 20.22755638909849 0.07859565918390227
2.364352218194218 20.16131663664637 0.08081819872137799
2.338923792867165 20.065082024760553 0.08408238783258175
2.3171415920471756 19.967574467995156 0.08734371779957253
2.2921296907244586 19.86849422685727 0.09068610603284244
2.2708087220243254 19.779299263269667 0.0936777879366594
2.24169508780303 19.670915362482646 0.09734514033427877
2.2112959102030554 19.554508891909602 0.10126760424381298
0.896089840739903 16.24743774051154 0.11603957266098812
-3.6555564770586013 4.322453828847721 0.1547781779024961
-3.637049406120381 4.224747826168928 0.15478794782214256
2.1946745609277465 19.476312631409797 0.10385325636318503
2.174063812142777 19.385405224899106 0.10686853364342247
2.1450240702299928 19.272293624906016 0.1106524749086222
2.120184145393212 19.16389565841851 0.1142316207196194
2.0904548091908977 19.061826404432605 0.11767271457533252
2.0957937999081313 19.002871135555797 0.11936048065891837
1.0192310683140433 16.270912459198314 0.117350395667126
0.9538992228555847 16.217495542238474 0.11801320155441043
-3.529215479139596 4.310169329577295 0.15523259966204633
2.186598000457197 18.992956580160747 0.11843207791869245
2.156261996566627 18.98716044230146 0.1190133400463003
1.8441789145177854 18.051944149038732 0.13725284755421682
1.831126006807025 18.01263266953885 0.12005046815857558
1.1011341111329878 16.24559645417721 0.11651831596347705
-3.441711204548791 4.2761903804854935 0.15551775169055848
2.2626985053041975 18.970014181113417 0.11803773280671243
2.227049129479102 18.966429513511866 0.11864617598506813
1.83622437961039 17.976846601909305 0.11560158036786207
1.8229820856628902 17.939285519817453 0.11784176030367605
-3.356511108543299 4.222586591431837 0.1557690394503571
2.3442275803290755 18.954893356990638 0.11729958910817499
2.3648592244923914 18.879102226194956 0.11914447108943987
0.1306385992512934 13.003518442100688 0.17325457151078721
0.07471175017417364 12.839185056679415 0.17297324117420215
-3.274286577129641 4.165406334063478 0.1559952946400418
2.413174812851864 18.838582253105415 0.11954525112600743
1.3846443695795636 16.218435978215275 0.11595946100180479
1.3643734596700376 16.14292682476762 0.10597925838500089
1.3410030022449153 16.054411830907156 0.11137991875630823
1.3147447857752117 15.948053702049272 0.12341648158097926
1.2885258217009032 15.852080020684493 0.12035661878449735
1.2645092508396916 15.748471591665197 0.11693698147955497
1.2408689966292825 15.648700587280793 0.11359769343563433
0.19192271574766318 12.990239913387658 0.17329677538118693
-3.2076579490108736 4.130579872515755 0.15617912047247068
2.492825909032864 18.861395117561187 0.11768344193471193
0.24421698666442004 12.971042259200246 0.17331203124605682
-5.137139817652805 -2.37493384233451 0.14489291313422697
-5.033777443814553 -2.4076669521241634 0.14517232598308735
-4.923817211632718 -2.4197528856512385 0.1454780010641879
-2.0836280136668774 3.5979900339047486 0.15826885308684285
-2.1319811576730237 3.604720688879251 0.1582013808852066
-5.9038425585475505 -6.33417184252021 0.13917878387172355
-2.0141382392411744 3.5684940287355946 0.15833870439427444
-1.9175937787919362 3.5469642074302747 0.1584483810418303
-1.8214120634447013 3.522135673769478 0.15854042361447424
-6.611702492035314 -9.285417306964423 0.13450078999756887
-6.519100138723713 -9.303282539784526 0.13471918322013116
-6.423578870280668 -9.321565786143374 0.1349449383323083
-6.329241314056757 -9.343384653218408 0.13515144696478018
-3.6653582539078284 -2.742203565138915 0.148000460496865
-6.241430064862898 -9.38995401092464 0.13531737053203013
-6.149441909487823 -9.42079574809874 0.1354961690136166
-6.0536221804029156 -9.437756989815842 0.1356995296988351
-5.956458761239658 -9.45271687518915 0.1358943443192069
-5.860204513168445 -9.477339016224612 0.13607813269858954
-5.764038748752222 -9.493388505493616 0.13625626901584523
-5.688287144325314 -9.990018963434725 0.13584619978427726
-5.589181411891689 -10.00978546964738 0.1360161619484107
-5.49301350885329 -10.036768791788209 0.13615564587386217
11.143328124963867 62.66317601916029 0.25894077179429753
11.299643201138235 62.62163060344231 0.25913281679386496
11.453562376497242 62.58617540268273 0.2591554250325288
11.60365214883348 62.53468433938178 0.2593482934115504
11.760282835854772 62.493366610665305 0.2593826887401069
11.920172532559937 62.46719134539873 0.25964009404597427
12.075475230637732 62.437394344331864 0.259711153645905
12.229059731073843 62.40135046933598 0.2599706198118102
8.670704289690882 52.820945005512954 0.24199412414206284
8.792038301876444 52.78413486248374 0.24211812888322215
11.747225035804265 59.862098483111026 0.2557090755784604
7.154570192561384 46.83976332638354 0.23171050212210575
7.257637206547569 46.81999843462752 0.23181826071864314
5.079812986641194 38.41626567713214 0.21733583147419971
5.144694532022396 38.36884240082203 0.2173360555090028
5.253227685156411 38.340783467288944 0.21733483393714337
8.465795344540286 46.523306551991375 0.2327971977891296
8.572016829821097 46.50400779293486 0.23287370611581076
3.6617414861711266 32.39868707417177 0.20718734090601998
3.568423859667628 32.32785051954565 0.20704335415698344
3.737626030921433 32.37067977279247 0.20717279880897832
3.3707826813564026 31.485190945798628 0.2056605138527956
3.8136524470340447 32.35436407168892 0.20715826424226602
3.2013470808657685 30.767344154411738 0.20443697777074532
2.1251458382343156 26.198045896074753 0.19694208211896147
2.053902883344648 26.13322700011515 0.19687056476968734
1.9875227048522197 25.847186397795213 0.19642971666170556
1.9255543094060874 25.574557028799283 0.19598293557412655
1.6595054379818144 24.856389282021794 0.1949949139079855
2.2308741564180163 26.18014073081562 0.19684743527988724
1.8704850410904224 25.345372563715983 0.19563627454129506
1.7367787861790298 24.84144686410646 0.1948630846072274
1.6843896266521519 24.841972608986232 0.19492243678750681
1.568105838436248 24.404701086933315 0.1942913521337789
2.4373401299487574 26.389353684896065 0.19715164823072934
2.3340137254233477 26.148561998811275 0.1967532620965538
1.4516409287440186 23.55536823167523 0.19289422937828016
1.42589075001133 23.487102629535393 0.1928009957024715
1.3975946776232058 23.376891960917167 0.19265269837249727
1.3668640376474057 23.23465638456443 0.192433358316613
1.3383804618385144 23.11229222935023 0.19226504657263166
1.3110213547181921 22.993741611259292 0.19208694887378652
1.2856415734271116 22.895088086975484 0.191959627698417
1.261865119351303 22.80424151394871 0.19182945929196038
1.2379885649321838 22.699362903840534 0.19168927138724495
1.2152316583439058 22.60232908426863 0.19154835784610552
1.1934831467026192 22.513244397446137 0.1914353561801061
0.49045244761780493 20.786507841980953 0.19087913109354143
1.1709317805898027 22.420076576769425 0.19130469240752374
1.1493731098580762 22.33686004510471 0.19120503889234425
1.1297840902713607 22.245452324406063 0.19107272095432626
1.101844070402853 22.126245886313086 0.19091988501956486
1.074164349341932 22.006918954180534 0.19076803047149682
0.5545157866383883 20.7043941592013 0.1903767920190248
0.5917181166031524 20.633903535037092 0.19005254959695123
0.6792194710059938 20.671428743350543 0.18967608085807008
0.6284840749315503 20.60938711285813 0.1898155566650056
0.8575657596484583 20.784159507166393 0.1891203194138793
0.810529038725825 20.7813028393315 0.18929913366628665
0.7424850777046458 20.654981209313767 0.18935206096260354
3.9648313688088663 28.712818418066476 0.2019073515975972
0.9088965244960365 20.760115450127735 0.18888642802948075
0.9119793291090774 20.751781327443815 0.18886068274417517
0.5202692759138794 19.6654820871425 0.22559527083767295
0.49749111172050053 19.57169849393387 0.2278027976173898
0.48028323660343886 19.502300469389382 0.23403647986905574
3.9711386025295505 28.582791807401343 0.20172473519838569
3.9892996187187215 28.49918950474151 0.20166892699329858
1.034599630013487 20.83946466512555 0.18863609289090916
0.9922115823652814 20.75193182067599 0.18859651959631618
0.47313560030932744 19.45930621890882 0.22069244219211892
0.4525825403380198 19.375803930202796 0.22464947634436538
0.43083522186181766 19.295003134795188 0.22350124705722063
0.3988401594303872 19.170178087658968 0.21447924941483149
0.3770556555240119 19.086455670689627 0.21526842270844382
0.353178683068164 18.99187889582835 0.21378521006340645
0.3263651939449541 18.89693648271453 0.2078216558273338
0.3144457437941308 18.7918921232184 0.21536044970381585
0.28778517025030903 18.714297422934916 0.22053175469510233
4.09676352495993 28.429897966914574 0.20175309416199133
4.027893390462276 28.402473452826953 0.2016009727623349
0.3153869977966043 18.763278158489257 0.201417015617609
0.2875109153091794 18.689805792652084 0.20605521747552175
0.26072850294355165 18.597758662770477 0.20874886350631616
0.23494795429778537 18.49623623075437 0.2206276020045692
0.20985267661957696 18.40132398467435 0.22846060571865356
0.18261353339349606 18.30397174604746 0.22800522491228803
0.1565561133891038 18.207907833549285 0.22832779725978997
0.12994936025368176 18.111196148660962 0.22568302058513767
0.10331909026038966 18.014134119863908 0.22699290134441963
0.07909278429322675 17.921156396653814 0.22910910984179195
0.04573844168483432 17.831478496344314 0.24914532811825624
0.015784591828637007 17.734255798640383 0.2607787198784459
-0.014548757723971573 17.64021161226845 0.2664883736935758
4.14056785499349 28.444473496474256 0.20187730369786705
-0.009486173856313007 17.625948760930136 0.25725537283223526
-0.029845370187472575 17.509605985090403 0.24164014389437938
-0.045794342235631724 17.430250721770047 0.23444896739688964
-0.06874500487194246 17.336132888428637 0.23587661180020508
-0.0906305698096721 17.2346632828002 0.22371536853239987
-0.11144177910402275 17.150067268361592 0.22620755127973008
-0.05501628654363544 17.104002532386055 0.22339778529538573
-0.13490808903030382 16.80754970185432 0.23748379486143045
0.04301292244875521 17.04152963485641 0.22737627897286727
0.05099878567123184 16.9938215530012 0.2274370778635461
-0.04398887286290187 16.880938482510736 0.23106152032575877
-0.06886417363296204 16.781381576723906 0.23425227850017216
3.527494389623956 25.860495935118344 0.19745347280475467
3.497286843198472 25.869533605429055 0.19740938043917078
0.06399083320469834 16.964013910717256 0.22106010350409783
0.014549239280246207 16.745510173561982 0.23292666938888212
0.01315539133831578 16.655720933039 0.2382326768018253
-0.006818635278698082 16.5598913882713 0.24111348293565732
-0.0319452199921999 16.476901383766638 0.24516970732528487
3.6023531282630783 25.847924972224536 0.1975765132004842
-0.012002007465091058 16.51184811572516 0.2430754332372535
-0.034843085061980084 16.44308501568681 0.2446735499306586
-0.04704077217778657 16.384803851934915 0.251542633328149
3.6917781032218615 25.82698202703208 0.19773169418361136
3.7056414394324655 25.71834886229294 0.19763323369709596
0.23593331187970357 16.633441807432625 0.21268874351070904
0.22136135327674344 16.61634612686475 0.2355785943144642
3.6081369827167187 25.32721483363751 0.19697236894065662
3.524539228375425 24.990313479504582 0.19639989329313978
0.28353129505801056 16.61899249040202 0.22441941531368254
0.3034151621838649 16.58870236969599 0.23687392924113265
3.4230918562660833 24.52908368436814 0.1956574835525844
0.3707758761009651 16.534005722728374 0.21507340442602263
3.5093896777267677 24.498619875344332 0.19584558218072146
0.4582188898045927 16.487295331056266 0.21554094767940085
0.46325407925086615 16.433000406428622 0.1771903660124045
3.0200847482313202 22.980047777181642 0.19303154045433696
2.9969721912323912 22.858565910744332 0.19285417713662834
2.997000653341752 22.800898503698704 0.1927990854336042
2.9752688205730546 22.687292671804588 0.19263505180536822
0.5059993364286515 16.43449769736088 0.22042399077251684
0.5107962850542028 16.401243814764275 0.2246702329815083
2.171124444908955 20.525963726932986 0.18833496506137432
2.200663132976059 20.459357274318812 0.18837191406805492
2.317522734282921 20.441818144002 0.1887707923436207
2.2883586577003276 20.43885754758953 0.18866206776702032
0.683340260777163 16.245217258003596 0.26299530865286413
0.697113031277711 16.216299756817016 0.2647383861463958
2.3823631352878416 20.41599507197942 0.18901946384457724
2.4070680985579855 20.360677492437794 0.18910576363731607
2.3889057880314377 20.298311179296118 0.18900802514944737
0.848629367665515 16.29220437385296 0.2300510963468973
0.8130351174757006 16.265333351901795 0.22068221016658124
0.7342428202252966 16.184776912498805 0.26637346350047164
2.377447526359328 20.250494531687814 0.1889455510857067
2.356377478389375 20.15968899130777 0.1888311091854319
2.3289905654152805 20.047645085031583 0.1886866329958199
2.307107758502532 19.950494286869485 0.18857386872339066
2.2804067942668764 19.848485986519584 0.1884408325222648
2.2604453050968543 19.762275627476285 0.18834473616896574
2.2309914847403096 19.653674318829424 0.1882055167266457
2.2099268933644716 19.561952247262756 0.23160960924202517
2.1947558620755987 19.50264174168066 0.23069432691550507
0.8917245936111542 16.276451977593172 0.2460275324358941
0.9060156806525315 16.246217900655154 0.20590668376626287
2.1827819595837 19.452596544879565 0.22134736246390074
2.1652047644841756 19.376410559126466 0.2342059915981199
2.1405434716335074 19.27364837064888 0.22642282346783582
2.1170210236915707 19.176245489480927 0.2298775055870888
2.0931468038312415 19.08909056843144 0.21910146680933695
2.0867322272132545 18.995292929827702 0.22434451841426162
1.0222501929683325 16.266755110129942 0.21904330688289592
0.9591535286231225 16.21943048710423 0.22023994257842355
2.156170180932831 18.977269520308205 0.22273687361877975
1.8473185026403796 18.05901009204632 0.2010376884464714
1.8258435541846256 18.00121946817542 0.22790340623980254
1.809272330962342 17.94828624689895 0.18818906349518977
1.1071537274957515 16.258010299325928 0.22194367105028612
2.2822605835749235 18.955983178250655 0.24005559685349664
2.239251530584004 18.955570507930464 0.22006157757451172
1.826684940827571 17.960018836919936 0.24575190360943994
1.8183019451974145 17.94357859389683 0.23529510549840554
1.3182040930565355 16.465856685624573 0.17679553666365078
1.2171178453111442 16.257393525372972 0.2521901771715348
1.2005454162813467 16.22794654514402 0.24302511453683323
1.144952211038081 16.15582408506755 0.17747050750909282
2.3389479584665747 18.948280810763297 0.23100784031751215
2.3505365527966866 18.8655697921006 0.22756603714212525
1.3829532357237713 16.29641843355339 0.2598476993398355
1.2292494998878292 15.951005889008464 0.2288895245785848
2.4025778543546137 18.82694347233376 0.2240002513962192
1.3831845303409458 16.223929584049063 0.2260306392192088
1.3650280824868917 16.14441222559232 0.22128014927210793
1.3410080755429943 16.053670940898677 0.22037083244992706
1.3152294304973229 15.952474406583711 0.20246773088851372
1.2911098728795203 15.852661719095215 0.17626863426252232
1.2646120287607687 15.738865846178545 0.1943443393707312
1.2433125243617162 15.661993427537302 0.20101886491071635
2.493674116982091 18.863590763943474 0.2283561503854401
1.21761937081551 22.61071490510338 0.3738041200958575
1.1964498971697513 22.53567553474097 0.37106419541138524
1.1734917567359426 22.432593937454833 0.3672859863009631
1.151710307004431 22.345444619262963 0.3641081127069409
1.1317891150886845 22.25011767731109 0.3606188537696469
1.1042852238483083 22.1469788221965 0.3568654135035097
1.076706938189039 22.035738780844287 0.3528201792001548
0.6845828202138682 20.67052519061758 0.30437592943480923
0.6325571643896641 20.586572345933163 0.3017361448900911
0.6146745421640178 20.49545276676555 0.2985721077844349
0.5951783238215793 20.38941696575961 0.294896155490301
0.8180576250425029 20.77767449474505 0.3074159953182341
0.7495352469714178 20.65625111744922 0.3033759772468255
0.572878050942393 20.278633092608672 0.29109479825779494
0.5564730795532699 20.186100175415902 0.2879159802681765
0.9129541365152772 20.76342963287014 0.3064313213241076
0.9062365546736477 20.757157623295786 0.3062236669271457
0.5253657622958681 19.679628438651253 0.3514507255278904
0.4939103175655225 19.578556811276083 0.3450439346601651
0.4693370883722895 19.484498847099484 0.33906820876051735
0.4557774605715851 19.42819108765704 0.33549909817826873
0.9936305294568866 20.755318293545297 0.30584980430915276
0.4707182681828527 19.45859969082129 0.3372366824962827
0.4430133565866047 19.376385411333302 0.3322580225356327
0.4274223074046629 19.30070704977306 0.32748345277792346
0.39761383132546624 19.17368390021138 0.33542875435148095
0.37619614554295155 19.090601315139214 0.3359592504831555
0.34599217023256523 18.988358116580812 0.32662038406384925
0.32005483493267706 18.8952085926536 0.32433777808857706
0.3035090178779619 18.795727016281393 0.3160365073512194
0.2795862245775065 18.70304177508066 0.31032353560554476
0.25649070747233005 18.624956261627908 0.28156475561359906
0.2771874450373675 18.66498042997951 0.3025684917735185
0.25413870522654336 18.590804946981905 0.3211033961457924
0.2299582991153325 18.508143894791058 0.3295808256188513
0.20825472721385918 18.404636797066452 0.33844167312698953
0.18427866306067586 18.305777905033715 0.3302190782561482
0.1539524492733838 18.208713657026653 0.32628566432268974
0.12707893851374064 18.11135655785805 0.32155495277108753
0.1015129605579278 18.011883590766317 0.32936101588273203
0.07627062831840548 17.919399790269154 0.3345683183627876
0.04789595740386854 17.825951444920676 0.3400936728954492
0.02025437150396181 17.742030826486953 0.33954150454016085
-0.0022487701155673445 17.67673185941402 0.3365955947267596
0.08372338845378302 17.871931905962136 0.3661864390574167
0.061375186033657214 17.82208124840045 0.3528733729701623
0.02521809531161645 17.726674687369567 0.35242302106013595
-0.005729211076933138 17.621146471436628 0.34850673381787356
-0.02275511891052906 17.51654429288166 0.3503153869001701
-0.047265250910684564 17.43252692653499 0.3262835029820302
-0.07045158896858639 17.33341564896883 0.3252835934861943
-0.0969242153533787 17.237044766976435 0.31925470619304347
-0.1180773956969019 17.147144703432318 0.3244417270142658
-0.05412339598516924 17.100521865423204 0.32072143503027123
-0.14200525579637202 16.807804247265203 0.3274377038445709
0.040204765208978976 17.05325809341243 0.3313220008847078
0.045786068031966276 16.992434188685326 0.31562310961533746
-0.037881853435523416 16.887868199037797 0.31822806981209795
-0.07244388669220658 16.782882486358485 0.32138138024247237
0.061317876820831896 16.965879161774062 0.31475717090312133
0.016078152230132536 16.746306775689952 0.31655962358438855
0.012023108673903549 16.655418054706512 0.32280619312384357
-0.014788605000023658 16.556318466430678 0.33505159867527534
-0.03467268866202544 16.47814244696781 0.3384667101924854
-0.056956323655533714 16.40903179183697 0.32478386158104117
-0.03595059076427365 16.442119403776026 0.3507715034440573
-0.05706698028647561 16.362180263350293 0.3243888152526114
0.2150841062401866 16.592932804092968 0.31519634886519876
0.31661290031264056 16.60534263809409 0.3610976403812313
0.27990187207273676 16.587068004188637 0.32103139210962456
0.37871942505489786 16.57920322646758 0.35885864329479883
0.380244367105529 16.553616539677257 0.3130541432585573
0.4386275060483318 16.55422533282171 0.3571539558365939
0.46259878357069295 16.49612942919268 0.32562047550683165
0.501941755533471 16.432510250324366 0.3385527647965502
0.5084800032229403 16.392638773339336 0.32136826617545317
2.1702132518026254 20.521746613946213 0.30517270752998177
2.2025717004798526 20.46233627719081 0.3037090627675817
2.307724119209738 20.445725038340377 0.30495310964245
2.280742944511256 20.441465870299368 0.3043394203444162
0.681455409252946 16.217318473955306 0.3299484759876565
2.3761915037835184 20.42432388529575 0.3055160355582594
2.390289999752258 20.38674857702307 0.3045852298897201
2.390125631816499 20.29969936156118 0.30181004199931244
0.8584177325100368 16.283295527773188 0.2987776374707676
0.8120969382666183 16.258541961246404 0.32182509025346917
0.7349233146706596 16.17101449045521 0.334120804463319
2.374711364450472 20.231556149831626 0.29935218529776375
2.348809055598742 20.13167265973614 0.29568959131468403
2.3316513717548686 20.05183549762183 0.29284099575238143
2.3078719033779524 19.961761897721708 0.2895434076975091
2.284747996112393 19.865884875642315 0.28608895998671574
2.2578876115027136 19.75192521374506 0.3054285354039961
2.2388956050311366 19.661375895125115 0.3307445320001083
2.2147810034364106 19.560720274905393 0.36260322726914207
0.9225167601196571 16.2833683505134 0.32109076284802823
0.8741597258518733 16.269648551615095 0.31492836249216744
2.2079655949531585 19.52435257768055 0.3601353465660755
2.189102404217034 19.459069199212287 0.3554485040154444
2.1710463180537642 19.37336864565537 0.3495929525997729
2.143177996522084 19.26277012625892 0.34188536115446716
2.118791890570326 19.162344581349192 0.3349686083567371
2.0957510473714756 19.07353240433443 0.3288274122072443
2.092213902866905 18.99856194587758 0.3244152407045127
1.0150192446753135 16.268734840586514 0.3186040451921202
2.2127287636445834 18.98238399056101 0.3294306119149416
2.153300121263176 18.984567025419693 0.3265915327304576
1.825036679997217 18.003213669279596 0.3345735489209487
1.810858461076399 17.945402588601333 0.2937023992715338
1.1074002784765005 16.249562273211275 0.32286411783536795
2.264311175977337 18.970933961174413 0.3315048509390854
2.2409446053502933 18.962114720693727 0.3298302075992415
1.8350753385691012 17.978644771080596 0.3347719192745116
1.8201808762990401 17.927521488731898 0.3562260084623715
1.229316421091266 16.253730325087187 0.3134589779282093
1.2062179949332488 16.229795334860505 0.32485014085886366
1.192109464881463 16.133046152290554 0.3609190453426286
2.3438557228058317 18.957599406604906 0.3350885191317623
2.3472458724567966 18.862628268360517 0.33060624220486456
2.33548307910235 18.784570292448148 0.3262264928781616
2.3086511638453926 18.68422484023572 0.3200283251635861
1.3492693810212806 16.38772100406059 0.31146244426268216
1.291396392557477 16.09027578813288 0.36892540326565354
0.13321960891029927 13.014427296127895 0.3300164624513301
2.3488735678287282 18.776262959180734 0.3266191850905867
2.3260879847826397 18.65187172268073 0.31966307353035706
2.2870020268324973 18.579565979115788 0.3396146783436837
2.249673086103314 18.479425219916777 0.3665340420637339
2.222548573426937 18.381351488967766 0.35797193204190453
2.185777005624891 18.31270287818073 0.35043267312919235
1.3863463223878023 16.21935436754276 0.3305628807110894
1.364715028525288 16.142629047720064 0.34230978115261423
1.3394082289006368 16.040721709586702 0.32605891821527205
1.3216369481813883 15.988115770922109 0.3054628917844819
1.270363912447829 15.84479806049857 0.288591442688323
0.22498722151557782 12.993042887445693 0.330237484575718
0.19626353030109678 12.993258338395327 0.33038005059147363
1.8765176902845853 25.373505173223414 0.47599337852302503
1.8256697034286549 25.157938881828535 0.4679646429742589
1.7388736668104887 24.836205000744336 0.45599172189153575
1.6865800164136457 24.83673488529651 0.45588804273518163
1.4558041218926776 23.57895560128631 0.4094479059417739
1.429875831932548 23.51075814714525 0.4069118595600507
1.3998773985553425 23.37871168783496 0.4020488291092717
1.3691968477997185 23.23657517858265 0.3968040925963808
1.3417242969150949 23.130255434889207 0.39289500641155295
1.315766937218391 23.035737611828353 0.38940885419167504
1.2890443954668758 22.917217628802824 0.38505864226312264
1.2639126968767773 22.80449276072178 0.38091137913100553
1.240117955567814 22.70169019656158 0.3771452913804063
0.5191885507489429 20.773026081924876 0.42884518327550164
0.5618588984608686 20.719516487148887 0.4244220487553474
0.5935053402519994 20.645658523966123 0.41872863087103906
0.6870451614204929 20.681160793016495 0.4201345675771153
0.6289704896152339 20.633899911704685 0.4174335184968032
0.8266090280140294 20.802061279462286 0.42756513815448305
0.8052515885901949 20.791140164828132 0.4269306861913454
0.7498789925141496 20.673232034752303 0.41893772461439877
0.9250474057549307 20.769932610273706 0.42469791973362353
0.8726977490300788 20.769887705599274 0.4249511018952134
0.5165883415401564 19.668226114054054 0.43231489900213843
0.4940376675441879 19.564874862263498 0.42217591142428923
0.46992532051008074 19.47399318537042 0.41349151994512257
0.4475795338791101 19.404869586507488 0.40709429230545124
1.0313304812405446 20.83268518122187 0.4288764240635111
0.994840752788116 20.748817596291904 0.42292956181955327
0.4801250052879176 19.488715351040106 0.41468718586773945
0.44542986603434565 19.368252511563934 0.43217400596704353
0.42842140643736637 19.30336768621806 0.4324558138477597
0.4006479915104346 19.186898231659235 0.42037896819571874
0.37754806787955575 19.0909021012204 0.4287465120604164
0.3481626430140956 18.986460042339377 0.42961507206543786
0.32425722518952305 18.897308167354385 0.4341610029723771
0.3084387841235563 18.79188988657415 0.4232154489599937
0.27990302873156814 18.70330468091602 0.414851461795894
0.2571890811270887 18.628295060913416 0.4042997935319849
0.307970356246943 18.749172126049217 0.3898916787921763
0.28307265188991704 18.683611122392048 0.40083604101768316
0.25929764909621045 18.59809644074233 0.4296670326400995
0.23632925479904532 18.499449156510885 0.43533068035621886
0.20863270533994105 18.400213557103008 0.4256702101547873
0.18327830860423366 18.30088845771501 0.42338900428805937
0.1634526269544747 18.20761956323224 0.42494467815171405
0.13800551293880847 18.11024484294344 0.4164252780130366
0.11287748764495031 18.01699062143491 0.41889817172698507
0.0849783517465772 17.91846523261142 0.4251006081763132
0.058483808431256556 17.83809599341938 0.42955307602087484
0.09163337252145831 17.900030133380046 0.4193425785008683
0.060918791613421175 17.811908972886897 0.42035012026266505
0.032893364488014054 17.721708111619595 0.42795735492256315
0.00880756052345677 17.627023145384214 0.4290581408866377
-0.017293490051196958 17.51720377187107 0.42334823443335673
-0.041398304214637305 17.42709089592002 0.4172011099120074
-0.06325136722848623 17.33029627163461 0.42512327160633795
-0.08473099125540307 17.236074320352536 0.4311352349188892
-0.10984843146397161 17.17042974886436 0.4143848991592145
-0.01545389655070939 17.15838956486196 0.4146245216942976
-0.021783730830049475 17.12867570424221 0.43356923914215595
-0.1399908739072362 16.80570034863748 0.4130180475101318
0.046398608803509545 17.05976269223892 0.43490059225318944
0.04778341534279207 16.991398381593378 0.4172216143901803
-0.08054526860238509 16.861004311870477 0.42401080492815757
-0.06357512610807725 16.783001064700432 0.41963537120070704
0.072003330363125 16.97745570275374 0.42565875401030184
0.01640130630335479 16.7502133840771 0.42554193681465113
0.014905464933579138 16.66646926812565 0.42104703658349235
-0.011207203452595182 16.56796030550845 0.41832215806586653
-0.036540742914464186 16.476617772454418 0.42242461506146317
0.003052184728864926 16.54349557409492 0.45142681042650035
-0.032571728033544245 16.45002093876622 0.45184238590921666
-0.05872104670157596 16.361280301848907 0.4105744925620356
-0.06863513145946265 16.30458570793498 0.41540343725516876
0.2106836185673654 16.580631767273278 0.4119847411960468
3.5142828609302805 24.954344445333533 0.47476503852540797
0.3185735736426475 16.62114705426018 0.4402542867080143
0.2535728005384629 16.586389938814836 0.41878731302657246
3.424558430449573 24.52814417912264 0.4589891292908775
0.390187296890815 16.59111800426407 0.430468851599686
0.406370943933662 16.558557191300753 0.3968263186281869
3.4977816578496785 24.500396125719845 0.4590752218146653
0.4613325612495608 16.55860978476343 0.4429343229661092
0.47917125829138607 16.507725361231852 0.41866999533081106
3.022335046818122 23.043076483945313 0.4028473078278928
3.0169967362751233 22.908768583267253 0.3982374801527851
2.99113195666264 22.781861620881045 0.3935773259927739
2.9671202314279244 22.662784492220034 0.3892137959286439
0.5189393617513096 16.44427869132642 0.4269777081819462
0.5209552270411298 16.39002150446274 0.4022424904343266
2.2135784001990215 20.520128579377136 0.42347672645746987
2.201639830801713 20.47364253049114 0.420048741315802
2.2954318859177207 20.453176248984757 0.4215648350755304
2.273265990698974 20.451680970893797 0.42076376772480817
0.6727955002511024 16.204715787355756 0.42166048274643064
2.3841107336642056 20.43077028523954 0.4230158417879794
2.4021777334079406 20.335816132785165 0.41760160627565723
0.8635753678719061 16.289117695482137 0.46238522473707716
0.8242350458598438 16.24884666364855 0.41921381926313706
0.7539595577014396 16.182005071541905 0.4356501667719944
2.3809208437724676 20.242905445022387 0.4109966932235713
2.3587504418094047 20.150286490985213 0.40439035109583327
2.3309407676007785 20.038322282921694 0.39638593078405765
2.309890418810999 19.943213851597296 0.3896975901685995
2.2843533930932747 19.844191237735924 0.3826189358390288
2.2634449473324736 19.765695508120857 0.4480600657466729
2.2385374603595745 19.665134302401476 0.46127583791835164
2.2167589532046375 19.572333155984502 0.4515629189030965
2.2002889763562683 19.510688884567468 0.4450097492486882
0.9250043113842734 16.29109554470918 0.42214042631945975
0.8782578406546445 16.263311448921336 0.4158156523006829
2.1885656406324805 19.45758781324772 0.4395275525195861
2.168215435342109 19.36833667106247 0.4303038445635316
2.1454241964606933 19.273149500796713 0.42044737705516105
2.12336450596188 19.1822969628947 0.4110706289050543
2.09680207739292 19.08746689749914 0.43172147384657966
2.0906383244845905 18.99980424210124 0.4246712125393779
1.0169935410600242 16.279728312571432 0.4205334825967906
2.1600910518288745 18.98485801949708 0.4331753645930953
1.8396034119011602 18.05080361781509 0.41950706574528446
1.8178726611714022 17.997793847346 0.4255085312337947
1.8039006691509627 17.93804627013521 0.42397931829739266
1.1039821604970244 16.239969116929423 0.42643005189409694
2.269920579525073 18.968278860789614 0.4295251585391354
2.2318322014038507 18.96317097087739 0.4357948565214874
1.814760902458655 17.929806370714406 0.4375644272373182
1.333762713555728 16.440152943488513 0.39870696682048795
1.2306427328101257 16.251856313543115 0.38832647445723817
1.2120216889096134 16.21883863301353 0.4174461901165476
1.181367370221804 16.140648925594324 0.4345138795928017
2.34623310766676 18.95879500549637 0.4084990230297499
2.351886850823834 18.862592426136164 0.4491854068325693
2.3257232606638176 18.758627417665984 0.42930081072263737
2.297403558029669 18.66648928063169 0.4236715025716422
2.2804029713640546 18.60495769485544 0.37748699138621417
2.132603344612005 18.27329327974202 0.3947029428724226
1.3872817003677702 16.28445280966016 0.38933998482221344
1.272775233025132 16.18544139191444 0.41596418656286976
2.344074284756083 18.74586291733009 0.41984680806340186
2.3095272901615878 18.654851788556805 0.39955808643907664
