ply
format ascii 1.0
element vertex 843
property float x
property float y
property float z
end_header
34.59873681146277 57.620837097646564 -0.12608587746088903
34.46395948891746 57.19560157743644 -0.13042676341319737
33.770605668881636 55.456817650612265 -0.09681285826377078
34.73385764249939 57.59220792494458 -0.12909018934549465
34.693460942061996 57.5985637409934 -0.13153541052953427
33.87192904437053 55.430998183415504 -0.09254444918601387
34.79728711166324 57.57040369482953 -0.1248167741273679
33.976604264655805 55.404372510114285 -0.08816279013905778
34.90013659788403 57.54958524550346 -0.11862146529544039
34.08326477824328 55.379594584963826 -0.08365477158661229
34.06671931413024 55.382467832819586 -0.08438171016256264
34.99998977690764 57.53240322727093 -0.11290896044878132
34.87690793164696 57.10362550250321 -0.10149609750571942
34.167575846095865 55.35743357913605 -0.08020294502523911
35.091039007530775 57.51252634217023 -0.10766875228318011
34.914564806817 57.08227380951967 -0.09846031213777529
34.26905855081607 55.33134392868792 -0.08816422063519759
35.192150637584646 57.48479346351472 -0.10176097622950092
34.36868944758085 55.307682589457734 -0.10132706750626051
35.2915414444505 57.45737392192968 -0.09613906674623574
34.458319210350695 55.28517500653863 -0.10526693574631805
35.36723413229422 57.43395649187232 -0.0918649332279861
34.55755386499192 55.25979608301042 -0.12901461658770846
35.46634450175049 57.36939000887699 -0.09060083926024089
35.34155902341338 56.983252592295734 -0.09976469723479606
34.63468457989733 55.23691792128313 -0.12371790725448908
35.562071931584654 57.33446392615135 -0.10979925656808824
35.6203232137761 57.194150311603686 -0.12853013401300317
35.797252748018956 57.32829956924063 -0.10684572347650845
35.779748047557035 57.28863737674621 -0.12999068443024764
35.6926589756818 57.148025319419304 -0.09237610031443481
35.67471762676388 57.07010662172334 -0.11510931252773043
35.8725917339665 57.30564792248036 -0.09764085682307115
35.8132458163338 57.20587772451874 -0.08355961803210958
35.805679412974406 57.127968787291294 -0.08735595851704264
35.779926656035585 57.02907898109471 -0.07992945840808183
35.765763596637385 56.88403930109093 -0.04763041690392178
35.373742919461414 55.85547256427877 -0.14640581005516357
35.94171358931224 57.28124584220818 -0.09981833448799882
36.11976338836379 56.744511030952765 -0.1134685105124956
36.11557789894684 56.73422972124147 -0.10756979527487961
36.32520423816225 56.988026582892786 -0.11782227140288543
36.29987289788558 56.953880721357415 -0.1079882215289376
36.267474818995304 56.84402595374118 -0.09897313769094895
36.205512801007316 56.73210895052125 -0.10389075889832047
36.17450785403158 56.711942094641905 -0.09413419475446835
36.404706488961246 57.01036778302629 -0.1011913810901202
36.36406439516975 56.96290877942213 -0.08774242803825921
36.23645144556293 56.70440703309552 -0.09002266442335663
36.23409327293537 56.691042677997615 -0.133421998378493
36.546894182537116 57.00931955143841 -0.07098374584162598
36.506419393409786 57.00465324895276 -0.1116529473401178
36.62824399646069 56.98138184740952 -0.0804563522025827
36.601296074362175 56.975459980807244 -0.12040005017147935
36.71044887335493 56.95481267087347 -0.08397517228278771
36.69125929791178 56.94579745389806 -0.13547978612908035
36.80104794314883 56.92732161482014 -0.09417376318215986
36.81098771793543 56.90215407581853 -0.1390455731425715
36.903045703602864 56.91300094742242 -0.0944841829306513
36.989427975678105 56.87572985319163 -0.0888365234893157
36.185624906307545 54.63183643415662 -0.10116897442498791
37.08947615333839 56.84517579434408 -0.07970580432416434
36.19575511354998 54.61601459858267 -0.09699522013553971
36.18899550417449 54.542680045343985 -0.11252985953767063
37.24367508982298 56.84682792483499 -0.11497053323439943
37.19378614403941 56.83806320444524 -0.07829245922063975
37.2635182994122 56.74591832430101 -0.07162317602507204
37.26458035804598 56.72282871605062 -0.08993872780368055
37.35762849774772 56.70888668082446 -0.09027442066887022
37.30996606040313 56.70793964453397 -0.11059102008205558
36.11103904774548 53.46768419139907 -0.10705744124321215
37.45509724917952 56.682523792776045 -0.09495767585448354
36.194020768918435 53.45495230602929 -0.05789552727093834
36.09786463303049 53.04344178260869 -0.0757301964943115
37.55144488446115 56.652383791434175 -0.10213502720961101
37.64860307092881 56.62527683757002 -0.11010988977626608
37.742754914716 56.598878050601854 -0.11099561395053398
37.74255415597383 56.48569589580791 -0.1172519558930956
37.71615327039039 56.401269418647445 -0.10643347369648382
37.68357819987089 56.305775119100744 -0.11838969009183382
37.798087295143326 56.5712887367278 -0.0907452918958463
37.76617402009991 56.49129607793083 -0.11509879820286462
37.725105453388984 56.38657076856558 -0.11094459347018323
37.698975052648194 56.29591022008935 -0.10025151933939903
37.67150299067422 56.19873668716416 -0.09891804483964228
37.6526311828341 56.10232305094641 -0.09728011138429936
37.61996522852069 56.005884419256276 -0.09119733698240379
37.58368276654819 55.91007753127275 -0.0890301127183717
37.55697335506702 55.81599837994533 -0.08879312506896526
37.53508506182582 55.71851489871105 -0.0965302856294662
37.5144634432627 55.65415877418146 -0.10067781509047671
37.547765838978755 55.643130697979494 -0.06840189906125355
37.610853934283114 54.477294087039915 -0.08781608666953239
37.576048040263515 54.41573916497302 -0.09033164475074906
37.539508099958034 54.32541421878795 -0.09479555283729617
37.50167449043677 54.24747589171817 -0.09859189449712512
37.67079259885217 54.477156255543235 -0.09026488369981767
37.56151925650539 54.290885192595795 -0.09786280785497994
38.20802489357627 55.457547706886444 -0.09940727443779035
37.77660325399045 54.43042532595221 -0.09751685792531063
38.31078571253963 55.51872398943017 -0.10629566210376792
38.281453758077596 55.43168338209733 -0.11084039986445152
38.263662421132665 55.33771567033343 -0.10441620878408842
38.24400812969808 55.26705217433064 -0.10175164391899777
37.88710114482683 54.4148666172284 -0.10314472912621052
38.315881641398136 55.41826849660534 -0.07739027242615022
38.264482015585784 55.28671975950145 -0.07923944666982345
38.24900169151857 55.22309816258239 -0.08082826777105062
38.23328076102062 55.130446802443 -0.08368976721425322
38.202248410977234 55.035017497942185 -0.08610304027698601
38.17061470267619 54.939437800248335 -0.08876069573106182
38.13261261477366 54.84647996329032 -0.09123500123972125
38.10288497831049 54.75238832299486 -0.09443720254891154
38.077873542040564 54.65336812233731 -0.09837015789175824
38.05554240819901 54.557888062805546 -0.10247691599588468
38.040222280461286 54.46187157661288 -0.10714753531628493
37.98202658549587 54.41071315409901 -0.10750397176773413
38.03790681250051 54.41411131584135 -0.10976942494869929
38.027700677352165 54.38421847184862 -0.11104973454039369
31.72029360951494 58.76270037555558 0.029364428333585185
31.69983439764915 58.68280448967635 0.02790745711377368
31.699197489033907 58.59242060783902 0.026507227337941835
31.099085084452284 56.3314458359174 -0.025306148351476182
31.089404490952166 56.25213487624456 -0.027307912352951283
31.069978190588472 56.16158792667631 -0.029747176749965673
31.192434239298667 56.096426134123774 -0.029453922844388344
31.310648120342144 56.06924771140389 -0.0283152277181528
31.417071723651336 56.04392432436779 -0.02731529607979534
31.52156164823565 56.01933238255232 -0.02632418986999599
31.604263000232375 55.997053359539606 -0.025612517449990727
31.842443012264173 55.94992839670745 -0.023145588606779788
31.843683799117954 55.87873466135197 -0.024878416230448827
31.821670782822995 55.80859341454229 -0.026958625808870373
31.8679882300126 55.91692958957741 -0.023567352859620166
31.838394470229563 55.83207790900788 -0.026117723560346237
31.826797133319932 55.74476641558709 -0.02849069933064298
31.960020828959077 55.6739897464034 -0.02826372443116791
32.92942465333435 58.0230627774177 0.03272495123058855
32.03827847983276 55.63693994781245 -0.02802482971243471
33.07553648222934 57.997322443112076 0.03406724903504604
32.134432987084296 55.6232875815035 -0.026912599043089
33.14210914403691 57.98389550412456 0.034646372708953654
33.11128783444058 57.98890315214851 0.0343533620604711
32.22680408733759 55.60314533182257 -0.026028788467328007
33.223614945648315 57.958880397080414 0.03522167793907527
32.34524578629501 55.58458620704493 -0.02470865910528547
33.335826192818914 57.93434279681871 0.03615127732662854
33.448328729461664 57.90650302765265 0.037006721887257926
32.49152234735836 55.574858772255766 -0.022735502478661004
33.54836055828751 57.876633362319374 0.03767763166952712
33.61437143593401 57.855925786461476 0.03811751824587625
33.72243635268722 57.83920767835609 0.03902803646759212
33.82993178378993 57.81041270249331 0.039768328530474184
33.96364088353622 57.777943214145594 0.040722003446262034
33.91519100709715 57.79032644678273 0.0403796330341038
34.01764376685527 57.76718004015427 0.04111825637465366
34.12281948360817 57.737434041210555 0.04178749742158322
34.11069452513718 57.72028001585917 0.04145132890971495
33.323383945884046 55.58915711667337 -0.009704011632532664
33.3205483876113 55.557267826695 -0.01058259052488783
34.190164418516154 57.72498164812178 0.04228293613737494
34.063868814562156 57.28881871328388 0.03525816756501904
33.365043265972815 55.55945053850063 -0.009849446868990405
34.330516766493105 57.688690302756264 0.0431717580974432
33.4890065394266 55.52500326586024 -0.008875271026942966
34.40340636386623 57.67121746695858 0.043634294016774655
33.58197584240652 55.50091387032966 -0.00810493924032861
34.501737926061544 57.64561502590086 0.044218418520474034
33.66845125475999 55.47877762746292 -0.007387059746472149
34.606959566847166 57.62320466799821 0.009883281341457509
34.471215701968276 57.19373329987702 -0.003453378321167669
33.777677986639304 55.45130159903225 -0.0064748683657878114
34.71148488741624 57.60019305296697 -0.020678636022587044
34.70234561380816 57.5954395088478 0.001320242407913133
33.88882402648487 55.4226193213752 -0.005576505539252458
34.80164627281392 57.575240191632126 -0.003932831666736733
34.77921888488259 57.57095080745794 0.045729281581315784
33.97459546170262 55.40266380216991 -0.004830727526918682
34.8915156602571 57.55285792237524 0.005096794883283309
34.10379505060057 55.37037953294645 -0.003782878055401298
34.047147243519824 55.38269362398136 -0.004291901657554581
35.007698703293016 57.52100778760877 0.011517409753916283
34.16884196841868 55.354345454963536 -0.0032574008353733336
34.125850348468944 55.357564384702904 -0.003812207916648533
35.09695633426476 57.51306370640416 0.006348498653311566
34.90624380846976 57.08609080742073 0.013405918648937754
34.261606412808625 55.329780957009824 -0.0025655159526950244
35.19804036086415 57.48561644085458 0.008600835634136272
34.36509079247869 55.30461924437858 -0.0017441579958234754
35.29261836570352 57.45491872521216 0.01666105110539208
34.45881658285215 55.28190225626256 -0.0010136385580540724
35.385521744661034 57.429204681265766 0.010491501310410226
34.548404845264805 55.258574794508576 -0.00037921164210806546
35.52906585122638 57.40472530497445 0.015562187519596232
35.47732450254222 57.402936367416636 0.015041000485871328
35.35180382168506 56.97386350773104 0.015569818236210259
35.58243004521506 57.38430588426946 0.018065106252592084
35.61387823048696 57.35353963173525 -0.014896021156411324
35.683465235025814 57.36014894622958 0.049040925178294725
35.62332283620928 57.332286925857304 0.048629415118053465
35.7939286523962 57.33260155071253 0.03577484270533052
35.875539368198986 57.30768217946319 0.020850079969260693
35.837767562058765 57.210928431935855 -0.007872447220151069
35.832876040143326 57.11710793250669 -0.005545482546385885
35.80919556051772 57.01943553141074 -0.0034636127065497957
35.75216839194098 56.91161132761449 0.04573787469784507
35.94350328549313 57.270000732839705 0.018469946343310284
35.780800880731746 56.863270282485644 0.045469655471662235
36.12450043128053 56.749272915096356 0.01690091103203223
36.11692465263731 56.73300031811037 0.007777826851481193
36.32388335926681 56.991548691212785 0.003302714832649989
36.29632234543355 56.94961449565208 0.0045255619212531545
36.268587997714995 56.843356082562515 0.005309239867959781
36.2059352946608 56.730455801829244 0.0077759185819361865
36.17583242502367 56.71524124014892 0.007024427825960966
36.44018608552055 57.05189927598855 0.023089307923465363
36.39777601817794 57.005983418158024 0.009131570656052149
36.344523926982255 56.97262304274791 -0.020940165613951386
36.23819639439639 56.70584965133642 0.009175911694370723
36.53423948942513 57.01368932909075 0.03683509349431094
36.51118809534365 57.00768230543446 0.0006247977575713076
36.6184568594261 56.98506489105178 0.011391064091275688
36.588204035071804 56.984530046653845 -0.013005350701958893
36.704700497127746 56.962019263523416 0.01765193918004225
36.80131140415326 56.92966990059994 0.018673086434630184
36.80474735932566 56.902270830836706 0.043613104145127146
36.90468729829729 56.9151997884321 0.019356397559397095
36.99599504865211 56.87514242668684 0.018110902586712815
36.186721184702485 54.63818537539302 -0.0019460772319035147
37.0914822572472 56.84650312615387 0.017028002517415458
36.19672279457012 54.60692969495767 0.02095974673133255
36.188216232815975 54.53873956454405 -0.010717738381788952
37.23883475850901 56.85235117160478 0.013267431203648636
37.19290460631462 56.83741164490276 0.014398486591374993
37.27110301214119 56.75422848135156 0.0250636684839326
37.26687490224376 56.72157668892427 0.03710213549932262
37.36240800055578 56.70045225897428 0.018300686921992215
37.33966993481168 56.69763561960742 0.0017072284358331802
36.11741032599564 53.46467426072758 0.02085578857753856
37.45376650441085 56.67770014711658 0.00751820476863134
36.21838869495801 53.46349671170795 0.020487920966117762
36.11931181015204 53.318218556270814 0.019565468906169253
36.10858702023517 53.10432718244072 0.01773799158783454
37.55176379588656 56.652307436687096 0.005560316404032581
37.64857154763781 56.617986733534075 0.0017906767677191987
37.74686125188146 56.588992864782824 -0.0002771282760664767
37.74169242599285 56.491421242559824 -0.003516752994056571
37.71240068635115 56.406235193687145 0.00650540823035331
37.702582536237884 56.3490506395917 0.02566495770597846
37.65031850830006 56.21027886429239 -0.02442058579859828
37.80024461137614 56.58702335439861 -0.0018163547429188992
37.759574422052005 56.47505921649386 -0.00833233210099038
37.729026705528675 56.38839576763253 0.002229607568118977
37.702664707755126 56.295141456142225 -0.001010977568344243
37.68123795733672 56.19071280105176 8.86054115928625e-05
37.658567301028036 56.096001512018844 -0.002380695454987189
37.622647868332116 56.0120250775961 0.0040697201333503435
37.58827555024736 55.90427740364665 0.019585761659823883
37.570434393605986 55.80893807671707 0.017892035101379045
37.551066632292574 55.71311853044021 0.007190144265515813
37.51859273292175 55.650343071352644 -0.005107015091216957
37.55255761279727 55.665382249139036 0.01495233303614231
37.548272725331394 55.64668909506481 0.01458254607597996
37.609383466562825 54.48051269994329 0.002870948844936133
37.58149714323329 54.41384893585127 0.0033267988593392306
37.54943073476161 54.31353079969756 -0.00037106511896459193
37.496513183133494 54.249598773321694 -0.002374977439396006
37.67264870065581 54.478662620246794 0.00992456901495771
37.56550373381018 54.29296950513823 0.03280249524303663
37.78513288137822 54.43095472610462 0.0032438451238057803
38.31141331766959 55.52045914772968 -0.002236917615443257
38.275491055102094 55.434212522272546 -0.004772743664137685
38.265898891411055 55.33509455618599 -0.008628206563185442
38.2444589201268 55.26737744357001 -0.010213216471487735
37.88954799020213 54.41535081369461 0.006077213172624676
36.44127092816392 50.52373628165536 -0.005563125001330563
36.39697884678949 50.482035702518004 -0.005833732924704821
36.35263742294625 50.422643828081206 -0.00625239708599673
36.333697451055976 50.298625312776025 -0.00728832843323135
38.26907859938328 55.304472480382145 -0.00958998481132177
38.24401492619762 55.21452063594095 -0.011800365458046844
38.240847621717265 55.1258437037889 -0.014468033644772962
38.19705234831053 55.02677686116144 0.00621644102412805
38.165326273768166 54.94225739712983 0.01691548330057381
38.136300372356324 54.845358722964946 0.012097514200493209
38.1121956142336 54.74820040827118 0.012129697235922929
38.088948189048395 54.64979849926894 0.008291160175942794
38.06575513202468 54.5522529183961 0.00429193387774171
38.043247861938106 54.46161449336633 0.008710295884031327
37.98113096486009 54.41046599282078 0.0026408764351752573
36.61173542349056 50.71505516546332 -0.004177203320300901
36.54532240049174 50.63710170815902 -0.004759178864259611
36.47645655207931 50.55994807798304 -0.005312553462633776
38.043970194368086 54.42600394657166 -0.019781913284957015
38.033270748492306 54.39153466189275 -0.03577574226426487
36.8075871207652 50.937186228336586 -0.00242553933853884
36.75474953147982 50.8738407844229 -0.0029431401261522383
36.68408838680178 50.7986800623315 -0.003535134349704927
36.64457530394112 50.744375260874236 -0.003965713824419709
36.96526619868234 51.073623082574265 -0.001264435963513555
36.913884268144095 51.02833563221118 -0.0016616401747092807
36.845477478589245 50.97365661340687 -0.002124171322267096
35.53988259746862 47.31629706603973 -0.03067220554075395
36.98118663137519 51.08392076956348 -0.0011738290190110579
35.62636880333275 47.30453888225873 -0.031114453483836874
35.71579349469115 47.302849093807694 -0.031456596064681625
35.80132376590647 47.276942033407934 -0.03198087098506905
37.10048569823402 50.37366356472642 -0.007446384381606691
37.12097990116562 50.35848059198443 -0.007580147192565209
35.88946701834518 47.261499149375595 -0.03241122173428304
37.178848405032014 50.34959505161636 -0.007637607015856668
36.05485336096128 47.31438967713634 -0.032456751695712244
35.97830314952857 47.244248672730585 -0.032837283111797747
37.26898374232748 50.33021156979125 -0.007762053948566799
36.18768712610451 47.462060726577754 -0.03154217711655767
36.11430824565524 47.37764003207009 -0.03207645963656516
37.36075809567109 50.30177521858524 -0.007942537840129216
36.274967202784666 47.44696617624331 -0.03189314491204602
37.46345228471105 50.27742384920332 -0.008049345645324349
37.52779772672161 50.25434215059528 -0.008176183629959283
37.57549678033387 50.12970184514621 -0.009238342553225684
37.665776094650354 49.9123416494814 -0.01108369075130905
37.74793466406654 49.884580672269585 -0.011197417703218623
37.85121070983768 49.8594914625025 -0.011228168836621366
37.99394490682963 49.81694857044264 -0.011303750110064029
37.948838154213796 49.82307906374259 -0.01135454127354045
38.104549258470975 49.89118074229126 -0.01031931213128133
38.05301325945596 49.805902138500635 -0.01126083858803445
38.152748942676155 49.78191620279838 -0.011219826045087464
38.24766270781056 49.75592266155655 -0.011189541278974119
38.34830227406578 49.730204711121736 -0.011119921088649579
38.60351965021748 50.063536039680734 -0.006912317186540645
38.43926023104249 49.70233300493576 -0.011084153189740667
38.628973598132475 50.05441987983315 -0.006892522827721598
38.5391729645427 49.720285422205805 -0.010551063512873438
38.51038039447369 49.702269187734885 -0.010834535304130519
38.63423432479689 49.656694436827266 -0.010812840554715722
38.7997458446004 49.75705323798694 -0.009132237404601756
38.79747661941101 49.70202240419321 -0.009697289901319933
38.73333653236421 49.62151185574574 -0.010765395002108033
38.97353506395661 50.01715232764496 -0.0056699205322482266
38.91882199356936 49.59091129056482 -0.010278529747155665
39.02167987523957 49.55398047671531 -0.010181041725533135
39.13490175307884 49.53172725030592 -0.009867263199006965
39.22992669888867 49.521089076294935 -0.009505839929450352
39.310833434729 49.48761007220367 -0.00943431232438903
39.40364609627012 49.462676774385656 -0.009203994900952209
39.49289677720084 49.395399429657765 -0.009426174502108906
39.59735569050096 49.35430080132278 -0.009279313822678145
39.66988943839413 49.34700252988057 -0.00894290713696555
39.785268501445735 49.31681871792734 -0.008587672046307296
39.90231257766752 49.31389117467231 -0.007908403148580434
39.85992962854416 49.31088275493261 -0.008199980934812473
39.98602218238168 49.2961693064904 -0.00757964465452822
40.07998243723552 49.26109277664749 -0.007366243468992242
40.17910769083651 49.22200614797303 -0.007153348148460928
40.272522713351336 49.19528277692003 -0.006832187043176202
40.36314872694339 49.17382534669977 -0.006460008707991419
40.48544844002612 49.15691615176061 -0.005802677730123773
40.58530069041011 49.17442244727904 -0.004891444981989526
40.79383517628806 49.30480209616499 -0.0018149039436849979
40.692979599267055 49.13319211644752 -0.004587221176457171
40.864146991718165 49.2964671422562 -0.0013745360527753492
40.76965225828159 49.11837017653474 -0.004194299391909795
40.96048360006267 49.30317857618546 -0.0005379382804880789
40.87112689394391 49.09560471201106 -0.003701037270373589
41.06074693061529 49.30717866314389 0.00031179471880682375
41.04195931174018 49.285874865419046 -0.00010162929637579088
41.31270436830504 49.01603636709 -0.0011954746348418754
41.38163536343356 48.9726896282514 -0.001158766345457446
41.45906454162764 48.94224224883569 -0.0008998440496717219
41.549301228522516 48.92190088347805 -0.0004034432399592086
31.18352698616478 56.10085568801489 0.15137083093984446
31.29775118340735 56.07402337129367 0.1484042015011862
31.40805568434508 56.04812690022712 0.14554317643145945
31.53090705025295 56.013852793617815 0.14221127629128602
31.832044359379896 55.94335181951849 0.1344138058328578
31.877137436100433 55.927549452210336 0.13310751345858046
31.852947427810456 55.85028175983334 0.13155277541524935
31.83725519196397 55.747866493746386 0.12920149374420914
31.968360385625942 55.67700096933279 0.12479766670791259
31.999490191597847 55.64719739767161 0.12342485871970901
32.14079437842955 55.61913076778541 0.11992915644241078
32.22115540988301 55.598754849060064 0.11783107867379469
32.28542145185851 55.58586864283444 0.1162408273105277
32.43371531566494 55.576002883798814 0.11307248511100598
33.33545200152088 55.59167764096927 0.09571134077769389
34.08402418604193 57.36165076180189 0.13489781477278354
33.36458298624299 55.56151521138203 0.09438548168490649
34.16108642803665 57.334455493423235 0.1326533461508851
33.47833255881003 55.52642948362262 0.09127842326158175
34.264362213552985 57.30870762618894 0.1300154867073205
33.57858643952444 55.50272602292627 0.08872519215109351
34.40045309589863 57.27030421947969 0.12640226444847807
33.665679771934805 55.480438393377135 0.08647047616355585
34.57950533138373 57.611846068632985 0.13585437141985304
34.506139186386484 57.26638463422152 0.1245154117225436
34.44995375195357 57.24715178473516 0.12476145429691601
33.75996944722706 55.45615792705777 0.08403168533224756
34.693543110631445 57.58742122887828 0.13325798541678535
34.58269878856972 57.233337240752185 0.12209594681243471
33.87082071044799 55.43106035298764 0.08125530653667482
34.82276803222913 57.562348965589116 0.13045490162008633
34.77674979637936 57.571366021127325 0.1314529217372906
34.67099895227754 57.22513896818509 0.12038267383152601
33.97475013226134 55.404411538360144 0.07858692801207204
34.85498143699917 57.55682035994754 0.1297847086510253
34.88995662361018 57.525912294927736 0.1281403326326411
34.80359906263924 57.16497987347681 0.11610733960296912
34.103496127643666 55.37192297665574 0.07530796032218823
34.049335030447146 55.38450215998329 0.07665954430347904
34.99602539456172 57.5090353681066 0.12602604343014234
35.00695661698818 57.479653882239376 0.12476671355258079
34.87586915193052 57.152997986494825 0.11454546450055653
34.180848244644 55.3530161143989 0.10743891075966364
35.08904727101254 57.498576597712976 0.12437785799291273
34.94478483182929 57.13025996116449 0.11265647701526849
34.910361700323655 57.08273506353622 0.11146653846153534
34.268747451320465 55.33185019568965 0.10814034405126752
35.19128153286176 57.46946788661686 0.12192690435190981
35.00679903410972 57.12374669593717 0.11146628701779471
34.36522627412961 55.30905008216184 0.10411011931198999
35.2867092689836 57.44136527523446 0.11963952372596892
34.46265003019064 55.28532663326623 0.10263001261219257
35.38452928532835 57.41462038786382 0.11741269881114089
34.56027112852072 55.26053961529472 0.09391725306923007
35.47394700379837 57.3925952410393 0.11551178737300521
35.346231083572384 56.974432321157856 0.10095895806363336
34.65870487354106 55.23564832387411 0.09582292236239229
35.56117041850464 57.38153837975068 0.11410654122933542
35.55648940779762 57.36258022573145 0.11340868912657562
35.58322823876912 57.26155911343527 0.10911263199992483
34.73309557965391 55.2122483166374 0.09374964100625355
35.677645963667565 57.347462060306206 0.11155094094750881
35.63083971042602 57.32959340997361 0.11130704103676381
35.66984149647874 57.20374904232466 0.1058820609765655
35.7793706256926 57.32415407148045 0.109643830158628
35.713580040568644 57.10618478979315 0.10152329240355112
35.87601484777665 57.28906791290399 0.1073762278708672
35.940724399191325 57.27414259928658 0.10624708708626768
36.116418582664394 56.73004845632144 0.10032762564157585
36.325352789044665 56.9888972482892 0.1130513141126131
36.29935358915887 56.949519608793324 0.11677278269886154
36.269419534762335 56.83970993303941 0.10399903371975563
36.221304905421384 56.732287129445275 0.10783829645004
36.17909295928212 56.70966279531445 0.09911741520349013
36.40553399300248 57.008524228439335 0.11408366104246179
36.357517035423804 56.96646279476646 0.1286622491523846
36.23653379289822 56.70204994541279 0.11060776376910603
36.23138111804402 56.69516140381108 0.11610020359428341
36.509128642999485 57.00518303746226 0.11544957506675696
36.62544663290583 56.97917175276797 0.11735429003279735
36.59538453353349 56.9801422681344 0.11294903119415772
36.70653610001538 56.95341375724211 0.11554732853340957
36.667486016515475 56.95637398169503 0.09075131724809163
36.80082082129797 56.92273916523857 0.11647287122052336
36.77895848420062 56.91033994761342 0.08917703903917062
36.900440646692005 56.9082752674363 0.11315050524278367
36.993413057894195 56.8723305624731 0.1123591935078864
36.19207757749925 54.68906127146189 0.10267223857418728
36.18768540751456 54.63342111549018 0.10564150560197808
37.08942811888028 56.84484951248146 0.11309113548842359
36.19300898780775 54.615003089808404 0.11765683751301481
36.193459457535496 54.56246810313161 0.08981981009904322
37.19448254400894 56.83174417627278 0.11368575163148475
37.26940450571701 56.75335680934138 0.1176344519354148
37.26269940259328 56.724110628758396 0.10507861014976388
37.360717852690364 56.70137296299971 0.11146225944979612
37.337591755114985 56.69971136238806 0.11275593091390493
36.112080748577725 53.43667592031835 0.09985102156432879
36.1146142676106 53.408621223491984 0.10054981926003323
37.453907106126636 56.673142282749474 0.10991064301142228
36.198974500120364 53.43431907368513 0.09934795656739825
36.19012890702068 53.39173327613637 0.10050572936689756
37.55453240965164 56.64813329753897 0.11281076159001155
37.65014169025275 56.62302313332146 0.11526362115436742
37.74646127475312 56.59429388806824 0.11564842325659672
37.74221170652076 56.49379537191931 0.11352125843678129
37.71355243736089 56.39599045250217 0.10792462129234928
37.685729205100756 56.338748174905504 0.10352221388863383
37.759769552842585 56.47378125983057 0.08280793557034305
37.72729320253239 56.394851294675114 0.10688201659799831
37.70181057728802 56.294420095226755 0.1035870642707207
37.6828941406984 56.197865413611765 0.09699026159322002
37.658758730111735 56.103643783500544 0.09444514441139806
37.61355693076502 56.00862078217568 0.08773366394348447
37.579886367083546 55.91040343935642 0.09299150049476937
37.56052798398267 55.813423800375546 0.1002813952152661
37.53976587811409 55.71760975355171 0.09920611652916209
37.52130434261054 55.6558132880668 0.09143654047591224
37.550247657713356 55.6598865588021 0.13930741415581238
37.54201451478528 55.64344025186579 0.138225705401698
37.61420682205304 54.481342026278114 0.09756413175611364
37.58128513488919 54.417925729237965 0.09706726427228357
37.54814428626235 54.31956901224409 0.09713880140176126
37.49884654397421 54.25448985828989 0.09645691778307128
38.140067063675644 55.54650224699769 0.12585298489991772
37.67261917600184 54.48265570283475 0.09966842367995746
37.562409238762875 54.294102156007135 0.09791936912175092
38.20801741922736 55.52672278300302 0.12898127896362796
38.20190112106707 55.47639369991548 0.11148420491155803
37.77925833814344 54.43526863076571 0.10400978089630986
38.29241077194619 55.521184503627616 0.09089414174121024
38.27378940790723 55.433779198774836 0.09605137804078767
38.26227787222184 55.33459890187351 0.0945374182032187
38.23808885018567 55.250367289508425 0.07928029653440549
37.889798897761814 54.41828140344751 0.10831537915753847
38.40184495512915 55.55324346919265 0.10395424554804908
38.24683005076093 55.21416201217651 0.10657898596988549
38.22407807668197 55.13359104726129 0.08851114840829144
38.19563708611921 55.04618900279063 0.1000198459839173
38.16240703520463 54.9441006983302 0.11962810924050915
38.13803870789331 54.84519820262476 0.11800686423280773
38.109630617629556 54.746441461982556 0.11646810702146662
38.082488511983605 54.65254199739075 0.11524263338281451
38.058931932252456 54.553466150606674 0.11441223089171978
38.038158630226164 54.45303604053254 0.11392750928976228
37.99305485676966 54.40932447132465 0.11236230918909887
31.101237521695946 56.24537981506338 0.15690048756996786
31.079387350133683 56.15543639911555 0.15488727759964802
31.966377385910402 58.34620673480451 0.2049585223707627
32.12816726395599 58.28880375517211 0.20019755276048576
32.20181588693889 58.26345370110445 0.1980658531866933
32.27367623288175 58.23880967750932 0.19597515354740133
32.37256124154 58.21560726893287 0.19348034076999085
32.488587912532 58.18901488968083 0.19057211382042769
32.587175033594114 58.15348291899599 0.18765864107769728
32.664744033075245 58.140233076183236 0.18588195493384
32.93188911961655 58.0142756681001 0.17698464234522385
33.0356991022563 57.99573293170426 0.17459211187362497
33.12267022966829 57.976831707698246 0.17246613540947534
33.2834516534805 57.93643862925548 0.16836868610892422
32.42877229464321 55.573482126689456 0.2501219235712041
34.091737673627726 57.69692736890593 0.25235831209612125
33.31936576161482 55.58931404308529 0.2018376379051436
34.20416741814835 57.70763812589898 0.24831305592777278
34.201981636982765 57.6196149316982 0.24315249190777358
33.36322501469104 55.55958098229988 0.1987381891726934
34.33091998896002 57.677369551879146 0.24130643219082418
34.269694603945034 57.57844378577206 0.23787652146161278
33.47668301982807 55.52460614408596 0.19173345279249263
34.40163942278628 57.662282818485444 0.23754607251107643
34.36606031221018 57.503429438997266 0.22937596740165087
33.56484903664387 55.500106397205805 0.18637191961199687
34.50566514259417 57.63770506073069 0.23191606389161692
34.398833751065524 57.486009314709214 0.22698342722216533
33.68140420678619 55.47538207392666 0.17947541085744376
34.600829028939074 57.61683282914797 0.2269245544171832
34.4841972596965 57.17940710176828 0.20543754604835116
33.774909137230495 55.45141499349067 0.1738711500787609
34.695653856987995 57.59097229348653 0.22169077352223246
34.49585379427024 57.18109289643186 0.20501219688944036
33.874423522980344 55.42530610248237 0.18507657535736252
34.82524150628584 57.56538748215012 0.21527065515195196
34.78000096883165 57.56648241383514 0.2169896301536177
33.979729416332404 55.401017664005984 0.19881641425264637
34.87620858336153 57.529533108875896 0.21109880066150657
34.09559458526069 55.374266758275155 0.18139564892246915
34.058530998193625 55.37944667729817 0.2056859732010944
34.16118920468704 55.35585669566295 0.2128382672646574
34.12392437117232 55.35622800686831 0.23184810863789543
35.13632999529675 57.49711914138603 0.2000476190344003
34.923602424026626 57.073623613839736 0.21549166233702918
34.26370762491271 55.329038732890396 0.21912610151924064
35.182258283411876 57.46554037413877 0.1964441538935334
35.14516022498665 57.38615940389798 0.1923071192983554
35.15075571144946 57.26987588127587 0.21916281969937831
34.365781679038115 55.303680070650294 0.20984733077298048
35.28487430600559 57.44402257165131 0.19176566942754034
35.204709239350706 57.22102579547287 0.17930495871385252
35.20267247598771 57.1702807699157 0.17604244682966738
34.46622179036766 55.27910876480286 0.20080363485926875
35.38266634911385 57.40825285165124 0.18638457539695982
35.24708681098043 57.10574269284258 0.20154703075088673
34.569222290839114 55.252850612486135 0.1916207065506724
35.47571830188647 57.38991075617476 0.2063173138870413
35.311761565256454 57.01815131850357 0.16222274669331296
34.63320067033567 55.236346570175655 0.23579823047564544
35.59179846103553 57.38025345163217 0.2312420599532605
35.56496091977953 57.358868557555994 0.19195498303980188
35.68074870142278 57.35248872649888 0.205142637352744
35.775687830955825 57.33149049072138 0.2029911527996038
35.65123011923284 57.12214944001853 0.15879595978297198
35.872982652002946 57.30483775400541 0.19801774566481875
35.48158764540415 56.186309102232045 0.2119063156903381
35.94569176948435 57.272057315442055 0.19022907188982544
36.119373387843325 56.74389839910473 0.18139949466821584
36.11592159093486 56.73491899712585 0.19848216545669664
36.32416121051674 56.99620000055093 0.20661892336492224
36.293561685312795 56.93880056313958 0.20073881452620726
36.26828699766859 56.837397860353136 0.20657936032597748
36.2115799906505 56.73332227209541 0.1894046186449436
36.17334056943833 56.71318695995009 0.20297709096004554
36.420337578666484 57.062873921857005 0.19205726779739904
36.40309907887013 57.01426516575169 0.2107316426689044
36.23745127458432 56.69983506958504 0.2008339364464957
36.234487181894416 56.69061440765828 0.2236045723522813
36.5379857259549 57.01445675744793 0.20317379180171827
36.507089848037324 57.01113808317438 0.21176947585234537
36.61407929839079 56.98844147859344 0.20705307748003007
36.5969073354022 56.980714044191316 0.22325123484977363
36.70767134042515 56.962325158099055 0.20773091703563626
36.80302285328304 56.93428232078193 0.20646776550515064
36.902757637948916 56.91486449882069 0.20946779391437728
36.99513502599334 56.87680990382061 0.20680656061800293
36.19483776929875 54.69763270718871 0.1907171245364188
36.18783689227571 54.62285304859662 0.18256319335968005
37.08251188476598 56.84748527005824 0.20400013069412795
37.07498417750015 56.79344790659608 0.2259017504810387
36.20588532045528 54.62798516321484 0.19638075490654108
36.19027252912698 54.539532337655494 0.1933721514142123
37.19733856782273 56.83591320888461 0.20610156730950754
37.26621709259299 56.75184437242767 0.2075750001957479
37.263276068727585 56.724869968467104 0.20940248208063342
37.35899800558996 56.712268879629114 0.21212259473303
36.10556208172908 53.47042147235682 0.17721261825043963
37.45764876352675 56.68686052409871 0.21692506945897147
36.212347451502936 53.43596304533955 0.17834224903714832
36.10464974642168 53.06742557930862 0.20173537737958055
37.55166799762832 56.65762190669585 0.22064582412493647
37.64301443533299 56.62879932055419 0.20222654796210446
37.748197750333645 56.602282684145045 0.20370426603593025
37.74176626838531 56.48576039530848 0.21260133754433988
37.71692048837279 56.40564098710267 0.2148737063384976
37.68768424084574 56.30946697957901 0.23130432623213962
37.65883166837684 56.24905989074737 0.22355094114001836
37.793555202492776 56.56633093957376 0.20442096723739414
37.76415006480915 56.48477924340211 0.22470370391361713
37.72321644467349 56.37790420975389 0.21201767744085068
37.712404710287544 56.296927291958596 0.2058245240834123
37.68041366179362 56.195001291154995 0.19561306651432528
37.65557951421583 56.09667827737013 0.1880675914050561
37.63090991708847 56.001639887170064 0.20107928676977907
37.590240642952416 55.905513257777315 0.2146560359784976
37.56198862122567 55.81230817827235 0.21125285017208204
37.539952082352016 55.715722714690315 0.20244207037759473
37.52322375271618 55.65446616321243 0.19275513219413307
37.56386722737076 55.65695886902524 0.22545065553619667
37.547788663839526 55.64059629110945 0.2225691473890478
37.61776391156938 54.47476482468728 0.1847111268567095
37.59032199987041 54.41426131143492 0.19185557777162646
37.55710343433044 54.313352974666095 0.19295065168163275
37.50824249555785 54.24086287779437 0.19688716528494818
37.670346510592665 54.47470641580575 0.19733873732913756
37.56787423054804 54.29392738015198 0.19928518993290503
37.78441028473551 54.42774048935681 0.21141067172477093
38.30805363558133 55.5116222169481 0.20227258312499205
38.278196256321195 55.42908068266126 0.19945207025137815
38.274655631792754 55.34196081965821 0.19895759418130135
38.25132901741668 55.26674427324557 0.19631497488765073
37.878194693709915 54.40623844991087 0.20372120434321975
36.44010867289679 50.52128996883108 0.17506468825623064
36.395887895592146 50.48061637827088 0.17619886285093914
36.35147762742307 50.41225834700591 0.17807614989746182
36.33248784266065 50.28628312325136 0.18142092901730397
38.38151039891399 55.547574967424886 0.20925419753159993
38.31635054629743 55.418130554185865 0.20164196605951093
38.27377456997468 55.30221890482731 0.19847815326987886
38.251225611317835 55.22540529936994 0.1960476969060547
38.23844636751073 55.13111133286715 0.19465962081696894
38.20411807490418 55.03307744298657 0.1919366560390585
38.17418229194869 54.93677153345986 0.190018343824266
38.144458188806865 54.843614337596854 0.18852822180689857
38.122918188503455 54.74489043278582 0.18814293397781942
38.10035484682318 54.64353891198736 0.1881395992610481
38.07889363919534 54.55079528095201 0.18843620278921672
38.04936977259407 54.458871320665274 0.18850724744451627
37.95549104818779 54.41305232832784 0.18334882603329736
36.60312865224531 50.69239328993679 0.17052426657139905
36.552553116202056 50.64592863468487 0.17172994361762176
36.48397241846057 50.56841515826614 0.17378843826364168
38.073672156663264 54.502064609805814 0.18914215217819155
38.05205064380279 54.44374854824248 0.18906394374582328
38.04032571845653 54.38410086897617 0.1898006695729236
36.84383781486722 51.052007529733864 0.16162147788030665
36.81257779390953 50.956249533633574 0.16400565015561022
36.753876595406794 50.86720745800831 0.16617071853404855
36.68359596849165 50.786104161219896 0.16815485302612818
36.635098542845725 50.73427943931241 0.16945112428194
36.94560656691499 51.08587100509799 0.1611551085983521
36.892275372007376 51.06064480630898 0.16157830523073033
36.81465664156985 50.93230696088101 0.16463365806443506
37.027989084400865 51.08882424227945 0.1615001246165337
37.10795686472818 51.10432447774768 0.16157616101299124
37.267855366108044 50.535285851179 0.17712870653657606
37.3577952826819 50.50454616997983 0.17857637487980535
37.44823665498127 50.476195620911156 0.18003334166912752
37.539148837445 50.45341639821491 0.1814252505213105
37.75662777635121 49.88312440856433 0.19769780255959976
37.92626997301408 49.972334869334794 0.19736494275745084
37.83751727337025 49.859526758377115 0.19912662482641205
37.95656947926036 49.93929537884407 0.19852796718204577
37.97561243609245 49.89839583754321 0.19975152500001706
37.91303293420024 49.82255663117826 0.2008632670197332
38.05915727534062 49.88791264940034 0.20102612218723367
38.31134092741334 50.181033559466854 0.1976334109187711
38.1723968283536 49.76771250238635 0.20536747858639773
38.2637826696385 49.836932196609155 0.2049743153690072
38.21139404590697 49.78732204445052 0.2054223104252502
38.36954859288338 49.79248095945566 0.2075432821006071
38.45480944873201 49.78120241776696 0.2090892001727989
38.57169548589031 49.74858211210442 0.21168177075754893
38.54803463392702 49.686398909776734 0.21272888325974712
38.65104215644215 49.7287171454589 0.21343724712339338
38.80082086522023 49.744743261345974 0.2156542932231971
38.75615946387705 49.70486253484963 0.21576111826406721
38.87324790344799 49.66021316966906 0.21882170072079946
38.94949162322287 49.65264582941333 0.22038238383497952
39.06953736299564 49.638047687197734 0.22296753957340612
39.04922800427548 49.626722399156044 0.2228194899966279
39.16442424523921 49.5968624394587 0.22569933580785848
39.142827891062765 49.589081661901 0.22543780314887388
39.24631661065945 49.503883320178616 0.22930397953231726
39.32397236503502 49.4778073952648 0.2314232879366758
39.415658144457325 49.45658658508438 0.23376169928014198
39.513419126124006 49.399685104906055 0.23700036382089992
39.60044932120591 49.364891351877674 0.23958507392125003
39.689192893356946 49.35419539765825 0.2417513399812922
39.76959586364671 49.33526581580565 0.2439292977677128
39.900067613601806 49.30781956724648 0.24746079260145457
39.84801344425926 49.296079514090295 0.24648990811637347
39.983954082752845 49.28981670716238 0.24977679730261662
40.048802929497256 49.27865951627297 0.25153465615365367
31.10170344287667 56.251633082540835 0.34154684674544933
31.07933631352831 56.161292771086565 0.3399916489285675
31.202287303674574 56.09629403099593 0.3313401422035206
31.29445515092312 56.0712610445906 0.32557279617546064
31.669497000267008 56.02635961336991 0.3037985202039013
31.785865399958094 56.00197779568275 0.2967370355111686
31.82458187215449 55.95958981683858 0.29339893386650806
31.859827165128916 55.90215908527463 0.2898405457716626
31.8666019315206 55.917517656872604 0.2899037310316396
31.852834279290338 55.8476106867281 0.28871019342129145
31.832277714324395 55.75313484094267 0.28728733113406635
31.82228481301952 55.697856234469135 0.2863863201618112
31.97303362128349 55.6743857191829 0.27754337547443875
32.91891102666679 58.02115527331644 0.32266316216043045
32.000121986119 55.644546948398805 0.27530606108691846
33.02943606625782 57.99856872121868 0.31638227952566034
32.11427715167863 55.616110807048145 0.2683549726450495
33.13430625708023 57.9751819643641 0.3103316906671568
32.21649230825269 55.59614960798035 0.26227529131464467
33.25359240436944 57.94823975957136 0.3034611921510415
33.20282943969059 57.95995989781433 0.30639825512253305
32.278676909524684 55.5832287824906 0.25856025440185093
33.34302225969829 57.92367080745595 0.298077216315356
33.433539706878705 57.90443832539437 0.2929485837283653
33.5336617775304 57.875179918851146 0.2868393525820896
33.585016275831634 57.86627122976985 0.2840710623153714
33.72664629377938 57.830982081911245 0.27583992529863055
33.819428931753876 57.80702385799908 0.27043041996786654
33.91328842802989 57.77999863180962 0.26482187605259977
34.001012753274836 57.74801898921014 0.259215476496543
33.32929421558058 55.57721314309309 0.3069401891238348
34.23855952998707 57.70972690606053 0.3499046612691973
33.36503167050337 55.55526980157719 0.30324707495667036
34.33775602156948 57.69051096091039 0.3417526390482438
33.47457573331864 55.52270564981077 0.2927244729581312
34.40605975127525 57.670772313232256 0.3356274433797698
33.58040256798268 55.499501362943356 0.2827688256619748
34.50006674301269 57.64948157149147 0.32778154324947617
33.67116578672991 55.47292163789958 0.27412592324984386
34.606579005589225 57.62303964114924 0.3187929345556427
34.478135506565835 57.18877465344153 0.2906287756006154
33.78586970856998 55.44620660257222 0.26337706797773397
34.728188762513696 57.60004512963846 0.3093393913072543
34.682814608785954 57.604903142166414 0.31250536451814437
33.86632290871168 55.42478561032212 0.30622231588769155
34.80544327046338 57.57526905875483 0.3025077555187199
33.975819035566126 55.40009566211787 0.32991061833753743
34.87455343645772 57.55038960943692 0.2961968323383831
34.070367332235044 55.37506169174526 0.3179145885717969
34.99983347958719 57.52115981913402 0.2864142652702589
34.848397416961 57.16146708449693 0.26299797550533754
34.17802230615126 55.35123106140015 0.3043838757641819
34.11725956307471 55.36176623712789 0.31198274304233065
35.09854125341466 57.498436240738755 0.2942880488769427
35.076556368030865 57.36092888746576 0.2670375053230728
34.91218206646992 57.083452185725015 0.323194372974686
34.26618076918982 55.32811007808956 0.29335248288016824
35.19660915566658 57.47383320017992 0.3091193491907114
35.08885026031092 57.33280140877431 0.26369869952461544
34.37515431186443 55.30463178753919 0.30646741808312017
35.29240154279861 57.4521525592811 0.2969962335111521
34.462965737031034 55.280005445786145 0.3033527037864431
35.3880725603955 57.42182821031042 0.29228820157845004
34.56167195764673 55.25406828459888 0.28713286107021063
35.47744838381812 57.39705890700974 0.3049601293782941
35.33111412860466 57.00159832346039 0.30799354933875334
34.65137937479025 55.22984418909942 0.3086498951883708
35.58764552402903 57.380963753348254 0.3103762933484884
35.55650688507447 57.38034948482429 0.31198465944202025
34.749344815677546 55.19837709879445 0.3047877650229458
35.68203131989646 57.35397186104989 0.3018261228643492
35.63329928283289 57.34825664701231 0.30347504211626597
35.78357509841588 57.32957733161189 0.2975875154077784
35.876367949174664 57.30602616786414 0.3158406149822659
35.94291470088001 57.27846356759664 0.31457677028287856
35.50153449181202 56.156994342668774 0.3128103211828561
36.125904656028254 56.742363967525534 0.2753814710722161
36.1159080371865 56.719286298056495 0.30994189021567975
36.329428276481394 56.9927416610602 0.30324259097613293
36.29737276944464 56.945963900581326 0.2971190328349179
36.27147414323897 56.84599413359326 0.30543150185358714
36.21099713445061 56.73420211799972 0.2762943719663967
36.17768492373342 56.702630822534275 0.31602993759048603
36.40343176433803 57.0107348270245 0.30502785931966003
36.24579882113216 56.72741503958093 0.31810821664180555
36.23236590748953 56.684251812391906 0.32136145348559886
36.546302061009854 57.008319111120024 0.2983456962682267
36.50900751298881 57.005352296228 0.3062974524778316
36.628968328580314 56.98040458177854 0.29522599587963594
36.59616110181912 56.97785234908628 0.30611433110505537
36.70614454939113 56.9546477513886 0.2987452894437048
36.6925101679159 56.94422881328912 0.3143872378195711
36.802293648759004 56.92201122975887 0.2948233170710166
36.78344478418763 56.91085591460376 0.31506433430425484
36.90016827424826 56.91026814139707 0.3038917893601967
36.99242470772381 56.87237001357924 0.30393186250185733
36.191405004342066 54.649592876564604 0.27387870759707367
37.08551589381003 56.84423279916038 0.3076778904276831
36.199805218254376 54.6164202282754 0.28381647714053504
36.201204101980416 54.54907998526297 0.316945918172714
37.239507986434695 56.85626255148804 0.29761496158652145
37.20343079046234 56.83384911904442 0.33393659897111094
37.26251247209777 56.7600114049487 0.29631486140849084
37.26895190549329 56.7199606401486 0.30733934006905006
37.361744173576426 56.70646341074702 0.3217593778366157
37.333381676010234 56.699215552250486 0.28425636246889374
36.100320048958466 53.46046672632211 0.26795902259283544
36.094421710265365 53.40763574254803 0.343249445447513
37.45384725361495 56.67943882047063 0.3202363584840573
36.195388001148835 53.42835122088149 0.3389762634125917
36.10724454452333 53.100473085601095 0.29116811425151234
37.552483426284056 56.65020256707073 0.30306877963797807
37.65011455150948 56.62463414843146 0.2844053844071315
37.75149193885176 56.59899351106667 0.2887939527818483
37.745902443423155 56.50456667348871 0.2957445682654605
37.71209748588448 56.41472640226777 0.3095425806959856
37.684545434280466 56.31029353250479 0.3362490187248264
37.65425798631373 56.257298088537325 0.32527868627672085
37.60490700015026 56.11899358710087 0.3029398192400572
37.54345780319066 55.98819366596971 0.28078881320605265
