ply
format ascii 1.0
element vertex 866
property float x
property float y
property float z
end_header
42.36194672926399 48.500084644054745 0.5147440449368449
44.06534081312427 52.561404986238536 0.4657831186536861
44.02219355853893 52.521669883148235 0.4534268234974325
42.46090535653329 48.46767238068807 0.517900228759577
45.023392094122464 54.77259521525499 0.4233519843037055
44.0852111544975 52.50971146692559 0.46908713111258066
43.82042940953651 51.71372587343736 0.42902038483571386
43.690265475417505 51.493592663929974 0.4257311731675156
43.698210629997924 51.42479707340134 0.43757462892211857
43.64845817076874 51.35055622223022 0.4385857493689536
42.56214668083548 48.4390578572606 0.5208569028444826
45.07434107513759 54.75849621825411 0.4263941851161393
43.968373568065005 51.74739298860341 0.46173979298265316
43.90842172909998 51.7046349784822 0.4511382559347646
43.763214225663525 51.3676042950159 0.4601709614252189
42.65704490827656 48.42525910977241 0.5222180423093553
45.168635492339334 54.730627107629964 0.4320623258197602
44.03903553009879 51.78562622755652 0.47585033243662883
43.9793305814242 51.733178940107166 0.465744735228983
45.28366337405798 54.6918283736903 0.4389519021640668
45.273921546818514 54.584824203188624 0.43070287225846865
45.26915058993767 54.54053062184617 0.42728869740539815
45.26389600689381 54.511613128185665 0.42489212090938805
43.61157032138287 49.9826390014736 0.43765569853083025
44.826414916409114 52.8781404190536 0.4858119300600842
44.83380864774384 52.8616485625333 0.4865045570308067
44.636568368295656 52.422876287145776 0.44069550179841316
44.596290226389485 52.3573375452396 0.47140120687329395
44.57662557871089 52.287924058543126 0.4758853413617022
43.69707499120854 49.98947073865593 0.4423689852351222
43.64756036098609 49.992912898817586 0.4385087342868292
43.6374316069138 49.82618763853999 0.46241616662853363
43.614690769790116 49.74308546663527 0.4734461365829435
43.5918888212647 49.65325298285464 0.4856801324752746
43.5682623260749 49.55964029184023 0.4986343625543553
43.45819675739926 49.4736409461352 0.5064661814307407
43.444068228309746 49.39282675582487 0.5184347492535957
44.85580644465988 52.90370947459871 0.4920849714367182
44.82074392496652 52.80523916689637 0.4821619706046179
44.79495865257377 52.70457114212907 0.47442984593895793
44.772496008144564 52.61060213734255 0.4680878838880423
44.740850074162 52.5250768455531 0.4608816929448914
44.702116276273244 52.44642529651225 0.45292707641385305
44.66684121789309 52.37660148703931 0.4460823350656438
44.6493233925666 52.248829656233475 0.44326851911474513
43.778734114799256 49.96955971981471 0.4509825927885395
43.57423151497518 49.54508742335675 0.5011863691729274
43.5468748225439 49.44982835809955 0.5144066768824673
43.48019704839491 49.16556206548082 0.4378614699595797
43.380433520278515 48.88490626389285 0.47022366209946426
44.75400844192565 52.21891744272563 0.462851988291136
43.97653619922988 50.20220043848848 0.4347391292097383
43.93213750708891 50.147383836155356 0.4382524552511395
43.9081837841379 50.05361341982696 0.4490351717635724
43.868216366690866 49.971928105980574 0.4572696973548091
43.48924333922399 49.03514195123286 0.45428179745823355
43.45868207443253 48.92021971311133 0.4677419946551898
43.45879084544187 48.820250191716205 0.4802470459059463
44.84952231661902 52.195415207545665 0.4807310072646049
44.22171104994041 50.46456244817193 0.4721861137122015
44.19638688301412 50.39912601671212 0.43057846756490453
44.17756444920392 50.30522359402502 0.44015647415302867
44.07829382010981 50.170585066951176 0.4479117480694513
44.919737962272904 52.17570143897474 0.4939293573143731
44.30385699310141 50.50999216862167 0.42881533852535875
44.26969114553784 50.49253377751565 0.45063782528374546
44.195907478081786 50.34047355765817 0.43762753753136535
44.178915044692644 50.273094051867524 0.4442820297724695
44.15506550210718 50.18243697845768 0.4534287669267904
45.05559130192523 52.14995382232609 0.4865114339228435
44.41707047422279 50.458763153527144 0.446831235835581
45.169299769178934 52.12690513145456 0.4393470115330648
44.51172459906297 50.42761514407502 0.46066473963832927
45.25546536426448 52.107941321674616 0.45241592757712773
44.59695048415451 50.40754917854673 0.4723229437847353
45.31780154509623 52.089006609046336 0.4619531458129163
44.68305791819292 50.38941147830276 0.4839601562100863
45.43096297245288 52.0605002444029 0.47920391158406267
44.78392198674414 50.36292039509133 0.4982490589097807
45.5186749819191 52.03829779271595 0.49258375602034715
44.87561928893134 50.33891730404081 0.5113101070344443
45.618977074214534 52.0137188447067 0.5079020992710694
46.66502152321615 51.78879434646261 0.5132250361971081
46.72192663839397 51.84300329407492 0.5185453868991079
46.687285571686225 51.786191423818 0.5157994891457417
47.89929489655421 51.52348058588708 0.460064857218838
47.893290642714724 51.46588919094264 0.460701648385278
48.046889290112034 51.41391456965841 0.47350734851948456
48.25863666993504 51.360942934392384 0.49084133601386665
48.50561496582091 51.30104459189288 0.5109764918236661
51.699224524908146 50.49790830330408 0.43927686881173517
52.47762659059952 50.31314536953918 0.4748320060030135
36.76265829030294 50.55559276332179 0.6199522220889514
36.960196232747215 50.78108557025654 0.5933275709653828
36.90052823541082 50.70291049295883 0.6016614878997348
36.829825403922875 50.62921490886798 0.6109557422463052
37.10341738531942 50.9076707934949 0.5754294572411742
37.01292234511965 50.84499509433723 0.5861812232734727
37.1657975729973 50.904931463010804 0.5694325404100632
37.05291945818765 50.345851328774025 0.5999229482965979
37.1633297769376 50.345346509182484 0.589511453149291
38.457148069042105 53.41131466495816 0.557890167085325
38.44654070717678 53.35533786653592 0.5580487438646058
37.27453688051751 50.326549938512045 0.5797431579641698
38.61632380153781 53.41517741558721 0.5372545716272692
37.36560123679623 50.300871722525564 0.5722220421374
37.469140310139586 50.27254683109314 0.5636790342999249
37.57629818595413 50.24785220365124 0.5547073314104534
37.62112004742666 50.19773889406536 0.5527127093035862
37.5898347793961 50.10290537457716 0.5598071133380689
37.574341696181904 50.02558913575623 0.5647366301436878
37.55770383106854 49.95545272652919 0.5695083472240028
38.97644209846335 53.32239814699996 0.6151933512796491
39.089294464421144 53.37633726960778 0.5987544111227376
39.051486808636405 53.33125457521848 0.6032271241379135
39.33494435801328 49.265751164550935 0.6107323478649803
39.44239661467106 49.258385718210015 0.6007430959336247
39.494849394671554 49.22903849322413 0.5984092044055102
39.52793511442265 49.18961252740031 0.5990863409073923
39.60938094346209 49.14973706672906 0.5952623270229925
39.71268112588906 49.12524871269458 0.5880727952741682
39.81530057679647 49.093332962743744 0.5819664350882837
39.94018893987872 49.08124180182178 0.5721002142430403
39.87779053084801 49.06930841672273 0.578868420271742
40.02150554817282 49.07396465014913 0.5658033088667636
40.11167845543638 49.04587185267288 0.5611686901878077
40.19975994794186 49.00481624031404 0.5583736975655018
40.29684427539633 48.97927941868282 0.5534222179758731
40.397276030403184 48.94948940949749 0.5489805279032386
40.554658174618694 48.94327956288484 0.5379467245437665
40.50121040662171 48.942827389749766 0.5419314141249262
40.620838852219094 48.955038332055125 0.5318591759096934
43.1481634606472 55.26562251481679 0.5707843173878452
40.70706823934228 48.923462853866766 0.5295484587194188
43.22155481219751 55.23153263293684 0.5675921257183365
40.788719042534986 48.89516901738334 0.5274269594492297
43.31844919338941 55.20540854762085 0.5672134870811677
40.895085564592804 48.866404345359605 0.5240431226774831
43.418675370925804 55.18793934931229 0.5691282565599851
43.51486169893719 55.15624798194153 0.5690469239050185
43.61253949938346 55.127712351357005 0.5702540305470134
43.758690940090226 55.09828787069678 0.5754598939197032
43.70596858485401 55.10058853566189 0.5720848649487557
43.82460734689498 55.07597135735411 0.5768310782242758
43.78738535812703 55.07752239118677 0.5742663899818529
43.89886681828399 55.06309429919962 0.580640005983501
44.04483584232123 55.01999151744534 0.6087994273358824
44.07421132526821 55.013861341098675 0.6105701211988322
44.07377309741212 54.96233756745561 0.6024970711390959
43.98662390802807 54.8078767712018 0.5702271090673342
43.963873347686665 54.73504275812347 0.5567838866134782
43.954183521130226 54.64826693405515 0.5425104777338039
43.94027857157521 54.5500203804321 0.5261823506650893
44.03487941957146 54.46758361649878 0.5238337364733473
44.11501159058884 54.46706731466862 0.5325877570325208
44.197494002833096 54.45888719613278 0.5407759521211668
44.415810832717966 54.666436417595236 0.5951013355606432
44.62787906787868 54.88642554562755 0.5259079515679217
44.68975944478564 54.87317483923827 0.5303413469520908
44.78424124916355 54.840740754079135 0.5360486107406944
44.88088935426231 54.80692302941711 0.542195262806194
44.98179854955711 54.783577254272544 0.5502299843139051
45.078048931993884 54.76035717604566 0.5581002035452789
42.65813652932312 48.41251573530012 0.523886019314249
45.17253903628156 54.7325930194883 0.565638279675616
42.754187179470996 48.39906088521488 0.5254955659423561
45.28018629866975 54.68769582484555 0.5733553888246002
45.28220726848637 54.60599547471658 0.566071728811259
42.87395212467069 48.370569093788475 0.5294175240922228
42.825275300501964 48.3782336712403 0.5282743393149282
45.272206082024056 54.55799173778552 0.5606112154833068
45.249332956649724 54.47517722387318 0.5506266956427152
45.22258734465516 54.386014618599475 0.5397605554808288
45.2037832003857 54.32665121730471 0.5324720823828368
43.62440194629469 50.016753471738554 0.5738944868152654
43.61600435079296 49.98199361628533 0.5479827238114496
43.45400916873569 49.527631627073134 0.6044268851486303
42.954000760437225 48.34898936087649 0.532620241621339
44.83582116306378 52.90293875352762 0.5817432075780332
44.80667308656645 52.80397445717817 0.57095236363401
44.776574097419044 52.71690711917303 0.5610854540013319
44.76085493355295 52.67116980762831 0.556182819447405
44.65242823036436 52.42196677102694 0.5699204938883269
44.599464255359024 52.36704619363806 0.598655654276065
44.57046756015598 52.29169600098576 0.591144314331046
43.68735623357659 49.99481571479571 0.5359606592931974
43.6799545216177 49.98292684151159 0.5373954608418923
43.638784954895584 49.83490792746815 0.5604324583432087
43.618847979714026 49.746868689310084 0.5748641468844753
43.591806216384526 49.64276188899228 0.5919692669629817
43.57748349571251 49.57757682418327 0.6030109119820716
43.44424847636724 49.48172475667194 0.6125412312974613
43.45439271331942 49.31979605712364 0.5303249497170084
43.04943397033173 48.32245192908431 0.536766792533955
44.84265067198436 52.88187821684735 0.582175484075353
44.812852030232776 52.794213675491896 0.5718603083352058
44.788912916898084 52.72504540599958 0.5640596991692034
44.75532513244467 52.623684571923164 0.5536584522049701
44.738695818408594 52.53317219434635 0.5479607146990705
44.69605487444282 52.43263677470597 0.5544571553398391
44.65325939450477 52.244884731333364 0.5700945846224533
43.780099814608135 49.977234564986034 0.5472605430730285
43.568913427179524 49.533556340003265 0.6106128871917637
43.55684976800958 49.48290237093033 0.6192636723414358
43.53217199230696 49.387878557303104 0.5232539558098838
43.481406015917585 49.21405637808821 0.5480666598508718
43.48009991946909 49.15065423555996 0.5579803009977274
43.47200936454099 49.06833943877722 0.5706217727188735
43.44572252900578 48.98038427836359 0.5835218534485263
43.38911753706839 48.87925626139963 0.5976109715543004
43.13988198188162 48.29629364334931 0.5410635790491154
44.759845423086745 52.21885753153267 0.5515406131499704
43.98238148922636 50.20209427936694 0.5707667098895375
43.94098342546476 50.1733494329572 0.547528018654439
43.9057629855723 50.06608508712332 0.5442033076985264
43.87383477787143 49.97633430950218 0.5561804987960918
43.462436223834025 48.96099650032682 0.5872404590337087
43.44608450627594 48.86231669856635 0.6023016193330644
43.23806843450284 48.27535326431944 0.5450220583012918
44.85630136478294 52.195231445122374 0.5731207843890774
44.22342509659494 50.47016993086328 0.6042504484981734
44.19208979033895 50.387304023210916 0.5783536240687807
44.177013208062434 50.30695482592274 0.5363118749006762
44.07708577825996 50.17286740997125 0.5452143941566969
43.346480635659034 48.24880893493751 0.550126326498211
44.978561336777595 52.16904715844439 0.6004624340029434
44.9398180633759 52.17953089545246 0.591772785053652
44.30961687306065 50.50594250805835 0.6206612777871244
44.29928484889525 50.48843632764039 0.5576038463884919
44.21307086280311 50.386060407667564 0.5290782706442744
44.175877488843696 50.272666423874554 0.5413372287567033
44.154181768501346 50.18411442984452 0.552308797869317
43.442849601836805 48.22333850256823 0.5551443234824907
45.050167232962444 52.1518349544248 0.6165413409333067
44.411395392667494 50.45810995840121 0.5449115941601731
44.39342327544002 50.4615043732331 0.5420046006780513
43.50073554173736 48.20570832664111 0.5585613325247757
45.144103738164596 52.128253769202 0.5359777997458041
44.49855749999659 50.43315580541688 0.560173277806015
45.25601431559835 52.1030034885659 0.557014197419177
44.58830539929863 50.41542941840841 0.5749449844650881
45.359128551997834 52.081150469358256 0.5763998111318147
44.69185325934476 50.38288532062834 0.5937123020955857
45.42386913538784 52.061083033381394 0.5886935871780821
44.79007727375732 50.358712007724044 0.6107559094738805
45.51008198599693 52.0390030994384 0.6049904896754943
44.84740941567322 50.34753952033134 0.620388012922441
45.591592051302 52.021651174187134 0.6203606135858795
45.746720919500426 51.98588057840728 0.5273575554010242
48.65964455578893 51.25418266453326 0.5237750767128643
49.03187067393274 51.17040412529199 0.5540141694726987
53.659128045902946 50.00471134927395 0.5293437955175265
36.02395440208158 54.10704445547892 0.6569766978765585
35.994644071964665 54.04310341479951 0.659029474707449
35.97259653441216 53.94191651299183 0.6600389506406915
35.945382224886266 53.84284881153556 0.6616981077235518
35.921507162307535 53.754338027939134 0.6632513910507479
35.89594451873987 53.65403616763292 0.6649944904321525
35.869030927451234 53.554285407319334 0.6670034287908516
35.842455591918444 53.46408602597995 0.6691568197449204
35.821612095409094 53.39731651812547 0.6709327789521269
35.82825934088979 53.327471982666346 0.6700508561787809
35.806140023424376 53.295765655729284 0.6721441924059826
35.731828110842464 53.023404387935045 0.6793158030950872
35.71973583239421 52.96598766507227 0.6806087385275816
35.71884984324591 52.89577391787639 0.6808486124552462
35.67624232393088 52.7707188640045 0.6855206836462556
35.64340011157957 52.66651027435073 0.6892929309024269
35.615846194031946 52.586247291267064 0.6925149355631336
35.815557644400656 53.0373073143139 0.67101599497178
35.623826421444875 52.53894882694937 0.6920521493490113
35.63088464792825 52.514702880115344 0.6915068910661758
35.6311939128133 52.35019240956183 0.6928782421039954
35.579800353138765 52.30352105468392 0.6984436844901069
35.78855318800951 52.46253728133091 0.676195652727766
35.670728473384145 52.244494957621654 0.6899914827294528
35.7884301111107 52.20978251384592 0.6786460913323514
35.49429731467222 51.62979246802221 0.7164562112085325
36.24225381344313 53.1839964971731 0.6288569360913578
36.2228718809627 53.09975772075601 0.6306686695192045
36.196127010458305 53.026957715725935 0.633298881565369
35.87225940361257 52.188374964113 0.6705098198500886
36.18175021017378 52.80945358990126 0.6351082192937967
36.021043067706465 52.40066886814905 0.6535477878601357
36.023468303977246 52.36781742466904 0.6535880713831446
35.95882135496201 52.122320443163126 0.6626837233512178
35.957138878034186 52.05515250215693 0.6636882207636046
35.729798613448786 51.67608418234775 0.6921973792295126
35.95158889932796 52.010649702115295 0.6648562040952495
35.927930090596725 51.92984501754058 0.6683650141981444
35.904656617588195 51.837764593169524 0.6720967740526128
35.86026493983922 51.74457711244808 0.678049807052661
36.4173658385687 50.20937758854194 0.6654901760703003
36.406106525486734 50.1337343852899 0.6694758427247747
36.58652859868422 50.380342993881754 0.6430711942870418
36.516466068225206 50.31136510639851 0.6522643952331175
36.4551956813075 50.246252301319885 0.6605394397327462
36.71857190269567 50.509609685085486 0.625807787381877
36.66607414777187 50.46102095737569 0.6325441023751459
36.62154532253999 50.414094090093755 0.6384694808089881
38.46516240406323 53.4124056880417 0.7022254689601668
38.44122716626371 53.36020135033812 0.7045209212972869
38.72740105022952 53.38492650857473 0.6581900083769829
39.120982274437644 53.39735584206419 0.7187154042291997
39.91701393589522 49.08667052432344 0.7174425206040979
40.01739142833367 49.08106526447553 0.7072640099033752
40.11214321481774 49.047456412410796 0.7018128032959143
40.20203661617148 49.00910935511182 0.6978829251989516
40.3026953353007 48.97665842564572 0.6924383703613873
40.40393442752891 48.9481612199621 0.6867816471690009
40.5328982525656 48.94592568976725 0.6751659430627386
40.500755250886115 48.94526405227435 0.6781974048091982
40.62253017390371 48.95876732455752 0.665301114407013
43.145639825392145 55.24780600643424 0.6784262297496845
40.70840862558905 48.9266347732857 0.6626940115782596
43.220726852642116 55.22183833628337 0.6765143448958223
40.798785930194526 48.88952968791935 0.6608386493600052
43.31967588043413 55.203168262189266 0.6778931320967153
40.901767296576544 48.865899530702876 0.6563425286170038
43.41708747377135 55.17829833085842 0.6786739557394226
40.99587935274806 48.840513864379055 0.6532199914177266
43.51030367784415 55.14019086384103 0.6772288643510904
41.08964489650128 48.81602734593917 0.6503830029323434
43.605485129233834 55.12064424478537 0.6804072199146273
41.2292769199814 48.78704095744522 0.6456930843642531
41.17714065767096 48.79358182360539 0.6480224491617829
43.73082388996099 55.11195245165143 0.6890136954702253
43.70726857259905 55.10383116413194 0.6854369285007959
41.29701132693456 48.762824142383046 0.6453719671078749
41.26235821704444 48.765975632788866 0.6469693529801562
43.817337287628554 55.07955267156465 0.6905371751688195
43.79602297101358 55.073688309651196 0.6874124384167885
41.388620287793 48.741741337669524 0.6433949604477779
43.89591937894059 55.05463979617171 0.6932608538467718
41.486649306100155 48.71322743965005 0.6426637384538942
41.585911176979174 48.69239360065357 0.6410692196265737
41.68502619225171 48.66792844737147 0.6405225023876694
41.7780121762925 48.64331250028905 0.6406901431920383
41.8715586742668 48.61921763058131 0.641239670473856
41.970563489132324 48.58486439841141 0.6437437932867662
42.11097301639577 48.558460391382425 0.6443419698641464
42.05933265733457 48.56155894776363 0.6451218702259016
44.62808844726514 54.88478380041241 0.6502778126158045
42.17435783150589 48.539420890352766 0.6461015181578378
42.12886309530043 48.53944406689583 0.6470935379864854
44.68993044780048 54.86243926944426 0.6545902954913071
42.26506442355024 48.52963326952983 0.6460149732388555
44.78686872438987 54.83293176046813 0.6624566819856551
42.36895634385692 48.509308055352136 0.6478638963000014
44.88416968422086 54.80853948710784 0.671485849672593
42.467686748689395 48.476829942216696 0.6522388451852612
44.9811713290688 54.78146218387234 0.6805417053263128
42.56234214663356 48.445367617647044 0.6568773242716576
45.0739102681827 54.755061304852646 0.6895062421063639
42.65832877341868 48.416830550577615 0.6613898458104513
45.1715884653552 54.730281572929705 0.6997022358833254
42.75505899628745 48.39575183592252 0.6650371943879256
45.282464307145176 54.70021712128367 0.711489601445168
45.272220162012054 54.58894478520313 0.6973046952906838
42.8671695711067 48.375157067121464 0.6690802738919531
42.835259639662155 48.37522362432152 0.6688368691320383
45.31478472083171 54.67260831712075 0.7128247558498321
45.26630381103155 54.54400896707531 0.691427930281108
45.245857646250315 54.46345411590827 0.6796044627732281
45.22198945806079 54.37694806379916 0.666773747609964
45.20557254367325 54.32688492501304 0.6590344434105873
43.62943753092222 50.01876848145608 0.7173528871080963
43.61354963459517 49.9842433640678 0.668318495064171
43.45207309264589 49.533993355907846 0.7109114998834482
42.9542596609145 48.35103810891113 0.6739082569121689
44.844908520767426 52.90506020974028 0.6788225062698533
44.81526654342192 52.834396042799234 0.667469732115411
44.779404703273094 52.74780480224898 0.6542224679039846
44.74557804621976 52.639094718663586 0.6413759959761285
43.68240905459982 50.007675075369185 0.6451957071319842
43.63776310496961 49.82776887106379 0.6624572193442809
43.6076648974145 49.74874351300693 0.676586404721675
43.58152294180686 49.654115623713935 0.6947624966177806
43.57469591760555 49.57287579903811 0.711909318643065
43.44527758876443 49.49511008588429 0.719102391908689
43.44336345694366 49.39638907489386 0.6286916824962684
43.04996319783914 48.322967768200286 0.6797788406548476
44.80359451059625 52.774787696375824 0.6615507213839302
44.7858208937034 52.71615180510654 0.6545264303969028
44.74900506672785 52.588606060174214 0.6406798074575735
44.72939855169259 52.52790009284561 0.6341707754301911
44.70869377873465 52.46022625217918 0.6276023142789059
43.787700598152654 49.983615831000115 0.6453959757683271
43.567664511126736 49.53782851036053 0.7190172950642671
43.54110300838116 49.4374816923874 0.6267700495813964
43.52418410803446 49.39508245040026 0.6336941779348765
43.47883525246348 49.23903861328083 0.660650516040974
43.466160286859065 49.157000594163534 0.6756520311438167
43.4469452751773 49.0523037442504 0.6947646164770998
43.43605216359327 48.95480884060247 0.7130360661707467
43.354564452221815 48.89090794591914 0.7217531651038561
43.14010727763079 48.29861809630817 0.6852670095161737
44.750776270516816 52.21909152790443 0.6381757228791552
43.978726490813365 50.20876752773622 0.6725959987372407
43.928315878693574 50.16069284181832 0.6658093930994362
43.90267087740443 50.057381093753314 0.6439335391397227
43.870005551003096 49.97862556071253 0.6557402731519303
43.446660571707376 48.923170041786776 0.7196617351597665
43.39805180083082 48.69322741861451 0.6276826848496928
43.23874581133647 48.27516859784845 0.6910770140301703
44.83738987682287 52.195874312779544 0.660797596101735
44.22182544559031 50.47761505953817 0.7073555037854985
44.19167123549328 50.385987419658505 0.6830651807728235
44.176529946848405 50.314619318900576 0.6325888739087971
44.084686547618176 50.17182727567268 0.6454761242807177
43.33857317958858 48.25381228836627 0.696899656879233
44.951029813257755 52.174655235138786 0.6903881577829011
44.30541632709145 50.50425418145015 0.7177569884528586
44.27003363095426 50.50619261184116 0.7107596094466525
44.19016391414027 50.334017098668035 0.6311838420871532
44.17148398448776 50.26561823051264 0.6405670481417595
44.15124593821189 50.18840088822802 0.6516389716529005
43.43438242350551 48.22941714577257 0.7034328206260255
45.05690832459638 52.15636368411985 0.7179665489363988
44.41147024742524 50.4619133908971 0.6442592334704214
44.39335590336805 50.46202679821545 0.6412949407963682
43.502571342725496 48.20177184649237 0.7099008916405308
45.16242586193363 52.12740074211809 0.6417212010551308
44.50650811325733 50.43991495715437 0.6633644108149079
45.260854616394916 52.10279322644297 0.6638863096383311
44.60374367735586 50.409616329878155 0.6842723136507737
45.34763663820806 52.081926456286126 0.683443544742405
44.685517989076644 50.395433591309136 0.7002446648944037
45.436269226280245 52.060324217763046 0.7034277725405567
44.76274609982958 50.380868605447176 0.715601923529305
44.86955445929736 50.34405739208204 0.6240010475780184
45.682888098973194 52.003028423022364 0.637531977373038
45.74266631190504 51.98631176657141 0.6489114276643482
46.65670515067874 51.77490900814135 0.6665336981932805
46.73576805793415 51.85714989425665 0.6762771175833234
46.70240270023725 51.80720929678383 0.6724815318099678
47.89514208210439 51.514527966065145 0.6570884964783845
47.874114939110406 51.47853631322408 0.6555826108478501
48.07493733802692 51.40992868549177 0.6797039296915607
50.185919700749466 50.910107508095976 0.6479105344615702
50.361375089159836 50.80933624026711 0.6635398279425916
50.3393613525082 50.756254083524915 0.6631068815090477
50.371217976483095 50.80765585257913 0.6643566580995237
56.0586511931374 49.422000277238496 0.639347715189115
57.211694135291786 49.12814235145271 0.6925212833607204
35.38303271971178 51.58141215615788 0.7283845078181413
35.34235083167032 51.5024568801365 0.7339265931315624
35.315684879415954 51.41297796144334 0.7383463633725934
35.29270094300216 51.322915477155156 0.7425132202062057
35.25985659890672 51.21807352335809 0.7480673888245267
35.23354114047863 51.123762409195365 0.7528465229198976
35.209642248751045 51.02990499037418 0.757461333011368
35.180708200543116 50.921821060885506 0.7630274933226553
35.15342105892605 50.837592410542996 0.7679086342177985
35.13862025112732 50.626046451134435 0.775219494199227
35.07560746176367 50.54287318062705 0.7837956569270038
35.0728152029289 50.4617533432867 0.7865122121287074
35.3335186796554 50.835279694223985 0.7502875505859049
35.15982453616013 50.42847516520452 0.7790508650971136
35.50470759725854 50.80924256672366 0.7342458012970086
35.49905648915099 50.74628995407742 0.7365761306240166
36.961975684754584 50.784498967073525 0.7918477596656729
36.900864439567314 50.69565893013567 0.8036029630417744
36.83219193206564 50.62240664198219 0.8157647003716513
37.00002348803709 50.79534304137551 0.7864051292124642
37.20026033529663 50.29068533580532 0.7844338804513985
37.26153548931818 50.262503917038686 0.7781556033010096
37.2164644797931 50.15095104029218 0.7899654056269415
37.30187838119439 50.113402421984574 0.7812891558517301
37.44968636023787 50.13579207092057 0.7614543552896479
37.411278464736405 50.087708488692876 0.7690696849718269
38.749912674073514 53.38135170537549 0.791247857036398
37.55691407600349 50.20239583128011 0.7442114771494752
37.4806552089236 50.06584125876673 0.7616734628964906
39.083748253893795 53.390905988935856 0.7257320922260982
39.05323987421773 53.327334950875 0.7286314707943131
39.32738088113729 49.270141658020925 0.7640590940872052
39.44354011943939 49.2713327639144 0.749397788188974
39.47759024963862 49.23333552683671 0.7498541201216206
39.52805271052658 49.20180508544687 0.7476103634073319
39.62368133637389 49.15620654800284 0.7419126207180535
39.722081137816836 49.126396490646876 0.7342296160563325
39.80758911537596 49.09618920660925 0.7283981333345204
39.86314124595814 49.086152617440554 0.7234602578797306
40.4255011057536 48.95856005918134 0.82235316938299
40.520209587573646 48.946381109426376 0.8140366118910867
40.502813126260335 48.94683398167278 0.8158612275093918
40.62328341321403 48.96078471055351 0.8004754184784907
43.14336048573596 55.256808985356926 0.7930559560791671
40.7046925368317 48.9195119392941 0.7995903655915705
43.21150964617161 55.2161699803515 0.786885720970094
43.23718356070132 55.17853088484475 0.7792160069937897
40.79891538008091 48.890175534496365 0.7957141904096983
43.31330965952733 55.19469574923382 0.7881037896147063
40.90153857206402 48.865710456822775 0.7906508850904633
43.412036037442896 55.174742750521865 0.7903742128062153
40.997695032276475 48.84521447258733 0.7859561773645669
43.502252420751795 55.137331265205425 0.7886967495344495
41.13790922813706 48.818066478977855 0.7794702332511649
41.08571697721043 48.82388840613212 0.7825753798717764
43.607431539647564 55.12092254324459 0.7941114366380778
41.189484428390706 48.803176025697056 0.7782979583951716
41.2030504342234 48.78929570456286 0.7799391827785466
43.75036861134324 55.09840262516121 0.8029865762675856
43.699748339526046 55.1052442877105 0.7993988447780528
41.29244874437126 48.776774186882825 0.7757599467809315
43.822710288494285 55.07507994441852 0.8054766214788648
43.78092569223153 55.08176617496814 0.8024568076785404
41.390442097031624 48.74782962993117 0.7746441608223823
43.89609882840924 55.05189123077633 0.8085720228547179
41.489970112650134 48.725988496478855 0.7725897326528273
44.04237921539024 55.013391203126886 0.7248119787388344
41.5882595528193 48.70231042732854 0.771517291939778
44.098965430854754 54.99847630724832 0.7284364368069204
41.68717714027763 48.67787474505247 0.7711105474827012
44.19995781747013 54.97775721227087 0.7364606152270806
41.786533374449384 48.65375362568558 0.7711804008272891
44.300191057624126 54.96079306061272 0.745700793943954
41.87893263103761 48.62396025632222 0.7732937918481907
44.39610743748303 54.93445696663732 0.7533161357396216
41.971792177221914 48.59312969079415 0.7761228389068204
44.53097512059693 54.90598307276661 0.7664255927694491
44.49257680983398 54.911974200499266 0.7622467930106726
42.08888419591134 48.561177251604036 0.7789588241263964
42.05683092701387 48.56535076368078 0.7790479882940543
44.609390309519405 54.87933765608045 0.7728652619568376
44.57694694793961 54.87958466979285 0.7683591271798975
42.16860429306935 48.5453271987958 0.7801504515035096
44.6906696067346 54.85521840506432 0.7805323105298103
44.664204511281014 54.850721313142365 0.7759470228224724
42.26519400949311 48.51676038509677 0.7839408170516735
44.785591974232645 54.82985922806232 0.7903837898933053
42.36287660888326 48.49422891934282 0.7869794745928356
44.87838868451375 54.8011481434371 0.7998868652006473
42.45525280081 48.46340282087749 0.7922518317743713
44.975189106143915 54.77414116144467 0.8107544964138477
42.55625962081113 48.44369214595206 0.7956834035791296
45.04752338186888 54.764223229859354 0.8206886887220927
42.65806789607357 48.42701927708137 0.7990053115167493
42.775535890056474 48.41510797693978 0.8020060043594436
42.73538600737224 48.416124437716405 0.8015196811969484
45.249946101276905 54.513659567132876 0.8189997420996377
42.858990371195624 48.390166014983976 0.8078692186953261
45.23646502741558 54.462993319736434 0.8099774617473524
45.21502329463023 54.370659906942706 0.7942444657215941
43.6072702272053 49.965883282450974 0.727594383848949
42.953571537825304 48.35974672850278 0.8153412655289219
43.70070323182642 50.006047946791064 0.7291402631011988
43.64023085365625 49.82431208074234 0.7660517539560263
43.61433341567471 49.74739241495509 0.7822229971716842
43.59344415562084 49.653869654671524 0.8033902886698013
43.580900063957344 49.58506478485736 0.8194370247639517
43.485535571573216 49.47868499116285 0.7532305875274088
43.446735294203584 49.38907652445304 0.7429561827654628
43.02555243012181 48.34628994003367 0.8193309755520624
43.7874968684881 49.98512633107942 0.7451863579771936
43.55792392924335 49.50812978396468 0.7247636693309649
43.53754570112382 49.43369388793426 0.7396268794097124
43.48453587800439 49.20898874281568 0.7860329313979995
43.474998662338145 49.168336641040774 0.7945707228659
43.39387398343514 48.86572819602828 0.7283654393857125
44.00314449232121 50.19952315153115 0.727466797389332
43.92005810172835 50.135539417687376 0.7289886759731217
43.90414853235968 50.062079986062145 0.74327517650314
43.87490950990405 49.982428369169185 0.7574734841375597
43.431566163537184 48.86902498747375 0.7294283281801894
44.19065437547513 50.35484848934074 0.7259707341775098
44.17554879376519 50.29639196157125 0.7352109143826426
44.07842338807889 50.17287571813293 0.7451073945255485
44.177753205451396 50.27829837715601 0.7393362353272154
44.15128906590901 50.18915728284766 0.7534454166276443
44.40614511731298 50.464061164297945 0.7443087361777712
44.37002759270451 50.470958611256584 0.7361571910911823
45.12883961151813 52.13872010702313 0.73680255370906
44.486766372635195 50.44454871838688 0.7633523971456273
45.24489660006674 52.11359263932969 0.7671732500473986
44.60075692977678 50.41287999204838 0.7912345004468635
45.363950560068176 52.0917676188638 0.79826233817671
44.700992539925586 50.39035719298241 0.8149924504104018
45.45538654139101 52.06448942650699 0.8224162830734475
44.82041774499663 50.36917813495411 0.727259632817298
45.52477887148556 52.03801162857994 0.7234177535823928
44.844654467665904 50.36391452309624 0.7322418812019452
45.62376696323432 52.01351063889199 0.745806217810193
45.73233121387987 51.98728483201144 0.7703638005803869
48.98198701555356 51.17892696624187 0.7868208310607596
51.523624354034865 50.433225241864626 0.7608466033950472
58.372779108316955 48.82462645691221 0.7460932728191729
35.97043471489732 53.924093016458976 0.8939907552922579
35.943834168863674 53.84864595409832 0.8961067280488311
35.91856400609408 53.748566526161014 0.8977644258435864
35.889003725152975 53.64896182613159 0.9001825250990372
35.871276429326684 53.5590342712323 0.9013416939051753
35.84297576279852 53.457329636670835 0.9039373430111475
35.81116515656629 53.3467513236501 0.9070973295053859
35.819524799158195 53.3606100092565 0.9061188911222733
35.79872971327507 53.26625954942677 0.9081354040947016
35.77045436113263 53.16498147831873 0.911287574522043
35.74166775352238 53.062894912095636 0.9146936126093874
35.715136657541606 52.97138835148508 0.9180114238241075
35.699288021852325 52.878927955817275 0.9200463697354595
35.68303547029817 52.81005726529804 0.922255989953809
36.42246805981573 50.214568661498475 0.8878555497538769
36.403883833003555 50.136249735791935 0.8941808134188522
36.584848745466324 50.37165768332639 0.8593497892283191
36.52333180489845 50.3055269985516 0.8704543530612736
36.45456543814258 50.24924863688928 0.8820605355392326
36.45832538952433 50.110062933319014 0.8885157690814218
36.756637468596 50.54616504761993 0.8290112609904955
36.68708158620407 50.47088809239337 0.8414721629629072
36.62952244192652 50.419918559445165 0.8512798034060773
36.558248252038396 50.089415080536 0.8768194223089057
38.78431022793462 53.37415535957254 0.9216399279919874
38.825353085633175 53.348452978431055 0.9106364379207483
38.84035269039046 53.33069585942232 0.9061493923861919
39.105095274281176 53.385630515466175 0.847718497760326
39.062615716069736 53.32745790011349 0.8540811798291886
39.17047518449483 53.39284988290855 0.8330464080264023
39.39825480200382 49.278724915943805 0.9069517063037948
39.338207263638246 49.271785633435194 0.917027290110932
39.45123223671925 49.25964203870833 0.9018304948458495
39.49865578306191 49.235698389338175 0.8983461949034091
39.52800133336166 49.19223301054215 0.9006228610396596
39.61681704140643 49.14961695853546 0.8943629747036432
39.72194088360065 49.12738204115487 0.8830371130598373
39.82038546008798 49.11092969690238 0.87212328919178
39.804629946608735 49.10492401948541 0.8751878926903583
39.91509721354792 49.085288776182345 0.8635447299402099
40.02006118438545 49.073911077909635 0.8516852900218225
40.11117193155489 49.04697928632742 0.8445813875167429
40.20150310280736 49.00915465127318 0.8398094487659713
40.300146699847645 48.98607792250046 0.8319771434497599
40.398144863722514 48.958021782154596 0.8255436587115905
40.93271071693666 48.873073982597155 0.9219475286593846
41.006800600441515 48.84200438462672 0.9213030879671982
41.091987345114816 48.82240189887652 0.9174208886625101
41.199603718899006 48.79972539287436 0.9126987678895317
41.18324786118073 48.79101288043575 0.9161405790449353
41.29235829478847 48.77596920285885 0.9102096772150192
41.39160861397804 48.75168040491679 0.907914662293231
41.48987624972312 48.72482235749295 0.9069447873999055
44.041808432821405 55.00983110026345 0.843034708801371
41.58924141237932 48.70559933286389 0.9047713331891503
44.10030537368481 54.99810397708506 0.8482604130022718
41.68864760842008 48.68477674180754 0.903621938444034
44.20029077041671 54.975898875768905 0.8572470419815494
41.80852535339416 48.66956177640735 0.9007575912933636
41.786086467037556 48.665985062865005 0.9027560347068555
44.29254307704161 54.9480852029908 0.8646728921348346
41.894521401085015 48.64336020130994 0.9030199354953439
41.84511075424265 48.65215694246849 0.9031191162835399
44.39354506510252 54.92903457395679 0.8758925945332785
41.98112386739151 48.61694481737492 0.9057991578688334
44.48946014364425 54.908777665216505 0.8867292004313354
42.075344142717064 48.58971676618064 0.9090438111496901
44.59449765864834 54.89034007946852 0.9000346209658134
44.57073169409292 54.88654662433491 0.8953747015548608
42.16944443154409 48.55270357349529 0.9152026164676057
44.68726211585696 54.86488632660706 0.9105581695613407
42.26598168666549 48.53086466076693 0.9182727826294881
44.76452316652003 54.84157497527501 0.9193564885829408
42.36349772630227 48.51643896990545 0.9201443926689143
42.44123860636797 48.518457900932596 0.9187960989312687
45.093756314530104 54.75426298654928 0.8266295719345061
45.175586869663796 54.73239030922821 0.8367645563764483
45.27386825985455 54.688160339069825 0.8468291513014655
45.271200809361225 54.578930919876576 0.8314077995872389
45.2096947586102 54.3427536287668 0.9200992606424443
45.194829267798426 54.31707022999946 0.9132003892049512
43.44471664095113 49.51231512126954 0.8254490091621344
43.56165392651394 49.53995931495588 0.8289883025613337
43.454509165774446 49.473071383368705 0.8364370245304728
43.44150452274638 49.40473913219979 0.8530082976591574
43.077306342506226 48.3313367523887 0.8234165206024346
43.56490428914033 49.53266845838006 0.8311638930411718
43.5425959427927 49.45078527290932 0.8499327068751936
43.53379637738256 49.3887619123858 0.8650209975095419
43.48119337133625 49.23629910534784 0.8999767163279386
43.47758314644807 49.163219232458545 0.918723588854873
43.40769563998157 48.94098891757722 0.8421661884976417
43.39738553159172 48.891548880509944 0.8528838515072825
43.15207711828377 48.31346774625702 0.8287804318484215
43.467680688535076 48.955927785834824 0.8422527586795332
43.243349943073724 48.29067326876078 0.8358369256872092
43.340363668700604 48.24953614471574 0.8470502373534011
43.435666014476 48.22731468250194 0.8548286492563041
43.49979635114889 48.2144213023881 0.8598466099517965
45.48132508085711 52.04669915902999 0.8295430731813194
44.785279964001184 50.38373804057093 0.8329978070400511
45.496676538706545 52.01821336655489 0.8342509326732285
45.594165950985364 51.99899882219497 0.8598513581261898
45.68007140255913 51.98038317839853 0.8824326672105005
46.66949751844802 51.80350776556439 0.8236041100590532
46.726886334555715 51.842878920618595 0.8330721429869974
46.67911271912653 51.78372992378161 0.8259510755402074
47.84556669848502 51.502127068091916 0.8489084360014737
47.88732893536406 51.535160329825324 0.8540985478849064
47.85859538531568 51.48103581516152 0.8514137286635383
48.07216599832055 51.410597696365656 0.8848733347104532
52.38234328453247 50.223771242215314 0.831219216266624
61.46973494558992 48.02240654501383 0.8890406946805189
61.45707906274312 47.956923458959906 0.8897938357316704
61.430753986048884 47.859728486456255 0.8904754826307573
61.39587048174374 47.76305797485202 0.890816360850756
61.38969695382027 47.69427020131093 0.8919500672027334
33.92045864051977 49.27309866635227 0.9383492883754916
35.66672639104012 52.76491547111555 0.924516681644203
35.650495864723844 52.68269308333925 0.9269245089563585
35.61932298297251 52.57905903312982 0.9315572274214865
35.58683386389238 52.50884128582853 0.936341307567359
35.58640490759363 52.46095402006001 0.9367232343347021
35.5621723761477 52.39057198784613 0.9405496592900893
35.54052826507051 52.29628556973957 0.9443431028774993
35.520702473008456 52.200028933211286 0.9480696236874238
35.50173172412297 52.103459494460736 0.9518440001213555
35.47182367897505 51.994829067771406 0.9574356230103296
35.442979941757585 51.88361952774503 0.9631247858145313
35.41704513151985 51.796706104045306 0.9681723676229939
35.39590560547137 51.710837040031784 0.9726708645507829
35.372093688923535 51.635408526873036 0.9774241423808367
35.36309176556479 51.58394951867658 0.9797492128437071
35.34920377151046 51.50770779398445 0.9833493980957546
35.316855894305 51.40484020596258 0.9901719584109947
35.293259896155604 51.30274787426316 0.995960304787062
35.267599467196725 51.21096292680758 1.0018885369313173
35.232823646982794 51.11525370743752 1.0092922114937308
35.206847094910486 51.0080953137452 1.0159977386695298
35.19016712989519 50.92828267783188 1.0207389077779405
35.28304943312438 50.702295785466056 1.0161443004454933
35.46252675415823 50.828610629119034 0.9878857962336776
35.51406430994787 50.7912081029714 0.9823644253578154
36.991247770589496 50.825757799545215 0.9855909295895873
36.91571328763415 50.703097982502456 1.0044405721887955
36.85838456764945 50.6440183587427 1.0170722431616088
38.06900363886662 53.53919259990389 0.9336343299360419
36.98496418803506 50.784143855868784 0.9887777246462373
37.20371029589406 50.30505085199586 0.9810986320740847
37.254060157558385 50.26251435144903 0.9758250637101096
37.35119703801908 50.219565335659304 0.9632098561697595
37.42261080956629 50.188012834765296 0.9540517947554568
37.54496781659067 50.20988914061584 0.9330757054537453
37.5491512172187 50.140630929992355 0.9374065757653269
37.52582406786635 50.0489453257461 0.9478621699771808
39.102243568048415 53.3830748215507 0.9769002813123269
39.0604757687967 53.33121691406586 0.9843523082941015
39.21469594826397 53.38055422430052 0.9467206004718682
39.83000480940663 49.10350687383254 1.0212471374107834
39.84786107602945 49.09171388280598 1.0206706383642858
39.912916118859734 49.094982659601634 1.009876473732802
40.01950113702418 49.085894319142554 0.9953005944010955
40.114613869118855 49.052805874207486 0.987625418538651
40.20370654837611 49.01324399332708 0.9826414854366781
40.30499648463676 48.98184974972846 0.9748755100296416
40.40170841778483 48.95907553027891 0.9665272912031369
40.52846639167488 48.9582140200722 0.9503176921957281
40.4741200274985 48.954877471794845 0.9579365970179996
40.62572210601884 48.96587787573844 0.9366200453333948
40.71191997990574 48.93458119962822 0.9330005402532511
40.804913588454475 48.90340014987402 0.9291224227785102
40.89720781724952 48.8775736477244 0.9247186204288
40.981014894436 48.838320595873284 0.9247091545492576
44.81459540953203 54.8229205683275 0.9246211172341685
42.402643168296265 48.496588531861164 0.9243874340937128
44.88052023890562 54.801652900430796 0.9324473799789479
42.46802374719438 48.497691188893135 0.9235753792342241
44.975179898765965 54.781288559569646 0.9459478601512012
42.57423422915834 48.48998000029903 0.925044325563217
42.56780665514914 48.47002550443713 0.9298422711513268
45.077228411518675 54.76369138154156 0.9617971809833552
42.66756135640798 48.451642104342454 0.9344719045524055
42.67816716791998 48.432440439090094 0.9390864383263529
45.176435168720694 54.73171232238603 0.9751658399719694
42.76480857602314 48.41799922937938 0.9432814098165829
42.74043272812291 48.41633869089468 0.9434156456803591
45.27738233519601 54.689702171161976 0.9878246297973479
45.272647941153735 54.594812355028985 0.9716419970903472
45.24970498097015 54.51221335443662 0.9540645237958902
42.852383271019015 48.39362792572958 0.9502773747798277
45.265305422831005 54.54891324338569 0.962937803303165
45.23915748822655 54.4638398449269 0.9444626717327609
45.21575240998731 54.38526769266986 0.9277205054282804
42.95895525221587 48.374253469604156 0.956925416865881
43.06060320752034 48.350167754949894 0.9651493716519315
43.46738386528629 49.122807545918576 0.928479639790208
43.4633898406846 49.06296304113564 0.9438498665455339
43.429443226424766 48.959771245429806 0.9685382438308958
43.36626176648862 48.89868250142854 0.9804625758439771
43.15814493378487 48.32273726124929 0.9745840714400382
43.465175770080144 48.98348414452069 0.9648256731110163
43.435466168086926 48.86057167817941 0.9951505795901188
43.25127795882997 48.29067621135172 0.9853885694104516
43.345951374238986 48.259842733187476 0.996404223041695
43.44139665122643 48.23694557752913 1.0060001012270878
43.506910600534916 48.21852542195438 1.0134558519670815
46.65740159452311 51.79017409108108 0.9793216444473418
46.72835141066119 51.86205941156685 0.9927079242293078
46.698745420434655 51.81536910115819 0.9876003328817096
48.445101665474525 51.311130913266155 0.9426436274479721
50.19146290306 50.89542250828046 0.9291715210974973
50.353360997020644 50.81127456494783 0.9495332225600239
50.34957830882573 50.754681178192094 0.9507965869127053
64.7434881913797 49.21382836407882 1.0069331192864985
35.16247880482777 50.883128230311065 1.0259089444003442
35.16402520712931 50.83096629952268 1.02742083346338
35.11269187149381 50.62446174526585 1.0414901366933222
35.09125934323913 50.537792423301205 1.0475607108923537
35.06569251583852 50.45032130969544 1.0542937351022674
35.1911167679093 50.42734994258127 1.0387096740072177
35.27870823528512 50.39780321355157 1.028399973647694
36.59419212859776 50.36671895896978 1.075998053283706
36.536253379263975 50.31317628950679 1.0886310038633094
36.46186315293831 50.231230124154834 1.105673157171945
36.46834363468517 50.11696663325821 1.1117100640532072
36.75834620739336 50.53918293574868 1.0392671276192424
36.68718253356077 50.46329227560933 1.055217300631056
36.63057918109961 50.401281574984836 1.0680716165114197
36.541662988534 50.086373257661535 1.101846001137069
36.81424914542197 50.59898687147607 1.0267718005624784
38.084551652791035 53.53850946908773 1.0943440838668217
38.780601291400934 53.36515270147235 1.0619264183601185
37.57174464861002 50.204077217668406 1.118541284812206
37.5683396417217 50.172636155938505 1.121924003357515
38.848859189976594 53.344496449310185 1.0421681168072578
39.33843299940802 49.27349308904651 1.0735068108662509
39.45152650789569 49.27182141081674 1.0538692337808824
39.501461447961155 49.22929387024092 1.0526368766335576
39.54735994063644 49.203740198512534 1.0493223863383312
39.59489211573838 49.19183781999364 1.0434155878422031
39.62686518747626 49.162237064015414 1.043405517593144
39.71638396360219 49.13310967264569 1.0340056869180738
39.807315731978 49.10934483522203 1.023735069284514
39.77853413191308 49.107823224972705 1.0286370021197253
40.30634292340506 48.9846274665511 1.119197663513215
40.39456688288334 48.960912971834944 1.1112039034481396
40.52890589830629 48.95410647592156 1.0929183972998795
40.46647203562955 48.950854344335255 1.1028325382028286
40.627391256859234 48.96953064526046 1.0751771931016953
40.71031152392947 48.931724480342574 1.0731699569415736
40.803508880925015 48.90066240614704 1.0687637123569815
40.90405432690074 48.87193372385232 1.0635497424237952
41.00098992943613 48.85364730510232 1.0568312083166083
41.096393533303974 48.83461810969028 1.0511298867753374
41.093496727845086 48.826265450811064 1.0536511706510667
41.194949777249725 48.80256088105747 1.0492579745451331
41.18347296141766 48.79212142595212 1.0531354503132402
41.30266697040298 48.76582858253139 1.0485050913347476
41.25115565661273 48.771573311812986 1.0518405838024276
41.39071077698132 48.74766886089298 1.04545592486787
41.49023091206601 48.7254285022162 1.0431637595249883
41.5878939175078 48.69812189311305 1.0431335798170882
41.689230394133645 48.68620750243886 1.0394373198409599
41.78439225474536 48.67759086223191 1.035941607496097
41.78930968648487 48.66128378828691 1.040139238771558
41.89680893426629 48.63834317365887 1.0408065272820435
41.87292261452807 48.63682184437434 1.042360555144062
41.981164424180875 48.61346224939419 1.0438421343008804
42.07534652749006 48.58443561385112 1.048253385091207
42.176629995602944 48.55842540469145 1.052306693234149
42.27977955707142 48.543389765682626 1.0540548122744133
42.37414626825224 48.5242885484346 1.0578031675243083
42.46841687086959 48.505106139892796 1.0622370822816365
42.616081504463885 48.466445365516414 1.072792540593918
42.56223577717753 48.478457495620695 1.0693655573249752
42.684183690443405 48.44892441896338 1.0781169589885113
42.63734838208659 48.45431710694099 1.0762610431118234
42.76782770223236 48.42202841561355 1.0865488129140302
