ply
format ascii 1.0
element vertex 849
property float x
property float y
property float z
end_header
2.0422009457066634 26.046863775891936 0.2816406045664186
2.0195129645276606 25.963159444882777 0.2788010404451149
1.9939250974457188 25.854299678139643 0.27510603239173326
1.9700486567107272 25.756215392163607 0.2718165687586652
1.9474529182141063 25.66339117570169 0.2687373880904317
1.9247690562358923 25.567244280333064 0.26557405274922713
1.9090650245570955 25.488701951359705 0.2629850488175172
1.6776191867955592 24.877520970630556 0.27649528468017986
2.2731972298702345 26.238507336710605 0.28729875078900846
2.2431271619140265 26.236467975834298 0.2873397502613251
1.9030826882726202 25.45594014861308 0.26190335104558127
1.88594977717477 25.36974856055678 0.25910170113957987
1.8587393754740238 25.257343288708803 0.2828133763294537
1.8322984286666708 25.164896353671292 0.291048588510591
1.80933790076944 25.069308364605792 0.28040058499412307
1.7891260268406195 24.98173568024293 0.283086371289029
1.7331199119381702 24.9056265630463 0.2760916548037463
1.676676201829979 24.796873064757072 0.2741807064900398
1.6624872593380133 24.69487939394856 0.27032691586067176
1.6375726497441465 24.602323555315035 0.26300961376039544
1.6126847578719965 24.50399633005542 0.2624560005724547
1.584548391969381 24.403201496908526 0.26867610406969233
1.5605761386353407 24.313307529264353 0.28152876871301746
1.5340415971448849 24.223354312654426 0.2834385165336576
2.472983372480031 26.51979878102155 0.29727585387118827
2.455081120765566 26.458231587791694 0.2950223222016487
2.4268458551689958 26.33540553698958 0.290529074603491
2.365224697120072 26.212336586892715 0.2860940135256732
2.309349212621739 26.215838018512926 0.28634840037040044
1.7944225625099675 24.88898902224903 0.24417168950893328
1.5918665678490371 24.356621982959147 0.279218970333745
1.5693755129157916 24.286614755911152 0.2549844463353372
1.540097835438531 24.20537227568833 0.2721741900433084
1.5138742461803067 24.113826427477576 0.2726762819152125
1.4870108465307394 24.016902385901776 0.27077085405605705
1.4610262540404966 23.919691938641797 0.270044621436604
1.4356967350461272 23.82289295436964 0.268941458475455
1.4163704342434404 23.736880970253388 0.26757293453984005
1.4137437461212612 23.625448432848167 0.2673736180709253
1.4505665897208837 23.678316836023033 0.27663522851414835
1.4314805723327195 23.608341189875148 0.27363616149119757
1.4080992119560027 23.515330908501337 0.271713547444718
1.3872242943724842 23.391120928794475 0.2775357334334577
1.365505266778585 23.315968401640067 0.27345423848281813
1.338766098079184 23.21760461711274 0.27749830366874834
1.3153437841876212 23.1201430812066 0.2835946576020575
1.2937736631592691 23.040181081990603 0.282224464638256
1.3208894463783383 23.089653562376373 0.2636478547066054
1.2921917058398602 23.004388503935253 0.2783287056659685
1.2698080761731725 22.920968232414914 0.2724924629486539
1.246961736572464 22.82550809646203 0.2772400821231953
1.2193777974637148 22.729295944404893 0.28686289872029946
1.1948776005552577 22.639452295888475 0.29077486863648894
1.1677266742240493 22.58391765871829 0.32041078556716407
1.2552004290691925 22.631620104681488 0.3105865030972371
0.8310539602894866 20.982973801075822 0.26919582477150844
0.886269790251063 20.96844658477274 0.26884107305846827
1.006053063734618 20.940604975504897 0.2680237684790505
0.9781826772268596 20.928751840650047 0.2687547585118608
0.7180756268192265 20.226228305984833 0.2932448698046546
0.7967327298075639 20.190604248416737 0.29332522363207814
0.8347707837358629 20.14263113043353 0.2943139396619091
0.872221929520135 20.091697435219864 0.2954156620587398
0.9203736527275852 20.049255651234432 0.2961447595162733
0.9162850118264676 19.977729413824818 0.2983918549161818
1.932927385969912 22.21974890380163 0.2791278837456061
1.9048577178922972 22.194877323825537 0.305110744558601
3.548047028326609 26.27164952998731 0.29806167690125274
3.522038403756171 26.132596891775727 0.2929859723779268
3.4896979078496244 26.010953837764646 0.2883821175825938
3.4694430544121735 25.935058808173956 0.285511328184489
1.9881096632443016 22.211820562018357 0.28061871785963144
1.962414155872176 22.163202470398073 0.26242713319702576
3.5211401089799477 25.918126469377366 0.28592211272523393
2.127641074376666 22.23694508008307 0.2695725451629196
2.0802959258595015 22.22463563958574 0.2900643770097546
3.6202428416411876 25.89716440540689 0.2872091076218477
2.218488548769837 22.22355968188386 0.2786992009296271
2.224581131058919 22.16328377215633 0.25783257115467023
3.7088381410008378 25.863369860626136 0.28803499789224873
3.703554567011216 25.729183813727094 0.2837615740748597
3.693040797226069 25.671174652395703 0.28174312632873066
2.3593636648876224 22.240340000253795 0.2514515290834367
2.324655075171585 22.225290388197532 0.27137688493526496
3.677965995044916 25.62473017521358 0.2799745295018269
3.6588287666410544 25.54378240029779 0.2770689233632646
3.6294596297353845 25.43160489059728 0.2729879000443084
3.6129100407248766 25.35477346385381 0.27029234564990645
3.588907957389809 25.260885430068914 0.2669215773845931
3.561662524322043 25.151523230304534 0.2630365463461628
3.533972204133192 25.04789601836027 0.25933034450638265
3.512778797141032 24.94460253973151 0.2873380730706634
3.4915768001396623 24.86937115236023 0.25316147798854427
2.469148657696832 22.243560235596988 0.28641632942332595
2.407741180423552 22.190797359482755 0.2758567816238748
3.4906653186895262 24.844097878637527 0.29987268452665383
3.4678449801369515 24.76043191966059 0.28118019668159216
3.4222936391889256 24.642131871807177 0.27719241786311344
3.4440947598979843 24.57537521071782 0.2691713090323419
2.5122854820102414 22.234978096369698 0.2857358892422327
3.5317590927512184 24.5485668755878 0.27583986424793794
3.645402374120179 24.542895769483653 0.29103021783404215
3.6353674354218355 24.51832363664289 0.2664962408504869
2.8942950243918393 22.46398640064169 0.31156711928511704
2.88584397289879 22.435518946356808 0.29673317783548614
3.6854198919378245 24.520747846361253 0.31301839117525976
3.6669692826690983 24.45824672669922 0.281134434552347
3.6489505010327337 24.36451282360017 0.27646619317399834
3.635021075433719 24.266237628149167 0.2716932762361725
3.6082826999160247 24.169159754054412 0.2688348977794545
3.5784666211323244 24.069377487616805 0.2635577306630459
3.576495632124767 24.003004288293376 0.2860575333886821
3.508509170447776 23.876052164389748 0.24995021547450338
3.484659022894834 23.788500159850763 0.27389816423763824
3.4720536065148018 23.71565936075452 0.2714763155770136
2.9088183814183397 22.46501340762385 0.28573732405631036
2.888656049505597 22.41291990354829 0.27786735380918537
2.8643588216028295 22.324035986758606 0.281813424459459
2.8346664625808926 22.220405181555464 0.27498892765865207
2.8083000853636464 22.120653740505176 0.2856319319444295
2.783667670536095 22.02524243040587 0.2933617103831523
2.7587121880767063 21.927871975409673 0.2962780439238496
2.7326966086452935 21.82593695988528 0.2798400393023265
2.707974879146674 21.72376554027542 0.26344612794889655
2.69094266726952 21.65147892844584 0.261343996249361
3.4819511421785423 23.665310847885987 0.2706900098591687
3.465377072774276 23.58125771163688 0.2699897767464573
3.446006073716994 23.483862885715848 0.26800684691878296
3.4225049718980296 23.385831244112882 0.2654119077324384
3.40368312160433 23.300970067809132 0.26570920343870874
3.385219207543736 23.222631735208477 0.26492767100704695
2.6777011377683806 21.597266945212862 0.27014283169979614
2.6623450713747903 21.532764054017704 0.2701557008793976
2.6394868256823987 21.4413383803001 0.2687666866608795
2.615978171173493 21.342227775388842 0.2417421608320849
2.5930828319583927 21.25548731289206 0.24458054145970265
2.577836402511199 21.180861520108785 0.24701956065313138
3.3798742560392085 23.143116690888338 0.28414421646623156
2.491572557177359 20.812259503346066 0.259167946854447
2.4798705628053304 20.778846832410693 0.2602880327142928
2.9056298364532314 29.87253308493636 0.42081984218043256
2.7569706473337052 28.849258786767734 0.3830097636800246
2.719822560063526 28.717425489317453 0.37810048780549443
2.6958315525443113 28.622753462854867 0.37460098538885
2.6718868051319493 28.523976683442783 0.3709314675116214
2.649176863410739 28.437112075209964 0.36772689654023494
2.626896329641473 28.33011407937022 0.3637662688623381
2.596086593974804 28.20243573722133 0.3590587178768885
2.566126492481281 28.088613610142247 0.3548658873971555
2.5466293532253115 28.01727173800349 0.3522291954045431
2.08839412424315 26.24216584467253 0.3917842605758952
2.063123301545517 26.16970005495565 0.38689931536202304
2.1597110054617823 26.278024066700787 0.39368421936298004
2.1521516653207167 26.263180409637943 0.3926864500960099
2.054530299637084 26.115461336108563 0.3831408808936899
2.0381409186055364 26.04907451457559 0.3786316651475097
2.013522979595426 25.948084242962558 0.3717993115616962
1.9899821898485799 25.857298841745163 0.3657220175806114
1.9658782488346604 25.761400106294346 0.3593431341426039
1.9444854460181884 25.663147546354338 0.35280592065629135
1.9216841468678356 25.563750554956588 0.38214572575428774
1.9072123086823494 25.48857606964058 0.3571539647673474
1.6630927135322215 24.86619354526565 0.4257262364688539
1.6490055258809981 24.858156904391628 0.4257469736393138
1.5603238463441262 24.66151654978375 0.4088426402796559
2.2616580469083214 26.24747177094499 0.39080507382070584
2.2336499721949328 26.245143739106414 0.3907869468616457
1.8989556480589513 25.44150962929874 0.3897446020920422
1.8791221229561612 25.364825015766467 0.3678799321774425
1.85903646423192 25.271067423619762 0.3900235508672558
1.8313595967864358 25.16414818849099 0.38890915516459457
1.8074884925526153 25.074444280726343 0.37994511666568265
1.7895455069538027 24.977153690612404 0.3796237288787708
1.7341112123212257 24.905485087270165 0.3914416599821263
1.6765672052015872 24.81394101570697 0.3664103070559921
1.6655375817247267 24.69841072377367 0.3496411557666229
1.6338606168007244 24.606173692136988 0.3432686984509371
1.6118479763762568 24.503825760409814 0.36155135855690956
1.5805115045607332 24.423168944393026 0.3629589755310726
1.5654380867983502 24.322741694613295 0.37022835341726335
1.5435043079754622 24.24297147435365 0.3644707735507353
2.4684735885808005 26.517824780564546 0.4097281142892243
2.4447554935601863 26.410558353880795 0.40202554512333977
2.4225013782437532 26.329060825403474 0.3961842735861347
2.3610616040280754 26.224569789450257 0.3887861534596514
1.5633197397260963 24.281445713693255 0.36614948450222096
1.5411718125266676 24.203553774113153 0.36087923454432946
1.5117225955630855 24.112446812119828 0.3578067523933015
1.4840599567432649 24.015578708601794 0.35141045468572574
1.4576124345548584 23.909227409285723 0.37849837275524356
1.4379784485564115 23.821842525602 0.38198740040815926
1.4205906780322288 23.735368368031327 0.38092834092419825
1.4603583979332149 23.67092563180564 0.3650212734598618
1.4399820935031298 23.606342068581995 0.37172490479222775
1.41503857088811 23.509644839405073 0.37022788015115826
1.3899542797916682 23.399461927904824 0.3788545683697171
1.3695964822987288 23.313218898676734 0.38240866064086587
1.3408987545578328 23.218570947320575 0.3812780885301382
1.3153631976128863 23.11741232228686 0.382594640225293
1.2943878926797014 23.037778550375066 0.38650113226824434
1.3163931201855767 23.081145566932317 0.36205439286353336
1.2937737416595407 23.003494804419418 0.37364108008269603
1.2719781630940177 22.923765844207303 0.37797694505479207
1.2454002635177497 22.82564263223827 0.36545567934775336
1.2183844227911786 22.728147939391565 0.37899665196680343
1.1966916075702745 22.628499425904508 0.3901629834314778
1.174639732723747 22.562317745049803 0.41083864835774175
1.565029994017447 22.796457039403066 0.4178827263101411
0.8471150110119627 21.009320828878984 0.36568502478064635
0.8852685618234848 20.969171800924567 0.36677150820090476
0.9796343096971518 20.94671041044546 0.36505749025969714
0.983130275598274 20.931167164322495 0.3658907871028344
0.707572328644616 20.209801043167428 0.41786959424097814
0.9962284774902603 20.817297991707935 0.37233951214159855
0.7930487582573555 20.18651446373957 0.416817443510224
0.8336365033004387 20.143435678968356 0.4183328436524971
0.8473614087961103 20.143354781395306 0.41795376718545985
0.8765191686982547 20.089359144807993 0.4205229531791802
0.04548852245978097 17.92697270630351 0.371592537164238
0.03115857378174791 17.841695695673447 0.374392293715583
0.0032530038031062247 17.72312516505203 0.3783617165571129
4.6090173245110115 29.544397343414335 0.42558251298536853
4.594202193736246 29.435060353719443 0.421646198480472
0.9053324954993047 20.034482511457348 0.42317654879584465
0.9100232535080734 19.998468167415936 0.42531325955096444
-0.03160316548089748 17.585913797448878 0.3830010972923852
-0.05785018036354517 17.466799747491837 0.3869707819682765
-0.09013968672816786 17.330846734383837 0.39154531061965936
-0.1104457047708558 17.19111629877067 0.3960933852465719
4.640566929411376 29.408199986907427 0.4215000529045525
4.649784883840237 29.38924807510262 0.4210144159092989
1.9330953067562127 22.20436519532793 0.3623388192766308
1.904611642470611 22.179243340924867 0.38897137339943033
-0.009764035611985022 17.162704753377053 0.3958673514403789
-0.07052702612319317 17.16632362046748 0.3964202535378163
4.7208169898480055 29.389492194315906 0.42221724207176414
3.5557447510842586 26.28994776022509 0.41098052556478404
3.5365311471363805 26.18174216169911 0.40327605004525724
3.517414830707554 26.105620791966317 0.397690613328034
3.500041013655159 26.03516739356536 0.3925340729250504
3.479909100401771 25.95938047185974 0.38694506284135577
1.9661247152559218 22.193723980597873 0.3648214891664804
1.960827190720745 22.13239310197796 0.38952212985683576
0.04906044873818649 17.154990771936184 0.395473737982208
0.05342432155134036 17.067867169352944 0.39814449763030335
3.528821725806403 25.934724110069535 0.3869259886872287
2.150075845030221 22.224990217162908 0.3619137368437544
2.0948074584482703 22.201997696772878 0.3793602561009628
0.04085577637498794 16.897709265724977 0.4035844901599116
0.02736917293103014 16.79196064256096 0.4070196194584973
3.627270686825309 25.91112893337565 0.388787328282439
2.223389909017834 22.23777229066159 0.3717046259751211
2.1740593992285344 22.198402676744497 0.4196467711909909
3.7164347250760543 25.877390940171647 0.38995295151886433
3.7091430011588606 25.73900224240456 0.38109689671447244
3.6936208724117856 25.671720932653564 0.37635094497380106
2.3234151388908826 22.216584929454193 0.3715858747779649
3.687100052246623 25.630872094508028 0.3735926773891499
3.662506596393629 25.540569947634037 0.3670969717675805
3.644990848004909 25.457815468208715 0.3613710997084191
3.613773758490084 25.34787831518172 0.3534606065424932
3.5863933836427426 25.238269651776488 0.37991243419892706
3.56439773588435 25.148376656421213 0.3779547779382255
3.5415739508842172 25.0526547225413 0.36971194552516673
3.5188632133466653 24.965178289580493 0.3831017697291772
3.497900186899818 24.889353440474856 0.3895559907152617
2.470123556523465 22.22297301608434 0.3829632205458251
2.4118424228144084 22.17915114487887 0.3780451222800709
3.4911653229319786 24.846242495382974 0.38543398597594847
3.4678993446074866 24.76564564395153 0.3770425754183854
3.423943021231165 24.644217680021537 0.38559704779045734
3.442974030327324 24.576439837184605 0.39199288112936337
2.5121153581476725 22.217200108207233 0.381850525583181
2.447748889395486 22.112315393530245 0.38859491500161736
3.52736134627525 24.550053346570376 0.3908000578492813
3.650840458676311 24.541343056609495 0.373991772788441
3.634924831365217 24.516757291876317 0.3709412065704568
2.8953487416277617 22.477307388445396 0.4105708897517527
2.882237405734209 22.436617678043426 0.4030564243793656
3.663810732261739 24.455373218009207 0.3842056455215167
3.6477059726921066 24.365477774954737 0.38890034231873294
3.6310465234959857 24.26348355422119 0.3818274018563542
3.6068160039850277 24.16539142077162 0.3714511890165427
3.576412727548372 24.064134704021253 0.36527186504982634
3.5573994526110067 23.986839008170907 0.37943534452646677
3.519469535313446 23.892607158964932 0.3877561711207841
3.4826635229893044 23.78239404125287 0.3659553997851017
3.473790403491954 23.714347320071624 0.37333231237592546
2.9057049725113915 22.469929392683788 0.3711004554014352
2.889243412491525 22.411805624207545 0.3734035853804524
2.860748713383118 22.311976407992628 0.37640695511350863
2.833846676735241 22.221787812323115 0.37713816682842227
2.806942114855939 22.11722373024791 0.37423590722948274
2.7828559728156628 22.028871630903716 0.38649087644502333
2.7616074882862374 21.942776621079698 0.39212661478428223
2.7356760486219796 21.830801955059513 0.36192873313757
2.7129495932830405 21.734842877036353 0.37135081423339855
2.693368618375207 21.653203062285066 0.3850026473870557
3.482308776234684 23.664076012507497 0.3735309255975019
3.463159215486309 23.583769986271307 0.38560131829003175
3.4408039947109907 23.487542640878882 0.38130241217462346
3.418872597850813 23.386947989048526 0.3762128885152388
3.3969802616829394 23.29893057303543 0.37231689842949645
3.368454132887986 23.201073183863727 0.3694460726872466
2.687349045055232 21.618556911691627 0.3803072352620699
2.6681255215641735 21.541961966580704 0.3869836579499717
2.6473980819696346 21.46695773872195 0.36907677279746054
3.3898381898834655 23.141772119836688 0.33934622698896666
3.6558153363294683 32.46331279760038 0.5185393080814646
3.5661469317022636 32.274400720048796 0.511152161847578
3.4927303650177812 31.955414953169896 0.4991956693947497
3.76254848464909 32.42837589758735 0.5179542351451155
3.430655517986702 31.70333710587517 0.48969113719603063
3.3721018523896054 31.464851225289294 0.4807461509816049
3.31506026478219 31.213968953306438 0.471322857387236
3.8753254086172086 32.42087332846626 0.5184680458544088
3.2623383160509265 30.984665729109786 0.46274864089577694
3.213015479423293 30.776979640778364 0.45494426844685476
3.167569406593245 30.592943089867 0.44805939980105125
3.02495869904042 30.169892312911834 0.43205892889865927
3.0735702346338094 30.16661514694723 0.43213423254605
2.568001786288053 28.09546394611779 0.5229574110909276
2.548301601807903 28.018283470047074 0.5173819872769668
1.4344368057714918 25.122857770560625 0.4755690799616662
1.3738699157572014 24.981335276581493 0.46342856788850506
1.471760308798307 25.105718978726685 0.47050601327619546
1.4362486583531273 24.98110513177407 0.4580176670896411
1.403792953967095 24.95805031249237 0.458011941070563
2.082297472120584 26.237788361549978 0.4953142129434762
2.068151449103403 26.182222754718133 0.48962099625765776
1.5317141950672903 25.042612429434755 0.5264313798397107
2.1467680083763896 26.262115417741025 0.49707897191507877
2.059197797523768 26.127146042183533 0.4839199359709655
2.039047763547636 26.05200709573955 0.4762929340659434
2.01668504095582 25.96656596123768 0.46765428927938324
1.9943688752855235 25.86660003479276 0.45754034465815085
1.9708298383741938 25.765344879941313 0.4473820324728788
1.9476641470057496 25.66556019242338 0.48390110242460826
1.9244489469787434 25.572396787597935 0.48668987077243486
1.903537709951811 25.474560852985686 0.49754577816087575
1.6622883514969526 24.901692416819504 0.471453724546815
1.655535899443004 24.850789453992203 0.48468810274275165
1.555569023927832 24.67109712472208 0.4669249673561945
2.2609474468361177 26.24089148238675 0.4937513882327398
2.225056350725941 26.2400326970838 0.49393281191648464
1.8958624270053408 25.42150722694094 0.49049121707163357
1.881615378047754 25.36983886651683 0.4839249410198114
1.8602730844325546 25.263972703724622 0.47028191472112146
1.8320501955847113 25.156200322659558 0.49070865720123813
1.8088517390114385 25.073319723413984 0.47743279761548574
1.7882525725364165 24.98440047223349 0.46485476819454963
1.7404197312195322 24.91728659769917 0.4775806193700941
1.683181326975025 24.846935350325644 0.4816003547621355
1.6248389534427012 24.5538503523202 0.49426774960719844
1.6147474424290258 24.499354746606016 0.459666325211872
1.5731936836186804 24.434507444637667 0.47160464346784037
1.512945657194022 24.316010085046535 0.4898899210224651
1.5104339413231207 24.222703243110274 0.4674108710719599
1.4821849671316172 24.13128522732071 0.4645352977794568
1.4493644174906424 24.021629400141283 0.44102007270006127
2.4694073832402412 26.511776603599163 0.5221694036244032
2.4460228087019864 26.42274861962981 0.5126255290011078
2.4237536294706583 26.34250620865329 0.5040391445070627
2.36216073204432 26.220463425568088 0.49109058081844614
2.3063560137865076 26.219078887135822 0.4911368650217144
1.5854291586470994 24.29768599907362 0.502629089575754
1.5406812634763303 24.187343467942984 0.4868326689326852
1.509859558584354 24.10861337369043 0.46915942231318375
1.4815697228049487 24.019485180420933 0.462700656557807
1.4615407106803402 23.92155347329415 0.45556813399705376
1.4381465120604358 23.82117002021949 0.46224527821749317
1.4316690218820272 23.73278190193186 0.45542747174542664
1.4750067098978343 23.665625259410657 0.4389739651282978
1.4491999585819082 23.604914754887176 0.44182402332472737
1.4207654967267875 23.508774000114176 0.4451296909508945
1.397770143408971 23.408344493001305 0.4495769198990036
1.3909476388759825 23.331345035093538 0.4517972985789501
1.342064091660957 23.200483338419367 0.42993860634180847
1.3306569394630527 23.12900625535355 0.4463167687898142
1.4123947662780418 23.273065152283785 0.4473710510847242
1.3762422635428475 23.1870642074227 0.43464331086290897
1.3367288592030309 23.109107396301194 0.45524245808457453
1.3051624468920382 23.01646475109077 0.47151880286292147
1.277385511613765 22.920763122140944 0.4866426626481536
1.252878305351165 22.827006579303884 0.47416142954832496
1.2261872322766252 22.722467156810545 0.47299748421072285
1.2000460212649544 22.62357309063608 0.49143581074865683
1.184228384559562 22.56523216284081 0.4811554472116264
4.98469955675167 32.233923548579085 0.5233455824638901
1.3589068691945825 22.64951137836424 0.5257666723163356
5.0357103382065915 32.12404883007512 0.520217517157856
5.117454295404643 32.10647389676243 0.520733469308273
5.1158430706680775 32.104798411900795 0.5206492692464482
0.8846796239840198 20.961401856218988 0.4658880562611962
4.757880609646693 30.76769832504368 0.46956718124523267
0.9978725298519284 20.94082390602149 0.462011622854005
0.9730004502028546 20.920158495803776 0.4651170277156724
0.9925683615162231 20.833716435859138 0.47199109557257546
4.814686868206114 30.73815546728788 0.46937568199296686
4.82637546601991 30.716166123271304 0.46878755440454456
1.0041795452851803 20.834013352682234 0.47140743688890197
4.899254764966626 30.72453512281131 0.4701672519919615
4.852825652085567 30.464806452980387 0.4606126523430495
4.778483722936776 30.17121269808858 0.4494913316532295
4.7200762315114595 29.929076470594595 0.44036013383737027
0.9021845611752604 19.93317482471027 0.4296150557857785
1.9122033725247127 22.16680401219218 0.4623365823855461
3.5665553500196463 26.285621937198687 0.5237630380223124
3.541157285830231 26.221852524296388 0.5163829726349609
3.5127914397151576 26.092992442161428 0.5024624370093672
3.493188838760335 26.017244567085548 0.4941609803871643
3.4715592255984795 25.938036025786296 0.485432198766223
1.9457245272576806 22.18465869914307 0.4360936205336221
1.968561637961165 22.139008045961464 0.46899943014342693
3.529927727266934 25.936359719613947 0.4879630101711524
2.145918017245734 22.243966742943822 0.47565822971487826
2.083229661220866 22.19360361865151 0.48202280771591133
2.042323760194377 22.134208998115138 0.4471798399826702
1.9921760873706558 22.032259998590334 0.5128553238654275
3.6292010739373812 25.914475399485692 0.49070674572139183
2.261188783963345 22.284478471292775 0.4698234135933226
2.2255708740774027 22.2689184126727 0.4555254297987874
3.715920850859814 25.87585185079533 0.491611572607872
3.7067666204461744 25.7341234358175 0.4779129754319139
3.687780104375787 25.660663762871305 0.4700604008899788
2.3318179696048147 22.259679875044103 0.4764667031513842
2.3356561827934716 22.238400136838223 0.44847254407075454
-1.0385359819361524 13.360027685350278 0.5253650956892346
3.6778690062452704 25.613873507846105 0.46519261906652853
3.660633079493067 25.536859106262376 0.4571474231466155
3.635007030432344 25.43226435633774 0.44612868212160206
3.6090477984020133 25.341507568478285 0.48914938974917443
3.5886427490059942 25.25596443647625 0.4881251378622148
3.5597455311119583 25.14786963602981 0.49343618525800426
3.5364097297279713 25.044622091191762 0.4793566023970087
3.5097118256661917 24.941894144520788 0.4651499503228699
3.492166025249725 24.8680479107482 0.47808606577431756
2.473247546280957 22.22103768861175 0.46347741194717695
2.4191517423445124 22.170518856199116 0.4839649758518232
-0.9951445805831343 13.31452744453085 0.5263457215894636
3.4856051854057375 24.83553549856377 0.5015867362790426
3.466869249535686 24.76417686226018 0.4736524140112839
3.4229633993171933 24.649450278132207 0.47618538705807345
3.4456647188464427 24.57724221571965 0.47790008309851706
2.5095225535722556 22.214878238336606 0.47445395844140514
2.491373175914912 22.13418644376887 0.47188381093950504
3.5368424668334546 24.547753861986486 0.4778149705057071
3.643998596937057 24.5424271001527 0.45536785276694314
3.6408095053924603 24.515989601200353 0.473700355636157
2.8986071988775937 22.48138407208597 0.45268111309889447
2.872407801101976 22.405789624360473 0.4552336219071397
2.854255789121632 22.351046590450846 0.4666991796440727
3.6632391573928675 24.45598322409612 0.46056587479600375
3.646502758675524 24.364956948811837 0.4788954825391091
3.6287529543295296 24.25901421071815 0.4903817607453551
3.603375007173658 24.16801531850886 0.47668319365702405
3.5811248760603567 24.074973472187164 0.46735052904413554
3.557545080849468 23.987391799687998 0.4792640665614323
3.497863040318861 23.883569309427386 0.4778743299206659
3.4757869333015394 23.789121776094404 0.4649193698454783
3.4641731293809506 23.714653131845928 0.4563320081669032
2.9082921219772433 22.484968024616855 0.4531167088355649
2.886435434114529 22.42241116545277 0.4579744737195165
2.84802129578524 22.311525595763563 0.4672089088816974
2.8276725588079943 22.215602264063847 0.48104720009553625
2.806537203200899 22.13169751631919 0.4737294201132348
2.783238900829359 22.027071901636564 0.48257689067869325
2.7570630418632454 21.92159274500861 0.4796822501259618
2.732155851968176 21.82754786748103 0.4669108655185631
2.7095393322893644 21.73006879365648 0.48992280409807243
2.6903399199300053 21.6526276861429 0.4864349641737601
3.4746968721548512 23.667111627124534 0.45637492394017054
3.4501374917471566 23.59223051054705 0.46111158347887726
3.4265316295096575 23.489302434574245 0.4554303216860518
3.4078962082367985 23.391406424148634 0.44871715776927923
3.3833633503090006 23.294993453669758 0.44285230384138874
3.3567991989355503 23.202940592669776 0.43884137848110105
2.684081925099872 21.609289865281227 0.47863414422190464
2.660510756782647 21.521570226796715 0.4768212332353482
2.645279070159383 21.456644183164197 0.4591279401418197
2.7594757975035216 28.8595676381109 0.578296289752913
2.723124181014407 28.742938363853284 0.5697890251151029
2.6865188508192412 28.59020927332349 0.5587228171126626
2.640215042194108 28.394863349428128 0.5445822120476799
2.6094503446492063 28.27747765024212 0.5360921480364723
2.588340460897493 28.182502032806354 0.5292271005941267
1.447505787746604 25.161628255134065 0.5716467310789337
1.4167354064449096 25.128759882440466 0.5793820312082115
1.3722699576360844 25.010694626367066 0.5811830455225161
1.496098291876025 25.09427903256019 0.585579957865482
1.4226784173594533 25.005225158614802 0.5594302076487663
2.0840797242666085 26.232380016644697 0.5990758745161425
2.064680809334855 26.178124971156645 0.5917671233147664
2.1478433158744337 26.26376696493521 0.6025038449291653
2.056540736791383 26.118364913873314 0.5834835173804673
2.040215678187585 26.051986157359913 0.574461779780588
2.014966159409905 25.954658353187497 0.5613215629017057
1.9916992759468433 25.86158417758485 0.5488165072391918
1.968246602411311 25.764599537421486 0.5803299525148707
1.944897085895324 25.656522990774246 0.6071706728310525
1.923168554418428 25.55702686798677 0.5906802103402683
1.9042204537569658 25.476574514642508 0.5775120677449394
1.59931987383972 24.887848844511268 0.6232402754453522
1.6482396906200505 24.84304377924986 0.5811822773644975
2.2716546114926155 26.237503575791855 0.5973673334440563
2.2207530921169987 26.245725266500223 0.599004810209429
1.893886252567457 25.43481677862812 0.570742409149547
1.880153233144483 25.35769444310335 0.5675154264104146
1.8559429248457457 25.266556160279336 0.583034793844633
1.8346923511264117 25.18334458124283 0.583798460948505
1.8112278131671302 25.073372407487717 0.5782330481946101
1.7893221924884897 24.973915243591186 0.5807300289647178
1.7388071101921176 24.897601037083547 0.5763772294233336
1.6818362126838502 24.840201235229692 0.5717681113736391
1.6239165116632428 24.56670060106115 0.550219823832494
1.6151431412916373 24.499375242409286 0.5375843516002468
1.5601323295772567 24.447817437260234 0.536002941001357
2.447209607127778 26.42998811696454 0.6242049222998596
2.424681029223045 26.332279423414043 0.6102765551817744
2.3581382471203773 26.22298655447272 0.5948394288501287
1.7920823577171876 24.890955948999785 0.6016834208696001
1.2502682746492233 22.786861825766675 0.5315800339721422
1.2326515096478106 22.727476245480855 0.5439234289308696
1.2009487230494869 22.62925516483098 0.5657883017111908
1.1908607803973845 22.560132789158693 0.5788515385929579
0.8851093656800455 20.964357382950208 0.5648570531902116
0.978511482851212 20.949641827044633 0.5601213396387554
0.980060724893836 20.920085423261924 0.5636115544084077
0.732198002690948 20.193776250391235 0.5427875938895798
0.6808793687843762 20.189275233012644 0.5455720911967096
0.9954595169644957 20.82082516446522 0.5746252964079378
0.7669169276875998 20.179281064038157 0.5425525142850087
0.7964790177384737 20.12747918350658 0.5460565334298888
0.854222453037375 20.074243772052704 0.5485594461854831
0.8868333828243715 20.012103554139404 0.553055331853946
0.03172018954506539 17.900706133207088 0.5796253719436792
0.8941754839198466 19.95024435402712 0.5586166791910997
1.9147160154264316 22.16246439052822 0.5360403411637736
3.5163261893076774 26.11476166754719 0.6120627345603912
3.4917469219650803 26.01258891824223 0.5972593398774133
3.473996556107023 25.942871341171834 0.5871065459755741
1.9730392565441166 22.141443486976133 0.5357776019486052
3.528701734627261 25.93251604647634 0.5890470188667216
2.0216519946707603 22.09865838716289 0.5429106330817135
3.62742591492158 25.90987738041175 0.5924113488888278
3.7133996268829383 25.870326059519396 0.5932870355860705
3.701489689025805 25.72396576842361 0.5742173977218958
3.687071533026711 25.658892732081227 0.5651288772826774
3.681837938081716 25.630136338291344 0.5612009082074298
3.656919173743825 25.539088888207846 0.5481770646152385
3.6411501204971355 25.453646548512737 0.5897946903853055
3.6104922132325092 25.341515823640023 0.6056378482554937
3.5877625496334735 25.243001945152173 0.5885885408326769
3.5688348637133576 25.161757964002234 0.5745733391734831
3.5341580632627982 25.04907855861717 0.5823679615962077
3.5148851230160205 24.961494705211365 0.575673404553808
3.4854726743452815 24.864171560298804 0.5796783435534324
3.46793823000296 24.79712736090936 0.5775735898733917
3.4095660902959084 24.64742601743895 0.5753801287651069
3.4025804498356518 24.623964544376097 0.6006112606432584
3.4564204750715373 24.749839699566547 0.5679698572002603
3.4252849440595825 24.666039848537604 0.5657072587768078
3.4341713457050984 24.572396662568487 0.5673518947010326
3.5320747801182826 24.544804290224718 0.5743659349418091
3.6245265790808694 24.544064282372954 0.595951833217818
3.6434074924778512 24.500425689157872 0.5866251691741053
3.6368802716890607 24.406760822413656 0.5732064792005958
3.6607669842072363 24.458053716757593 0.5850451355549369
3.6371500621820063 24.35799607873352 0.5687368354075635
3.6336580942340477 24.281260885504018 0.5678856642154432
3.598993580406731 24.174925955846458 0.5608725864848905
3.575295957878506 24.07442147542848 0.5421197964939068
3.5641918751244877 24.00655245454353 0.5310424001410361
2.7957615814362704 22.109282203001822 0.5385880927166792
2.7805320460057796 22.020171597737377 0.5616379037820823
2.7544852993406903 21.92779471860268 0.5648892395222772
2.7336536922311243 21.832296544406212 0.5818483974466037
2.7117147960632506 21.74226351790295 0.5859048627211091
2.687488946756813 21.650677947338515 0.5684833966927261
2.6798859730933247 21.600381362770197 0.5754146759579665
2.663034887397604 21.535448829525134 0.5893914970341244
2.641632592542271 21.456643539533555 0.572153594130028
4.706507081834088 36.63242204182324 0.6762637187093202
3.217565280973086 30.79831647737659 0.7196875862722448
3.1692737348432125 30.58887122255705 0.7043913387023678
3.123182175403985 30.391096426686687 0.6899193282596222
3.0292157102906545 30.19248410424634 0.6750760834900815
2.909853070619482 29.896362878232747 0.6531854871988289
3.077530349743617 30.18520862134006 0.6749120792037786
1.3570032050240775 25.197069348822765 0.7232490135610444
1.3264639320596774 25.146233007574267 0.7165337330606729
1.3108536282683376 25.09061803737016 0.7068942255000211
2.651849446519794 28.42323081158216 0.7269865174205893
2.647062017568576 28.324859555343515 0.7164552928151552
2.598969437928589 28.19473319784463 0.7023490160590069
2.569048518138605 28.080500021777805 0.6900437566452408
2.5508073500940767 28.043315442449014 0.6860071009080981
1.4115150534648073 25.18715940207404 0.6627328968093298
1.3803813950252137 25.13409199073192 0.6738010085697802
2.7170628431856345 28.337807887919677 0.7182508120262435
2.0804380072605078 26.230968714884504 0.7043112363743833
2.0701138738340643 26.187247292163562 0.6968038936648184
2.174015662333479 26.272058559880794 0.709829626247741
2.140877356234469 26.263306100566094 0.7088671382642524
2.0604298948436472 26.1375856421529 0.6882496338867926
2.0404541105209484 26.06022851278891 0.6750861008549714
2.015027336423284 25.962425506038397 0.658531504454498
1.9892274917393935 25.8478855105825 0.6545821068129819
1.9748743576597572 25.761927312075795 0.714908675572695
1.9510000141906214 25.67482562367421 0.6975530106393015
1.9262955811047873 25.567392636919674 0.6761236781283976
1.9013966182117212 25.47652533264649 0.6583662639998163
1.8787973920983925 25.405742650020244 0.644852232130545
6.295404704102108 36.91055851985308 0.7029618308371809
2.264869198154677 26.242779805336898 0.7034755203667463
2.2332835140699814 26.241465944875177 0.7035811529942333
1.8909452661372048 25.41873324205981 0.646876416864075
1.8803444280060384 25.36463625426163 0.6881907475715596
1.86111422442894 25.25911542472028 0.6901040770761919
1.8333978415990304 25.16245981368695 0.6676183104658857
1.8099498437335342 25.064738533326125 0.6440849717693732
1.792039816880066 25.003215173993194 0.6334591686893755
2.4707488711172156 26.520598472477484 0.637148225334376
2.4260056522712765 26.351809387892384 0.7221592125834154
2.361865950644455 26.21606407223573 0.6980849329532011
2.3188007955726873 26.209523792549277 0.6971164576091725
2.3995612195082905 26.197428052267497 0.6946554970162002
0.9006248840948952 20.98194620133595 0.6610563337668689
0.8978221116806908 20.964748355273105 0.6638582366258704
1.0056362529676586 20.939641176571374 0.6582303558974699
0.9756856344189901 20.93139917609903 0.6620543222227153
0.9875127990506101 20.829627380152317 0.6765244180188719
0.7397856758716632 20.184172218116153 0.6690681400318413
0.6822399317610992 20.16898178206603 0.6745500893961051
0.9914387319347442 20.816088224756385 0.6782679941127866
0.7535934666315833 20.183602336734527 0.6682782339215226
0.7882288963900574 20.142023433041814 0.6713505296068091
4.833774111599197 30.40547016257483 0.7212074608457142
0.8440732194014424 20.085127761889172 0.6751771470545609
0.8732175011973728 20.015037725983486 0.6823604452500406
4.7810209790145315 30.174662188219425 0.7043122078041046
4.7233897186197495 29.934859517540602 0.6866816174003386
4.616551882065937 29.5621825255177 0.6588269262034083
4.5984565743539125 29.44364047215825 0.6504064288104497
0.8968048319751165 19.959562872719246 0.6880932014031323
0.8837457545192757 19.831835333499342 0.7050747884730356
4.650630810592666 29.421389395927342 0.6504066928622741
4.713935735751706 29.39980251494286 0.6508110733334336
3.5482982158463434 26.25330640454544 0.632078011171006
3.524995558352922 26.14922564266251 0.7267230371277825
3.49416058461556 26.031131676536475 0.7051337682634135
3.4705291667223146 25.93341114870465 0.6874144595877315
3.5268366779133427 25.927425668820785 0.6906133341432098
3.6241041673991425 25.902264649185312 0.6941858065141053
3.711630423864815 25.866289292369856 0.6958599685449482
3.7039982220134595 25.72815314391493 0.6736183652687222
3.682818301512295 25.650732977972414 0.6597111898207962
3.4607691011318424 25.177978306545988 0.724030546196639
3.6783837995221402 25.613799453949433 0.6536091294276939
3.6528599408660507 25.531116329154735 0.6845572933348618
3.6343118210463023 25.459351119898976 0.6931467962769992
3.6107460946295484 25.357640896344513 0.6946905585813635
3.5832117856857257 25.250357040551584 0.6719813911056748
3.555703026634583 25.14293663094183 0.6720886720758199
3.5323943040994 25.064132187376757 0.6967237311134782
3.5089273147763613 24.9648952580565 0.6856806779472414
3.4871726126376514 24.873975381293 0.6638181816647585
3.4642055130397384 24.802806460411016 0.6459014975864319
3.460640727163666 24.760780348859136 0.6369202870446689
-2.730686236153892 8.01007169886482 0.7101985759670403
3.661382433048781 24.53226912411495 0.629369817131404
2.7060190703827365 21.725263132587788 0.638734351272969
2.689415346972267 21.650493968158038 0.6588831443735326
2.6854514791715696 21.614708089587527 0.6687455588223666
2.6613330908674295 21.528871272090836 0.6833081683582111
2.641615003977906 21.465306271871103 0.6811268589225352
5.129122961654533 38.44319039694682 0.7446617244343384
5.204200679475429 38.41314424260392 0.7442384798291487
5.315071248950353 38.421594792698855 0.7455068565670964
3.500530581423331 31.996128260756315 0.8074773334484049
3.4375134391256843 31.73863939496674 0.7885509413367713
3.3771589148059795 31.486779268962785 0.770100481299869
3.321560476994077 31.25028110394058 0.7527554831312384
3.269399581124041 31.027390862679333 0.7364543609875996
2.7884640650620067 28.742806795468642 0.7619481971923958
6.449135362519316 38.12112882664127 0.7471079323618599
6.5282183126106155 38.09927710792749 0.7473358818308344
6.570353356347054 38.056251685556134 0.7463561977306964
2.0825084897119277 26.222763676588475 0.8091993860415416
2.145413014757095 26.260276740700352 0.8157795101664743
2.065228845874837 26.150984145210536 0.7943769374179597
2.042531780151989 26.053176296425026 0.7742367721113539
2.0208661678796647 25.961997822695253 0.7555664122274752
1.9943321370271276 25.8633476501798 0.7670153035908127
1.967953317907884 25.75744368501586 0.8058598645394334
1.9423718432136892 25.659920248063358 0.7830589381014903
1.9207342270541443 25.56031996709526 0.7597241993061629
1.9009454782193644 25.469801189329907 0.7387128559284506
2.26869103176995 26.23946335955615 0.8093426926934528
2.2436272862312476 26.237628715243705 0.809257084640652
1.901200163135246 25.44683475569394 0.7330702146833146
2.4718276157254686 26.519370193511172 0.7521065029210284
2.448080409776574 26.42139981412823 0.7345891976812888
2.416121687813135 26.304694256591127 0.8225181672846177
2.3536480928202135 26.21484791738112 0.8034122484675319
2.3705444482867497 26.193227137528094 0.7986753478846317
0.8937371343958473 20.96434747613907 0.7655546912369481
0.9956262126754158 20.944192318164884 0.7583530033584014
0.9742139564619332 20.93492524572403 0.7623083742989819
0.668050417064701 20.211336341855063 0.7975829112117464
0.702418858539116 20.183223248815406 0.7991438059486017
4.8859728612812265 30.806895953118303 0.749585248200687
4.836796086096301 30.78633126190464 0.7469285832053009
1.0025804597235126 20.858827796993246 0.7733250273447216
1.0003237112803516 20.824166545779256 0.7799528188068193
0.7750234821571065 20.132841658844715 0.8013055806747851
4.904667718509291 30.736429270685868 0.7453296858787747
0.8309711602232672 20.061056434457733 0.8083880410899478
0.8636692605970335 19.997315080319943 0.8161304304093254
0.05902339186596084 17.968782672483428 0.7801182710868111
0.8819934260002964 19.945669927858003 0.8230703101393622
3.5509194467600915 26.258602220789836 0.746548717799741
3.4988219283987805 26.054986337885563 0.8168755298754481
3.465230321348804 25.932493585259643 0.7898076193801942
3.5216992459598 25.914691499956266 0.7912882060371701
3.6209610712918585 25.894905864832648 0.796725329448514
3.6808752679295065 25.88168088117184 0.800103990672578
3.6219126489180593 25.64267983859535 0.7487791415775258
3.619149994242938 25.58076932600615 0.7369137670083109
3.5924741078800797 25.486529784725818 0.8080754701966053
3.4803493684399687 25.25934894135886 0.7442262915637065
3.501528652165895 25.21707890737942 0.7378457338236662
3.536084951910307 25.180642232632355 0.7347129080993111
-3.3939845535783877 5.410603596639927 0.7984106016771519
3.6596584363942117 32.47266598733009 0.8429380245330232
3.753377786343229 32.45853558401417 0.842990964282088
3.8450503048620237 32.42019049456594 0.8414078873252379
3.030214288717319 30.1807640818668 0.917233078408767
2.9309103630226003 29.84146974073318 0.8801651967673707
3.0808384446127395 30.197236393581623 0.9195269143458767
2.56296302321382 27.887133980929722 0.8319311879294604
2.6089451638585297 27.863828665079566 0.8288531908862963
2.078324931954996 26.226683580932125 0.9182997364316842
2.0636957161840384 26.17432407479045 0.9056864427971034
2.1712759965682955 26.27219780101125 0.9272864358393453
2.1494328489492585 26.263074705430675 0.9255388649747718
2.058217302904454 26.134612432765152 0.8959587149843158
2.043076433028202 26.058476576859146 0.8775063268809635
2.0180087626988823 25.95823369373863 0.8534923112938166
1.9973332285577148 25.877085140812135 0.8341778201630228
2.25039593417392 26.249319768970928 0.9201696489706338
2.2903892754188524 26.224380250238603 0.913368311371431
2.4728076982083724 26.51499475839842 0.867744532461006
2.4497336883020813 26.450938518434953 0.8539295925615774
2.432604315113988 26.369057178217968 0.8363333388203562
2.356259765865084 26.224654836171368 0.9129660851971347
4.969763342165419 32.17623367153838 0.8446074782862287
5.026376730875259 32.142922266541106 0.8436438008285918
5.05516949193016 32.12597281899164 0.8431739049467535
5.1361148558413054 32.10938680561366 0.8439982817739125
0.901485137949031 20.98260619217293 0.8634851176364364
0.9009305099851621 20.968592357411964 0.8664839579941223
0.9838171682243502 20.955819901636062 0.858779199249186
1.0184093601390705 20.90917411540002 0.864574243348625
1.0107681876925754 20.85553576927364 0.8771045667930897
4.555579968076131 29.666679559729346 0.9006424998267649
4.614685013036674 29.623046141495326 0.8985377316611755
4.591108348224095 29.60316471351224 0.8956380453760372
4.600650305541919 29.44651081370021 0.8803375486960189
0.8830619776792688 19.899907587109045 0.8303160922340485
4.649866135010026 29.41633668790036 0.8793257235792162
4.715000123868034 29.399873853703998 0.8803871888141177
3.530840346307045 26.19168403452881 0.8466499802001431
3.512514868289074 26.116886002568126 0.8302901573083291
3.4763540781210263 25.998370741297848 0.9106548396519051
3.466794686660454 25.935244644027097 0.8950818289490085
3.5248411437022957 25.920923565053887 0.8977380722244416
3.625997649425382 25.90472263055632 0.9050543968412829
3.6823448900659734 25.884023129080227 0.9068751846491148
3.633298293168484 25.754542379415447 0.8722062844212071
3.6463106647215717 25.678739748356055 0.8570139740998945
-1.0234689488878894 13.35649849628965 0.8941354622897401
-0.9955857757458833 13.323759724684479 0.8956360462504128
-3.6509657406365243 4.047076175418958 0.8438278797475046
3.2758198128538902 31.06437064779759 1.0139442269388663
3.223731095030553 30.83406266828545 0.9888294363727411
3.1644722416403575 30.52446431904921 0.9552536774164825
3.1223895729111595 30.362903463097613 0.9375845283726907
2.7902732662998746 28.743439087025873 0.9553495507995599
2.5726963334992456 27.896354550280137 0.9978204849931135
2.103810820643681 26.27610049079727 0.9299100208955907
2.1135988961767733 26.284854855072016 0.9318343192593335
2.4681983228536186 26.510470017742037 0.9847553233249267
2.4508406670755045 26.453582369451247 0.9703935127738399
2.4228627496350263 26.340482060100875 0.9419155784067502
0.9114402502454759 20.978745650932424 0.966740189825618
0.4648607770937345 19.818545388396146 1.019394638446209
0.9821571639213227 20.95528951296981 0.9622071376163787
1.0129310692442033 20.901955327134328 0.9710338443393304
0.6657786473729037 20.036019772679257 0.9593503542639991
0.5851841185340594 19.968661561952636 0.9797020519331248
4.751942011324756 30.481668944484092 0.9900413256057689
1.006388360204285 20.860343050685266 0.9822936513832594
0.7431476461005022 20.044726854170342 0.9504733703580914
4.646894518202416 30.0094434619701 0.9385557958551694
0.7900736358298941 19.968859572720277 0.9606061010641157
0.7833001739780414 19.934484713792262 0.9677639541290611
3.514302334263429 26.134622373986065 0.9460116273758443
7.254084256441802 46.886745432560964 1.065406022981641
7.332659595087316 46.8622155968036 1.0652262744365075
8.551055215646139 46.58573749976425 1.0689138841970505
4.557209518604814 36.152349091978074 1.114031014720118
8.635380346124649 46.57565338688637 1.0695478431606542
3.509231564094567 32.04371690886644 1.120944655609502
3.4435673528667836 31.7673519786756 1.0907139012431015
3.3845892058845903 31.52816028907125 1.0645689196990085
3.3280703064661963 31.286532769581044 1.038172381467136
2.932273268088111 29.83267295397844 1.1114488854130466
2.6975684923873375 28.5375837391756 1.1129367643634132
0.5713616033223787 20.015636924714116 1.111105727272158
0.6462066160379321 20.01632859358498 1.1023876704036508
0.5918078585284716 20.01109613190727 1.1097319478664418
0.6943116696978575 19.96561193596753 1.1082277656185946
4.586009296931192 29.469932779299008 1.1141124344217015
4.640187357913443 29.419883522826503 1.1102910385613325
4.712830403885123 29.39144968530379 1.1104253754820148
3.663586904315058 32.48253186519519 1.169706652102393
3.755149165780404 32.453280772157925 1.1681073658356909
3.849333502282487 32.431360215401206 1.1674616913989702
3.134482179309626 30.458098925512864 1.202789699633061
3.021463249028452 30.190069433162105 1.1632469900556037
3.0864644655921016 30.2321351255284 1.1701081707647005
2.794482406548733 28.734365181853928 1.1490400818109432
2.7343805748414853 28.690180393116115 1.1404551195977064
2.5737960500169836 27.879807178589576 1.1608613661543075
2.611853962227252 27.863972111303298 1.1577947703911864
4.967843078635148 32.1633168415167 1.1683177183262934
5.046862404722319 32.148231735693884 1.1694096614404945
4.996446474573853 32.14873860692479 1.167777430078464
5.140897776756987 32.118849015543766 1.1696585360007954
5.2313932952537385 32.0875297646533 1.1696985801578355
0.5762945281201768 19.63644769472781 1.1940891537992466
0.5662209958219702 19.58296217339838 1.2070705561089141
0.31102432830690274 18.858876391888785 1.2148230267848896
0.32321421607859735 18.805782734427122 1.2239497100017482
0.34218796064901413 18.785304486100568 1.2262628322944844
4.587099243877978 29.64686012816808 1.137800970794829
4.614606829197836 29.61941762925815 1.1355208128795848
8.700918474253529 52.877100387680905 1.2925697094734248
