ply
format ascii 1.0
element vertex 846
property float x
property float y
property float z
end_header
4.224386017507022 35.12963328515769 0.7935338111061236
4.237246686564852 35.33033009964591 0.8721635178787623
4.269241438382843 35.39970293065424 0.8268749541818468
4.295978229938688 35.479201475583395 0.7811342802105934
9.14270165007692 42.621524417850324 0.8320560709976398
9.174949655310906 42.66608941891974 0.8301627250539704
9.2574096497245 42.74981202981944 0.8311785629127311
6.505871343400818 44.63054692649233 0.7447914661014896
4.212436837478311 35.23845330164902 0.9674000972609131
4.256104155386758 35.321551359855675 0.9361067416731135
9.412996960782781 42.8014151513571 0.9336436620124713
9.26055720319143 42.652287729315425 0.8801522747698106
9.300323782159186 42.76797575475623 0.9004018966030961
9.340867546436943 42.86825242119399 0.8721507168672087
9.196883857037857 42.595481740615746 0.8777178625770652
8.191099002979016 43.941042512444355 0.9438342700828638
8.027647032014645 43.441305141689874 0.904018138892361
7.997818515717222 43.52595424002998 0.9127543722399699
8.015006938870979 43.55828733169005 0.9067639989046011
7.905055681482677 43.172365376267706 0.8965930158959526
6.41686804344852 43.93231962821094 0.9506446946208444
6.458052011980985 44.02854852904751 0.9330013195202869
6.498731875434866 44.201525570567675 0.9441100235327669
6.569668965172533 44.69092218543109 0.936165030902347
6.353043510998676 43.704832827488985 0.8961305817348098
6.34816788775137 43.77816992790814 0.9134703114860173
6.365298919340822 43.85194440662366 0.9429302029054515
4.191290622741752 35.19053195274 1.0244228141611693
4.229897459988019 35.26536621862651 0.9893089486398223
8.106178116532577 43.60838275542812 0.9550970298887523
8.138580853543843 43.68266990417656 0.9924950735837181
8.17802743861459 43.902901901316966 0.9679444721099821
8.199261469197783 43.943347411167515 0.9621044169833637
8.075927530423606 43.69836515412332 0.9647415155604339
8.097008400009935 43.74843769009815 0.9897789336530632
6.4328056367675375 43.97970657237397 0.9561112605027899
6.450501255267438 44.067745587598814 0.9635448866856051
6.505520137209973 44.33794640143616 0.9572114341536446
6.574719766894133 44.75685764582382 0.9628451893169768
6.579885895636756 44.82429467411968 0.9901370900591331
6.435803680419391 44.077904030717036 0.9573182695342592
8.20735630419434 43.99343376314224 1.067648604736309
8.4136432112444 51.89379134204529 -0.2563245170727917
6.799072306624925 45.42106132895468 -0.2674090730512631
6.759906296733935 45.26267418579121 -0.2565071475437314
6.721634418144371 45.102061856780736 -0.24549030343829512
6.277340770782872 43.28855852956949 -0.271866073013602
6.251428574315088 43.17203616577626 -0.2598082821075937
6.227182630224691 43.083181633961274 -0.25060890717421264
6.011946892021198 42.19826736571568 -0.27256964448440135
5.9877951098020645 42.09825461098212 -0.2588579539900837
5.969109012038412 42.02404303904543 -0.2487106175302836
5.848163161985812 41.515337336346605 -0.2697591564273315
5.823679903430659 41.42234102349875 -0.2541014991269823
5.809236412523855 41.36497019586186 -0.24446295952721028
5.727796105503495 41.0746834158521 -0.2724883327412677
5.736180674830637 41.0891427955082 -0.2752020074188091
5.715643515575941 41.0220850216999 -0.2620718423004261
5.698135759777672 40.94995533249231 -0.2478811552519725
5.645891162845574 40.728123610950696 -0.2702293334818426
5.626674817595775 40.64997648278635 -0.25282739745128907
5.597555545969462 40.493232752462895 -0.27656149776690664
5.579870982821941 40.438474706666234 -0.2634782659502802
5.56098544164823 40.371047824067126 -0.24734376345273465
8.464846187532325 45.12773118264151 -0.2716288536912958
8.423213488587324 44.957681444616185 -0.25994657009484273
8.377263797676175 44.780716910036524 -0.24767874374961277
7.174507999924205 41.306666398344724 -0.27051805797953316
7.235023694423393 41.300773033092874 -0.27375363900121935
7.335805097584532 41.15684119742628 -0.25891755680847206
7.317409475985828 41.08329451925243 -0.2462174849656604
7.378992020896587 41.053792132824896 -0.2468593093545509
2.6923426334077747 28.783213769767748 -0.25488683662264994
7.439916102550282 41.049792619920304 -0.2514760419879155
2.5562842733441236 28.247170080010736 -0.2763664733998808
7.203434271165701 40.112749259631705 -0.2675938505528106
7.204717458790529 40.04557506166729 -0.2541682546041231
6.5514503489273475 37.46715111408339 -0.24707650948069512
6.536844885651668 37.399887430996415 -0.26250551983850967
6.52020508069558 37.34425079124935 -0.27506374796834887
5.560456501788742 33.452671712991574 -0.24792981010808232
5.527486886438642 33.31766740401133 -0.2581000285839049
5.4925699473465235 33.176961958067054 -0.2686913063948233
3.8368617737658877 28.64418397282336 -0.2469794610611081
3.7823379131848363 28.651163117582875 -0.24720237417351984
3.8885993427633814 28.61557837374773 -0.24761388869377168
8.247463848676714 51.20458411269612 -0.23345897961527692
8.111739509903144 50.664077076963856 -0.21554039815065956
6.686056823316355 44.957196427959666 -0.2355279712963044
6.653668725243704 44.82994281282349 -0.2267937442725918
6.622845360892432 44.704531745601216 -0.2181754014593049
6.591766448804599 44.57501697790961 -0.2093052772762976
6.560397623680341 44.439499840534225 -0.20001313828576595
6.531968930808156 44.325648601436825 -0.1922156640507432
6.504595379949316 44.21169507253891 -0.1844015025775329
6.480031155063415 44.12542993134181 -0.17848371214837622
6.455125209610689 44.02517435466958 -0.17160938760091454
6.430468434387623 43.91478731527926 -0.1640794150891682
6.397006250062361 43.776909268813775 -0.15464924332031008
6.365494055217823 43.65079535634649 -0.14602469530749623
4.778448433661952 39.56838373613108 -0.16750167804320684
6.203016350813884 42.970335148587665 -0.23896407046014753
6.180604258166373 42.88123605586486 -0.22975800983341213
6.1523122152216825 42.77815272332525 -0.21911691137589073
4.857292500253286 39.53732590526258 -0.14776299957935204
6.1319022077201595 42.68878959260501 -0.20991110003685964
6.106679690233744 42.59461594357505 -0.20022510707816799
6.076197502926358 42.47870049359726 -0.18831419396284552
6.054448417757235 42.37292613549405 -0.17747281047348845
6.032653495288131 42.30579294373667 -0.17059920999205144
6.012944257944699 42.20770643632329 -0.16057228013417751
5.988528073646405 42.11125889554292 -0.150732982584266
5.960231679286572 41.98990170398807 -0.24404071854970613
5.952235529871933 41.949766760704115 -0.23856256449038757
5.940241607475201 41.90046194852826 -0.2318375037895851
5.92072337462516 41.817468919982176 -0.22053955136129308
5.894866770743272 41.71551419796596 -0.20671604084084136
5.867703085126337 41.597766516693305 -0.19078729665188196
5.845096666682223 41.513839283880394 -0.1795103342258903
5.824635499201743 41.42377496299369 -0.16741512508702325
5.7985735244718715 41.31514109672104 -0.18974326778186493
5.775306432192705 41.225235105734946 -0.2075815062858948
5.752684228697253 41.13869860173088 -0.2068035531343166
5.741132200470906 41.102705460056974 -0.2009281902516863
5.720633547654762 41.0206848496451 -0.18747423087160314
5.688642855899463 40.918833437452 -0.1902365544110822
5.665913105642618 40.82846316304779 -0.19305155590956619
5.6441441768483145 40.743777300113905 -0.19019125011980798
5.6214276761126465 40.620500523649504 -0.19657228409189087
5.6041001854809025 40.53532011371795 -0.19960426039626797
5.579789033711862 40.446112767879576 -0.18149637292748677
5.551341620097534 40.344066655619 -0.20147799604528563
5.521168709842304 40.26579729954105 -0.21088336416743333
5.460310281984605 40.18138364561581 -0.1790742760274914
5.418069146705766 40.082672535536105 -0.1796955902001293
5.400337943722918 39.97154919566232 -0.15690182763830565
5.356793470308129 39.89342009127648 -0.1471755376817958
5.547457112332016 40.31261921710142 -0.2121744016111544
5.525678017065392 40.2306136415028 -0.1774987976064874
5.509389116126734 40.19217978694656 -0.16483282149773473
5.421052985390577 39.95155759780347 -0.14902852958403526
4.938555815419876 38.182297769128446 -0.20654343350742918
4.650864307996051 37.45132265898381 -0.21097778838454137
4.586460109873049 37.3925278636573 -0.2421586368697818
9.800541455939547 50.71950240845699 -0.2274210391401883
4.973354663680903 38.213567348566855 -0.1946246491382629
4.855872949851204 37.91326601783918 -0.202893001480111
9.781034442507982 50.51387815827956 -0.22084449795038527
8.336164410737034 44.59203666458552 -0.2348105803441193
8.439495694787777 44.542258774642015 -0.23382210307176757
8.387170333535458 44.550964997565075 -0.2332546617172415
8.07522725934058 43.589116532521935 -0.16558456001009128
7.1737226726364725 41.31474026816888 -0.1810879632573104
8.459362507457138 44.536071226527895 -0.23382829212836856
8.080892869623941 43.55847067590059 -0.16374587353142522
7.316380473846108 41.34165724395384 -0.1922886295220529
7.248648695733923 41.30736300866482 -0.18418764721581518
7.3843570187779175 41.35172925968697 -0.1975195313798774
7.316056036877056 41.12187951313855 -0.16515922225934912
7.314295845565335 41.089033564814194 -0.16106103497659574
6.044655268947943 37.78669675124569 -0.1494800900816936
7.366958262487014 41.04550888805693 -0.16628979716587267
7.668549636875195 41.398983484971495 -0.22139238538417408
7.409713109239738 40.98817736605188 -0.15519450610012842
7.436955916336455 40.90876234864805 -0.18908380475066744
6.201197994982035 37.776709872171395 -0.15259122222217045
7.511820306525684 40.89346712798451 -0.19322776408092693
7.241243639419537 40.191289061930725 -0.2301511723334759
7.205346562258076 40.1114049708423 -0.18139790978230128
7.206264522296307 40.04011756935863 -0.18979381258188133
7.180458143787426 39.935009757464975 -0.20135711100675968
7.155160596352607 39.83714096888182 -0.1793184196825489
7.137103271309702 39.75356806373472 -0.18217038570498806
7.115989441398727 39.66729291346351 -0.16617774362921633
7.0859714204716076 39.58436903092428 -0.1462669237807456
6.39299559331824 37.82402979209071 -0.14861845672086596
7.663813072038181 40.82140252378074 -0.2404360708192481
7.140845686664409 39.71329354421256 -0.17931865608197992
7.1128604955647585 39.63729039593902 -0.1606762338044859
7.092211327117348 39.57980319160046 -0.14703154141070787
7.666600229429356 40.79977647244419 -0.21661876940805833
7.6429713637239125 40.73263091888652 -0.1952121139023699
7.627132326151899 40.642556349550475 -0.212611429003137
7.595373570155463 40.57017772033916 -0.19964337094467563
6.643387990711665 37.86600774036988 -0.16056274123455241
6.65163535905268 37.86395247805864 -0.16197513912888076
6.631626914973993 37.796258044334564 -0.17546795760238737
6.605718700425833 37.68637921519946 -0.17915510103179338
6.582429891288207 37.59285376117281 -0.1898281510552346
6.559659296426882 37.50540419244115 -0.20476340095253343
6.532891705033385 37.3915191241439 -0.184896455315616
6.521788891350813 37.33688891068407 -0.2127659325541835
8.47315387148631 42.13421955903852 -0.22568845440853322
8.506073572030084 42.12165409065754 -0.2263953582035651
5.863932810898697 34.66889644852966 -0.15669892605270644
5.844606032351192 34.60809160982484 -0.16125915984381584
5.812651415248933 34.46825802084123 -0.17170213785130692
5.780043329222467 34.33257505165454 -0.1818489854393027
5.757463716107188 34.25021575659147 -0.18803379731720218
5.732456969683559 34.14614393150046 -0.19582437868294908
5.7059454072400815 34.03620339613387 -0.20407556931472612
9.204296534991084 42.89994955071616 -0.15562295578697824
5.679200188773616 33.930390210881995 -0.21201300708073176
5.6501802803684615 33.804772492318214 -0.22144482498747242
5.622134789027295 33.699200539072116 -0.22938131473651915
5.591607998752831 33.575850464916954 -0.23866557686199089
9.260096475514427 42.8868137634308 -0.15679453782008307
9.343592131838001 42.864852140801084 -0.15844344699698465
4.270256832655574 29.239979703637363 -0.22084830952478945
4.423734121279214 29.30956156482233 -0.2171490080836514
4.3645403357226815 29.274401239130988 -0.21887874175690064
4.457499610748277 29.30781394548689 -0.21698354234057268
7.2326244648607725 47.0505390004888 -0.09580468028774958
7.202089894361105 47.036541216522544 -0.09523700268716331
7.124737835984263 46.77155984155245 -0.08640669449853597
7.080482722200513 46.74195967654235 -0.0852653846832521
7.303685284423495 47.046332131534264 -0.09599421928426274
6.89298069338246 45.816148190985714 -0.05481980691482683
7.462810693074294 47.053693668437674 -0.09696625406831905
7.400064413922595 47.02004127521163 -0.09560058953052489
6.847079551085768 45.62621598360385 -0.04853175893547842
6.345326334256088 43.57588963975982 -0.14090989287255645
6.324532777596677 43.48502971150459 -0.13470625090068294
4.787463283493903 39.55914941502176 -0.06140206612158602
6.296519491555383 43.36640401665913 -0.12662528837025686
6.270452862741613 43.25957635983438 -0.11934994144431171
6.253333459390649 43.18432386606365 -0.11422203176808485
6.228313826955197 43.07127432496346 -0.1065428091001806
6.20461489403533 42.976053762913565 -0.10007046010136983
6.182158074113806 42.88669824292398 -0.09399436537091435
6.153686203798156 42.775333678707135 -0.08643411105596643
4.856321866544954 39.54000329128717 -0.05009315977043164
6.126865580464805 42.66776094666106 -0.07914184375462224
6.101851780658635 42.57596346218754 -0.0729234087440612
6.083431088700656 42.48606780520677 -0.06684826442916944
6.060942953959875 42.40792793065257 -0.061572536078121694
6.03439547864216 42.285654123342034 -0.0533311249976418
6.009082138856784 42.19375660037504 -0.047144398493235325
5.961283229534718 41.99713979310658 -0.13911937333361796
5.940265251842829 41.92059473742854 -0.13135265096098864
4.940203638886036 39.49534532567198 -0.1260940908141417
5.927873097343438 41.87498590442632 -0.12673066648837097
5.913389861253912 41.80017909864829 -0.11915205785988559
5.891730333041153 41.71004545213667 -0.11004994681828312
5.866920357954693 41.61862159608288 -0.10086582935290356
5.8419752096880035 41.51259298134825 -0.09023116465509587
5.818309943120382 41.413213131823525 -0.08030651654442489
5.79406436959566 41.31330766518295 -0.07038234112009298
5.769851963973318 41.212783035837674 -0.09552500860660101
5.749194968053499 41.138168313537385 -0.0911683887808997
5.180176812737885 39.653277721671174 -0.09597490369372522
5.103390379851112 39.43749468110377 -0.04622195321333477
5.745328198360452 41.11014804399427 -0.09366177099583328
5.724931095611787 41.04065429234416 -0.09567521643338742
5.697253416956431 40.93076082759961 -0.10260032163763325
5.670200466032593 40.83684056954278 -0.0906355192030309
5.645485069379433 40.733735583518396 -0.09336875662766791
5.629564181909275 40.639102936208026 -0.10020445267397096
5.609193473728237 40.53882309186987 -0.08168147872902898
5.582526940956254 40.44017013849641 -0.09189699572430116
5.5555994867078216 40.354517245628166 -0.11094688100559466
5.5032122898009455 40.245632597363425 -0.0841550708481742
5.453449158002202 40.16508530797885 -0.08480022893481506
5.4179464705916605 40.08507931281961 -0.10532187121460668
5.401114785472354 39.974151690335276 -0.0905458798985615
5.366096513725057 39.876146471815254 -0.09445046048846459
5.317197205761781 39.78428606854515 -0.10023496693987657
5.267762961396488 39.7323314790834 -0.10746024278645355
5.269756448559326 39.6229611943958 -0.09772394526616582
5.242905687529098 39.539434900939774 -0.0685920533941019
5.162827193108339 39.40882131163114 -0.10831140200231237
5.549276313855338 40.31538527086671 -0.09436939325978155
5.524843636481621 40.233006279029546 -0.08382962922145848
5.510929137715932 40.191924812037165 -0.06655143167886987
5.434833105637594 40.015396256411414 -0.0739724518362812
5.418402017799347 39.961247873553866 -0.08769153133557067
5.391904737848709 39.86993909866821 -0.09698270612541282
5.3614823162152945 39.77054942928854 -0.08953426815611981
5.321700478029675 39.67591783150375 -0.10765980168016567
5.286220217584184 39.583164193602414 -0.09333728507015304
5.252956147489099 39.5074832586464 -0.0754718605907454
4.895027870586818 38.1913316676006 -0.10601542766691369
4.909958332568538 38.17004850024291 -0.10579155267735621
5.0819477714153285 38.341438241763626 -0.10738014396304665
4.931917063147695 38.099993555691654 -0.055645213612420745
4.7045511881609094 37.51099634198633 -0.1371948505146711
8.435199571947388 46.21382218030526 -0.0761248994527789
8.454123723805665 46.19086042492858 -0.07555459746911897
8.332186594347109 45.658566796526884 -0.05796765724538543
8.353718831282965 45.64504933271181 -0.05768751373977835
8.396523139270014 45.619130346244454 -0.05720423797597219
5.566259830458927 38.21266750430121 -0.06831811802407639
8.479742887705363 45.60166693618436 -0.05728553535166047
8.563047625604188 45.616554174021076 -0.05836223693565034
8.554354516597593 45.48859710108282 -0.054266203742017786
8.501574904499076 45.28412901390907 -0.04749655082148529
5.740690871317524 38.12481654209047 -0.04620193167892219
3.7961720251759425 32.78530433423041 -0.0936374508716396
7.171279143371147 41.319057564300856 -0.09159802333448003
3.8863356148627775 32.79385664093831 -0.09194038874166544
3.9098943360362166 32.77706890320222 -0.09220884310571056
7.3133969091373165 41.345051715136606 -0.09961317852712295
7.2460244499041595 41.311153225549326 -0.09373664097954687
3.9271136740714168 32.63347357322178 -0.09715507075775376
7.377503129679856 41.35797068761163 -0.10349796783354182
7.298989045018873 41.12482228240206 -0.0786652437067265
7.308756746838713 41.075707302571274 -0.07462786684307648
6.085229029002925 37.87933778547962 -0.0978736763243373
6.045660666558689 37.83268230078795 -0.07743834289749602
7.36984666958698 41.0403028808852 -0.07424329296537624
7.3809559604815504 40.91638861346849 -0.06375025885923208
6.158407329959086 37.85785910018775 -0.10349534081792686
7.655725727476689 41.38818032429525 -0.11892246754049393
7.438225530691876 41.031165803253536 -0.07669805296839602
7.423251433171885 40.90440347291836 -0.0710596950398033
6.289719689520277 37.9171220705819 -0.0979187405813152
6.231756530901743 37.84615749128326 -0.08827589555890614
6.208804510396553 37.78788941345393 -0.10397361530673982
7.534856939803109 40.931212173370106 -0.07293986608301983
7.497291432995132 40.908174422468996 -0.06897973288179635
7.240843957467451 40.19089444147977 -0.08210729608063311
7.20729637477801 40.12078279927869 -0.09263824298131282
7.199671093333945 40.02724897514027 -0.10978769490582874
7.180219293786034 39.938438808169195 -0.09587978453004933
7.154202737717836 39.8423020926696 -0.08414768285684013
7.1323754247313085 39.74864759998461 -0.09532569921019607
7.119519254116411 39.68875990492625 -0.12526606438565516
6.363377984000104 37.87854203907327 -0.09688114497224504
7.104515396116955 39.60011415202897 -0.06776212895695927
7.08492993347588 39.53855641503243 -0.09226774479056435
7.06163021264926 39.45110051272263 -0.09170817102277287
7.039521186854275 39.360142173163 -0.09058522002401617
7.664146195824457 40.79052182274943 -0.06842231123862066
7.644718727991675 40.69951791860069 -0.09743021947844926
7.643814476133126 40.640958745846746 -0.08666824431277576
6.647586471912139 37.880368225192804 -0.08793639801563458
6.647806653338938 37.856712624194934 -0.09482882904952608
6.631295019022394 37.79396553334436 -0.10121178207407683
6.608274394533443 37.69921691322317 -0.0971720152263992
6.581733128535409 37.59857056452369 -0.08043264046309384
6.556579626426073 37.49779483763709 -0.09464120071488236
6.535081066927508 37.40965562257254 -0.10507820652208255
8.475350434058367 42.12547856054001 -0.08766507692770992
8.522839643317953 42.121143231168745 -0.08898281690152482
5.081760975487222 32.49778733659212 -0.09058498466844772
5.006186334052464 32.39514065804785 -0.09498236554579179
5.589503526670181 33.56920216025327 -0.046977027259955124
5.559679196017532 33.45970737134164 -0.0513052817459733
5.526862093725444 33.32642964161548 -0.056588398815149925
5.492445848943703 33.191422208052295 -0.06192778786988724
5.170655141815333 32.467140181050276 -0.09129499489179677
5.454567339056706 33.038719843256196 -0.0679890929464824
5.414768509587999 32.87629973478697 -0.0744173481449667
5.374746490748833 32.719970539578796 -0.08063505213352642
5.330128683683753 32.532106291111106 -0.08807419103338796
5.261896351433894 32.44353111609547 -0.09178756721482831
6.8044965778124045 45.45186799674793 -0.04278157880365737
6.764731407926071 45.28924719713161 -0.03739785267338634
6.727308473329524 45.13831612719596 -0.03242133751108167
6.691731940406214 44.99520826745784 -0.02768301020872488
6.657394225811653 44.84984712549444 -0.022899378305247277
6.627174888640558 44.73219187598585 -0.0190017086580132
6.594163641999198 44.580549344635536 -0.01402281742464783
6.564882605290018 44.47070195691754 -0.010381446271312704
6.536582452184082 44.36065385343329 -0.006757003429393185
6.509490556558652 44.25249862147563 -0.003180486526441026
6.482867436125685 44.140179654645095 0.0005090368123745297
6.457589073869905 44.03577069951523 0.00395657013158374
6.434009487511878 43.943152190921666 0.00700117749842776
6.412327642240665 43.866429814881045 0.009544388849718895
6.389633013201526 43.76362333797078 0.012911812588687451
6.368202044988136 43.670750613332146 0.015971436892508028
6.347071278807044 43.57775502785264 0.01901723705587221
6.318003528584976 43.476095098231625 0.022375354684630845
6.290209292863138 43.354255872370025 0.026376261387623806
6.272622006725849 43.276889725924235 0.028905639439613825
6.254996931679254 43.18952786032612 0.03177095995704302
6.230453029059546 43.09327006316109 0.03492810163707455
6.206486909883355 42.992898659973534 0.03821493201955104
6.1838221783415595 42.898397941081846 0.04131437688986664
6.155257324897861 42.789849540767925 0.044873969194996866
6.134873291807592 42.71606755715388 0.04729701341982837
6.12183820658649 42.660118905502024 0.04911901125527254
6.103203298992329 42.57815671566723 0.05179812052905382
6.078735720960281 42.493032866379366 0.05458571049420245
5.985424864639306 42.08137732505673 -0.03959678102538371
5.962138133222561 42.00404439436588 -0.03441546780495644
5.945837723960868 41.93057424828783 -0.029493317894992453
5.934122080929591 41.87487338522219 -0.025772796688569348
5.914400172290106 41.80253743729526 -0.020951258110664235
5.89273616997178 41.711482743750935 -0.014888273308276266
5.868927672366598 41.609042132533894 -0.00808809708919555
5.846013540789798 41.52602031337081 -0.002604947632917458
5.823201456310138 41.41817726563843 0.004517093770021505
5.797940671906581 41.322180885732685 0.010809196889605946
5.774980969154356 41.229121846107034 0.016886249157509137
5.753043294627821 41.14728906449582 0.022194401132779686
5.738895187450123 41.096726112536906 0.02545549044228191
5.719818122919335 41.023266175222595 0.0014007240448291568
5.692781959283893 40.93358393891728 0.0035810620740920063
5.66578681016588 40.8335457946544 0.004466547712754492
5.64394447366551 40.73411745902621 0.019123330023733724
5.625734854799124 40.639200628259104 0.01464749841495432
5.606379643199846 40.524667175655075 0.005426182565202345
5.580253863121411 40.433561607320954 -0.007363543982556918
5.5579563525497795 40.3576866015695 0.005350603933303586
5.503396149600935 40.2327089374214 0.02736069284905496
5.459564618464965 40.17442281314481 0.01729060680067712
5.419399172325065 40.08639291293034 0.004156604792544916
5.391965280363966 39.992683486690666 -0.004513487857776468
5.364685030484884 39.88354264521488 -0.019992811821724042
5.318036024156675 39.799012040223545 0.004925504620441768
5.30200299500244 39.701678337859434 -0.02154873281383999
5.264698667452038 39.594366474552544 0.004618421731882125
5.166082390485637 39.415681826493085 0.0034735352271626427
5.556877708905552 40.324304702533965 -0.022140248509048555
5.528470218435242 40.23923510023836 0.013456597371039675
5.512320090187005 40.19306601611429 -0.0049745893508093275
5.433832147447386 40.01636824441306 0.03178717204023068
5.421067657963001 39.96945215817062 0.02338291739820159
5.396472787535301 39.867411820046776 0.013699784541056994
5.365570292567533 39.756750304016336 0.0007147943295870186
5.326009516013215 39.68195562153111 -0.000704274426414131
5.289029923973296 39.60371782758298 -0.01601598974595511
5.2604648057700265 39.541932768206564 -0.02930568213332263
5.093123534995702 38.34559037043129 -0.015787825155489557
5.035158298443963 38.309626601869084 -0.00341437908400986
5.141626345571689 38.384459005024965 0.034914507972134357
5.278044018940133 38.47462377613541 -0.018508421216447163
5.5659796386155875 38.20090286103824 0.0013296741130928748
5.744112872562629 38.116001851005095 -0.011780726435104187
8.459246867943879 45.10987162357523 -0.04169201405929291
8.416682239646365 44.93771115906865 -0.036011928449794416
8.377781740557134 44.77911056036499 -0.030726899648291513
8.34581511125651 44.58536706363613 -0.024425023623725194
8.402580426861102 44.55797421654235 -0.024033059788238026
8.395594575621669 44.541852141154486 -0.023463478825568138
8.076995077311485 43.59114892546494 0.008644111262583184
7.172433925740083 41.32070331928044 -0.002458324032199241
8.455709746325379 44.52494872353662 -0.023391956693901414
8.081838199604196 43.55862634654737 0.009639749974149266
7.316683452707222 41.34078228428756 -0.007167092572017968
7.246577356193212 41.31148928063631 -0.0036272893407712156
7.373121721471231 41.34935759255099 -0.009132136308823133
7.29754795216062 41.13030060788164 0.006234656510157902
7.309977978795745 41.07745215941163 0.00910473862454321
6.0885298082339245 37.88689548457235 0.003338586553899618
6.0471372016414175 37.84259603653485 0.0028729566872618788
7.367284876067769 41.035986931216435 0.009993800516492311
7.366870073164662 40.923077107385666 0.016713150737089823
6.161378462270461 37.88491262499373 0.005337727998555537
7.424432661535009 40.88819821049981 0.01699877680682506
6.293003931477112 37.91575643214926 0.004593621672072681
6.231800762334939 37.85423327392266 0.0066549879774850645
7.496308990830944 40.88596794511961 0.014863499647259956
7.200547828043114 40.11191553148225 -0.011981717112020653
7.200488395723946 40.04189735745695 -0.007614126913966589
7.173602038308872 39.93560725926723 0.005720862923525805
7.150575671018722 39.84148556210992 0.010427960820050888
7.128349014235102 39.761249319924346 0.01811314575335877
6.366843977629173 37.89209597857759 0.00815726351114899
7.107897492344046 39.61413282926292 0.041034469701796764
7.081741752690588 39.524286091695416 0.006265411479199063
7.059118325640686 39.44022849054338 0.0022361372810659162
7.044229640831241 39.37094965736224 -0.00905059836080084
6.5870878136011175 38.030193162216875 0.004138240689104195
7.656310391581743 40.78778166850271 0.014955528428649095
7.6481971406583025 40.71762994388953 0.01906300369913802
7.642432751980489 40.641767755341526 0.023351439244293348
6.642041247302591 37.86605225196423 -0.001547329036634848
6.650135450820773 37.86142380560384 0.008248815312047995
6.6277884262896425 37.79274769424124 -0.00599740955974537
6.6030525820520305 37.69804121617839 -0.00971316349917593
6.579389271746007 37.5930709773424 0.02749205687496996
6.556019423687052 37.49858423512275 0.01868773553600336
6.5371476879148345 37.41174339907239 0.008942612707572278
8.469627111883833 42.14044881229998 0.048733477609163446
8.512018989512413 42.12889843746036 0.048575649501183885
5.832089698727733 34.54906223529312 -0.008359659474183066
5.80237401648073 34.44386398052298 -0.012498130036696642
5.780299398868465 34.353284748851486 -0.01605080589868238
5.755974275238851 34.24684778285546 -0.020243391797319425
5.73039995275809 34.13660295436581 -0.02457403133970379
5.704939288295883 34.0403930227747 -0.02837633746957565
5.6783575747170065 33.936366788087525 -0.03247235344549015
5.650176973623708 33.82045890506622 -0.037054283415887436
5.6199285324611585 33.690798382796196 -0.04216144515082513
9.251699297748829 42.88987787010314 0.01789760854988572
9.342325407779695 42.863030442558525 0.017564778692974462
-3.3397434100262284 4.400113497658857 0.02225854689303289
-4.978025633091731 -2.176300110727766 -0.00494071943986072
-2.1861648578294144 3.8547875663703692 0.022403738625186596
-6.646399959601796 -9.044339144191035 -0.0331411209828723
-6.479453193740158 -9.084250014546889 -0.03302569001685231
-6.318549764143638 -9.138469390379434 -0.03284166591521145
-6.152494125151668 -9.178987199645036 -0.032746760602608053
-5.983561520961018 -9.219588372529067 -0.03251576707215253
-5.816712733551579 -9.26732619342031 -0.032463536573254924
6.0566849779353396 42.39477033423693 0.05778838305973164
6.035069101690352 42.31234704957976 0.0604777511360549
6.010096863722336 42.202642045047064 0.06404783024657718
5.985783770636737 42.103725869783204 0.06726432847815289
5.963459318039345 42.001964318738366 0.07056523909993448
5.937925108102733 41.91512626228297 0.07338763659056369
5.915841087861881 41.7981392498622 0.07716728847620205
5.893062467562979 41.72222325445859 0.07962514037352755
5.869346919804194 41.6166134965878 0.08302951993648384
5.8436300648436905 41.51758182480482 0.08621717719983779
5.820748151969871 41.41132114176766 0.08962751647304729
5.795287529975457 41.320000488338124 0.0925493412027408
5.770835405313884 41.211754496061104 0.09600378621409372
5.750324931869242 41.14671375959925 0.09806777231388358
5.740113947706507 41.09555463088646 0.09969283917878122
5.718655635443616 41.03309072636944 0.10166145526890799
5.6899714570832804 40.92940784387588 0.10492063961620218
5.662630606300805 40.83915181048166 0.10773612481988046
5.6417720987995414 40.740803678340484 0.11080027723408589
5.624005895140071 40.62725610426922 0.098440896762224
5.606670584552913 40.532554862855704 0.08758761010250837
5.578676791033666 40.44637592806309 0.0942664308349769
5.559159964107436 40.363472307238276 0.09673596971625012
5.493301021845976 40.22396337106363 0.11740971994674557
5.450058951340964 40.1706561195656 0.11648346374310067
5.412652349055789 40.101880480007594 0.1251502207770072
5.400305375972583 39.97208424171131 0.1313698408783816
5.372621886641138 39.887638572398956 0.09162713761815977
5.331565443494514 39.77343742281389 0.12520958616297664
5.295678797760858 39.678088926379274 0.13095904776594278
5.550810915196173 40.31662473063157 0.09659148834216189
5.525896555921222 40.2371774464521 0.10305787488023835
5.514445876903604 40.194377928996325 0.10131122502031983
5.419300193877393 39.95529903627224 0.09257556446120499
5.393771957225833 39.86902230672359 0.10334588455251498
5.353082146077968 39.76716520986524 0.10393597029334792
5.3261395612799465 39.68628709834116 0.10903932080508885
5.294331618683998 39.622959086619105 0.10574175567028479
4.705551702088038 37.59108747582944 0.15479017629055608
5.0890410450488215 38.3509946271939 0.11449767835897334
5.063853931092464 38.3281671885589 0.09093023601826639
4.7159000489316645 37.57157767066771 0.15489150380271602
3.839348047027997 32.80979832855074 0.1393401772711253
3.7915964429733844 32.780526041563014 0.13907839462538055
7.1735743666497624 41.32222582632899 0.08641029305958783
3.926763955473722 32.78060589950441 0.13952232640675566
3.8663403632079443 32.78084550846087 0.13933111841854473
7.3211929350685825 41.348736092173105 0.0843103020791037
7.244718560473428 41.30698265613644 0.0862724886753081
3.925027006499012 32.635141960860864 0.1390452527509902
7.369269020512313 41.351277152541336 0.08379317374946874
7.294887134138037 41.142211729254065 0.09085084003635596
7.304368344775607 41.07536715468047 0.09278345972890817
6.087235636536528 37.8942672212425 0.10195971606862878
6.0437298537329545 37.840750394987914 0.12031318054584686
2.7583921667591422 29.108994242107087 0.1237850395104704
7.34864025552921 41.04448877541705 0.09327626824313356
7.349867950605337 40.933336535549934 0.09658480514541884
6.167199085167982 37.8908349712945 0.10254789550071058
2.7119660037654985 28.854532076868804 0.12281514463064036
2.593990949654049 28.375253650013832 0.12084367043266764
7.41481416723934 40.874389454238404 0.0976314609532099
6.291788266676255 37.91624074005481 0.10157824652341177
6.22858151296081 37.855212825290145 0.10318900064177997
2.4607596608926956 27.833811203715168 0.11865450651082826
7.477211047616769 40.86679214067958 0.09715939675601978
7.240000983017704 40.190001466855676 0.062300213157173163
7.205786158934182 40.11244989064652 0.09485603452677596
7.202547374577845 40.03432550581406 0.09673978159166291
7.178274647826957 39.93678827430643 0.10243226399279806
7.1562555021230825 39.84450339180159 0.1064479468111012
7.12821782733117 39.75876583530967 0.10724974506140983
7.086834167731115 39.58558112896779 0.05806160853613805
6.373925949764917 37.90271421688657 0.10026980408163297
2.4012701071902818 27.37175723869398 0.11691929485251432
2.3397219595848173 27.320060768303286 0.11655285485313169
7.098582114399699 39.5970419542639 0.05648709234761872
7.081821912725866 39.5353124387931 0.06496978562568666
7.060616176035533 39.442174046258536 0.1032910408330916
7.049143508460915 39.381760407762584 0.10558629951496795
2.48347447357821 27.357774070870917 0.117077614807155
7.667943324628749 40.79471539851805 0.0969510157811991
7.645944424848188 40.71321435530349 0.09952211826705529
7.640610105042377 40.64842873075885 0.10139943268330748
6.641911047704155 37.86724102201376 0.09628296771832565
2.555636092194532 27.306948874667945 0.11710192972669578
6.64983731714106 37.864483558651756 0.09148002517424259
6.630305248167399 37.792366961453475 0.08659435523746689
6.604492829569245 37.694133335694424 0.0860166657575116
6.580634814552241 37.59213015386898 0.10564495283317513
6.556390875673202 37.49634794118867 0.1025314408961363
6.536783808324606 37.4308072583386 0.10040546341598569
2.4708292696809395 26.71850525202268 0.11483528448434191
5.83987177160722 34.568212173183106 0.14858008423105135
5.820119177220535 34.49935869618903 0.1483268818443178
5.788231379373262 34.37022771478175 0.14782477387400636
5.754018468709628 34.2373580127834 0.14730741011552442
5.728492851627512 34.1290381957684 0.14689351092727002
5.701980913660192 34.02080830548831 0.1464622136286353
5.080646008686491 32.503071761644236 0.14048887322805995
5.674312077501353 33.90475433885624 0.14601684709947438
5.647381390912867 33.804713877330336 0.14561773604250786
5.618690786800562 33.69289387636962 0.14518953463900405
5.587833171086601 33.567232695860454 0.14468503742559674
5.555826002410289 33.43576686187019 0.14417625280272922
5.522667137439002 33.30041668173972 0.14363099226872755
5.487387244461012 33.15936991240492 0.1430835798897977
5.170109504616039 32.47684796660392 0.1403906434402983
0.8903567800601291 21.14397634845676 0.09139657597303508
5.452602890347429 33.036396858152905 0.14258672177566695
5.411195388389389 32.859950771608204 0.1418950696145926
5.370115594637461 32.69557573154275 0.14122868712764522
5.32251411196576 32.48375968705203 0.14039350997680256
5.26056158172493 32.44775809173944 0.14025999189276972
3.8924750265413404 28.74058426074889 0.12488986561822579
0.951202267031297 21.120085095307747 0.09148432259131303
3.9671577562073237 28.737993942946424 0.12495780640176285
4.284717014464305 29.23981382203049 0.12717654010617493
4.2273971398532035 29.216090225412927 0.12705398430832587
4.051221090233566 28.694303565876112 0.12485362097515651
4.043568803078107 28.65703808751369 0.12472368654941254
4.376654200343507 29.26030952082023 0.12730743123457705
4.467771013814392 29.284369131106384 0.1274464191655483
0.05558888323831557 17.150058660501074 0.07529477575429006
0.1206280983992647 13.227583183342922 0.061017753923647534
0.2117014556653709 13.200452243493917 0.06109049993304648
0.30304753372955595 13.18381066022614 0.0610907038973097
0.39109288375728823 13.164183920971134 0.0611746600176317
11.194614340954352 62.88768617712421 0.23079850911323044
11.315778473628527 62.84314558620093 0.2309277012523711
11.440457311821756 62.81564614325442 0.23111274241838653
11.522366504969238 62.801253423164994 0.23119639933742758
11.59892195589745 62.76322439109991 0.23130418250262322
11.681834234097304 62.74390741933445 0.23138812286689897
11.76560847887789 62.72823894017847 0.23157004745383727
11.933024740472357 62.69596770651696 0.23186637727891674
11.848396704168312 62.708339379129214 0.2316630078920002
12.01569887523899 62.67548004185741 0.2319684119809038
9.759925480765254 56.745360616164675 0.21409917610814003
12.096341240494983 62.64700586331862 0.23213768360173423
9.816821375434602 56.72338123925395 0.214170941827798
12.179839912699707 62.629823690691396 0.2322597419264921
12.264212394956184 62.61629002086383 0.23248219761591643
12.385232163840517 62.586455719389335 0.232708679792661
8.739873146526868 53.02768636353111 0.20380880272913418
8.8336188832452 52.99833638501376 0.20387818453803377
8.47755881165805 52.13309839176445 0.2013399631707211
8.325767522240042 51.536454540863616 0.19969392219422594
8.944655130216052 53.02119271746482 0.20409131282355633
8.884107676966014 52.98432542720975 0.20389151541872555
8.176417540556118 50.92912194302822 0.19806887726804148
8.050669280585302 50.43523187221216 0.19670917500079113
11.82881575743663 60.05620896600758 0.22591590452551633
11.900144588176587 60.02844042178005 0.22609042109055907
7.231441266092448 47.04989941196486 0.18764854277149934
7.181461900249948 46.99715830237998 0.18748856952260398
7.12320843052405 46.76883624839879 0.18689777055322018
7.095493737152573 46.7622810226688 0.18686152714003404
7.314800044955186 47.03227596509329 0.18764807539932032
11.013271660538624 56.453342244905514 0.21624996694059778
7.411126942048017 47.007014187274365 0.1876564272483163
6.902134883386882 45.79656974116319 0.18434789130650892
6.867521977509396 45.70789682264624 0.18410683268065525
6.824339065638242 45.53562491663371 0.18367077518661762
6.783775914003403 45.37097739507115 0.18323445895959659
6.746440471784612 45.22607440324857 0.1828713688200186
6.709726227421027 45.07695760938813 0.18247867238959128
6.674253929715021 44.92970406950661 0.18211104362349576
6.640597329194791 44.780147164483694 0.18171859799588622
6.610469876932623 44.6583676478964 0.18141795866271163
6.581118239866648 44.55246506794143 0.18114282264506087
6.549544492845081 44.41060169895676 0.18079211749768906
6.521613484688886 44.296417594250066 0.18049694237406796
6.493616481167811 44.17018504477195 0.18018724782460493
6.469908303314345 44.091651805769715 0.17998695908505444
6.4456779435069755 43.99710348231279 0.17976142620019125
6.421998467825813 43.89439116508257 0.17949868759162135
6.3997790350907025 43.80360348969333 0.17928292108317276
6.377718237795239 43.70468337552656 0.1790309120003325
6.347200884615772 43.58714596435698 0.17875076002032278
6.316726511387865 43.4634836789212 0.17845608060955662
6.298586443226228 43.38817821144174 0.17826772120370263
6.272046258993813 43.269132994751374 0.1779835430304966
6.246978660296853 43.17195226439826 0.17775846896194705
6.230304878220172 43.10039246325957 0.1775829985885236
6.206025632154543 42.982981219481374 0.17730524132056685
6.1763103332995675 42.873536647268395 0.1770575186355003
6.154984881551186 42.789831049546294 0.17687084015840515
6.1412916504543364 42.7359239077381 0.1767439953307816
10.092277765987076 52.90817230638091 0.20638920915162073
6.127943341080658 42.67401920991703 0.17660691487748192
6.109222161989216 42.60601727129738 0.17645647131135295
6.084499024568419 42.505887618353846 0.17623640747076974
6.056579037306639 42.39217103186451 0.1759889295901435
6.029989222098366 42.28091288573278 0.17575098635796205
6.010130735983317 42.196290160652616 0.17557169784746052
5.985733695311642 42.103979771443186 0.17538810969585394
5.958822328592404 41.989247225489535 0.17515327040723094
5.942735155173046 41.91893542247958 0.1750145171884599
10.12767365021076 52.67927309109177 0.20603944881484554
5.934517367886525 41.886350915850116 0.1749479864988949
5.91530829659436 41.80587990094913 0.17479587533790414
5.890567211275403 41.69397740910095 0.17458130788363355
5.869492471705216 41.61445913060605 0.17444469450609554
5.8478328298594615 41.51881543539973 0.1742756454000618
5.821094168648227 41.40885769703447 0.17409731200210757
5.795541931232686 41.30095996582281 0.2007327209758051
5.773917078826061 41.22083500626139 0.21288610429863147
5.754984357908585 41.15508191143763 0.21929146539885222
10.204753119807874 52.674146573872996 0.20628237918766715
5.743177145844335 41.10206175067097 0.19841529839019853
5.723186138217334 41.02295468020626 0.2122180536240632
5.6974382925861295 40.92991858172568 0.20785786456826696
5.671191162257708 40.83410860085319 0.20622160191169486
5.644187587727937 40.73437990656857 0.20467593322449917
5.623701450183687 40.63956424082027 0.20314647865089228
5.607772389047129 40.53699314487978 0.20143915981046787
5.583936723126827 40.43986284213192 0.20125343094992412
5.56079749374776 40.36585860943511 0.2098589139315092
5.507211418791862 40.23540943445265 0.22362590923501563
5.460380169941352 40.16801148083532 0.20061423198096745
5.42905940703393 40.07391738863373 0.19690324196278644
5.406867788665921 39.97150904297009 0.20110131557322594
5.381056045263022 39.89253483983441 0.21121551552954926
5.331866850619596 39.76452339275749 0.1933269656595645
5.318328328120606 39.72959454716532 0.21546293742758352
10.251926715457392 52.56695076425899 0.20623802337599426
5.585649404698368 40.41799967270006 0.17326452313517937
5.557016647122691 40.33261798435315 0.19401289807669006
5.527779971504135 40.23520104828637 0.1976087314642573
5.51136729468488 40.19110431211028 0.1993463202799528
5.438409669524749 40.02899366731783 0.2188613571959697
5.41693115583563 39.95765060122103 0.18886853947478044
5.383171755263153 39.8700586087195 0.2011027494894206
5.349540928574028 39.763182168310216 0.21590019480686024
5.322809679278303 39.685361251094875 0.21703483649898356
5.296914222355645 39.62743658225263 0.20572496503569473
10.18336607689428 52.18210271707457 0.2052521726008484
9.991598820500842 51.41236797627118 0.20317959630913748
4.980753529535155 38.27354523481344 0.15658689903654785
4.720378942156545 37.62134752720849 0.22422791677862944
4.708721081954488 37.59711319511083 0.22502519281390723
9.77783226785727 50.584336912104305 0.20087696427202492
5.006802286343587 38.28955801815551 0.2501733471813422
4.7211265553295325 37.57738769789704 0.22533179978591444
5.194265486589497 38.415475356594435 0.1973009301215626
8.602243447290496 46.73664020275004 0.18968463593916635
8.696835710534208 46.70939057546653 0.1899786025894218
8.636705132015688 46.711810294582335 0.18977142279157683
8.77666625350757 46.679344784363465 0.19023801797978637
8.831482776353958 46.6664886691166 0.19042443600488124
8.791887609851493 46.474666956354724 0.1899638286916306
8.724364611896139 46.209849147870266 0.18923951396392713
8.666161977419739 45.97564749043075 0.18866993419425626
8.611691126869545 45.75271119288101 0.18806982263717165
8.56896667168935 45.56590301991196 0.18764138459365304
8.52032884854974 45.37049026994823 0.18711304597410267
8.469697350860994 45.1736621489361 0.18663383539457448
5.743985647075143 38.09356491321185 0.2332613634452228
8.423307023362444 44.99006527113658 0.18613601195657345
8.385850710818598 44.83300232622819 0.18577552884507537
8.341700864570846 44.66339624791863 0.18531132208331227
8.420191022872668 44.55069999091152 0.18562532454517916
8.36536054676163 44.55411544964829 0.1853213353882336
7.166645670471258 41.311324524115236 0.1751604191266938
8.456160878467298 44.53016424500021 0.1858079534925035
8.072039078658209 43.56119463338053 0.18263174180615704
7.309973965755339 41.33871470308455 0.17611504426318475
7.243617133242954 41.30656808972216 0.17565108206090374
7.3547364159449735 41.345400939626735 0.1764361947417975
7.301944356990205 41.19214697411769 0.1760015553125994
7.291035497058928 41.07027037838773 0.17590881785971182
6.08619540435344 37.90388785671225 0.20384455943669666
6.038488521066597 37.85192331264329 0.21714593024997486
7.323304985789189 41.02793839329384 0.1761522331292348
7.321833427005213 40.92942033499087 0.21053338534994795
7.353273898521108 40.880026656499446 0.2286648778550777
6.171147297940239 37.89217201778159 0.20098878323383024
7.372621089085977 40.88328338116574 0.25542975911038435
7.402688505622651 40.8535082054293 0.20989490190494572
6.294202429038921 37.9124775372033 0.20341541135135438
6.232583568661375 37.863976854375565 0.19118310129342891
7.480016651151382 40.858555538248396 0.17761326878387781
7.238767175009297 40.193936733230785 0.23329830676931027
7.2000068019512575 40.11528023037165 0.20306826932390026
7.194122280451811 40.0346847845762 0.20093728623070495
7.1716015537685305 39.939951560695754 0.19980216417716767
7.14489636865874 39.84194624348606 0.20124174394131847
7.123809370174579 39.77489210911733 0.18191314704697123
7.0945586579817554 39.61399513364242 0.20816541597541036
7.075496252799601 39.558205146802614 0.18309760913749365
6.445062230733977 38.02625518737463 0.23484063521701146
6.425299275323922 38.01080381223907 0.21931506195342004
6.38027492237348 37.91047019898518 0.20098043508997812
7.651907456642991 40.79671145038442 0.17939831045019805
7.643462693224208 40.76832530603531 0.17936897642015076
7.100182150545829 39.60969717912044 0.20721413264234942
7.080040706942267 39.53816645903224 0.21565342602589105
7.0580353776866165 39.44772588321932 0.21447326303879055
7.0453105963341125 39.38697349518394 0.2224495489760973
6.485597076336648 37.98358401520003 0.23812151655762442
6.501705228600939 37.88257886514381 0.20232653851388582
6.469248869158382 37.797288407343906 0.24967862434771496
7.641541054286758 40.7173283361341 0.17944504160267818
7.63698018272449 40.64325052040673 0.1795604281502596
6.641910684021072 37.88670104852158 0.20292616701610952
6.6309311135758575 37.83353855906131 0.20432115606495405
6.64817206573797 37.8577022154317 0.21406127459437263
6.628954553351994 37.787586765190724 0.20318246390902278
6.602879811476745 37.691500805190074 0.1845977415926556
6.58212864269779 37.595488017517575 0.15846110498859442
6.552575857908603 37.50226057288834 0.1722753161849461
6.541484973264005 37.43482333941594 0.15818358404617403
8.481211825682617 42.13515589333864 0.18564438759668594
8.51197297029233 42.120400790238094 0.18594909511361
9.247691448513613 42.888138769798644 0.19208550908917413
9.341257336870004 42.86501449722665 0.1930668432225294
6.448236575745122 44.009446045561006 0.35477830327827514
6.424330326708353 43.90482346729156 0.35081125107243727
6.391808122720929 43.77865220596644 0.34603953065774806
6.359692629192656 43.63833293295958 0.3407423680418865
6.338771173155479 43.551320719614765 0.33745290540078776
6.318565289390099 43.46826981837895 0.3343279340378108
6.300474533821534 43.397019713781575 0.33163787620810337
6.2742812822884355 43.28805247613163 0.32754161400284254
6.248691886492791 43.17896624732538 0.3234455705326066
6.223656441522948 43.06371402586075 0.3191189986210728
6.200278563081353 42.97430954959864 0.31576946362496394
6.177912934831537 42.88278568725801 0.31235075801528306
6.149628279254478 42.772211219635466 0.3082270827183715
6.129460269773877 42.6974120491725 0.3054471025520986
6.1167342727688 42.64345011991436 0.3034353356439529
6.104423360768066 42.58949532715022 0.3014342792468564
6.080048699598396 42.490706660055125 0.29777099741260843
6.052286421824125 42.38105179733115 0.2937207472259307
6.0312074256634425 42.28262847850083 0.290083657805208
6.01097553957682 42.21005843456301 0.2874253025054556
5.987036661274968 42.10250456160511 0.2834763683624203
5.95958875314218 41.998509023640814 0.27968884116986564
5.9355847157606965 41.88904077133763 0.2756986651361812
5.915961044680789 41.81195526389417 0.27291300362285653
5.8942181939245515 41.72158199693028 0.2696562074537653
5.865165218802208 41.59710813959176 0.2831838135060984
5.8435502491639335 41.51129566281359 0.3124742760901251
5.821644135212771 41.4176058267821 0.30112768203117
5.7981686550108185 41.32641572080276 0.3065233502478316
5.768161072090532 41.21735014887254 0.33013011881772686
5.741305392844145 41.11941050995627 0.32357526855259433
