ply
format ascii 1.0
element vertex 860
property float x
property float y
property float z
end_header
5.961903814876457 42.10849970609229 0.11574304143735589
5.940083961033213 42.01347449535356 0.1168226095713631
5.913155134870318 41.922597781464916 0.11965955471916613
5.882819704771963 41.87089575589958 0.08824790544818308
10.121653276299343 52.70432585901639 0.13124344916086436
5.328956585908503 40.043282611256174 0.15434257432061887
10.220954905528984 52.67425582860777 0.13057633966366958
5.559515288327772 40.6122363622159 0.11565699917105352
5.552447521744228 40.558015771718026 0.11628737975038912
5.531383555489127 40.46130158227674 0.11296263647584069
5.510952050712587 40.36339878594409 0.11724773224189557
5.48709733377939 40.264197396201666 0.13054386054815467
5.421981529027656 40.161150518000866 0.1358608337802115
5.381855628220457 40.08089599054039 0.11084738841991476
5.359036624185213 39.989222590794206 0.13143483912029155
5.336603296319018 39.89735088701119 0.12481944028099314
5.299062736975803 39.79876078622988 0.1258227060041355
5.276416129874045 39.72597305917284 0.13802425633977353
10.203610677978926 52.414965336469976 0.13057943478024286
10.197732244503918 52.26103690572216 0.13059255242198875
10.07160207279197 51.7528620953148 0.13119693466238674
9.961042083271346 51.31099012026901 0.13177656398315052
9.791249677179135 50.705410002998235 0.13262797412203087
9.706188622295292 50.35179213433437 0.13307834196954652
9.628143743914155 50.02530951757339 0.13344860974478528
9.547030659285724 49.69760269264531 0.13388373600156706
9.442154768474607 49.3103594283631 0.1344073015085821
9.436962400697372 49.205901441620924 0.13443878437932516
5.951907383472391 40.16624572125316 0.09460393068872877
8.59990923052232 46.83951362781518 0.1389179879415653
8.618345624793962 46.734520828520154 0.13880447944613955
8.659197761415315 46.72220928352137 0.13857227872457503
8.36030536327247 45.774322164532975 0.14018161066965742
6.108612520802385 40.064333500180254 0.11678855153406557
8.500931709904927 45.834184744811665 0.1394298880543703
8.422258151846822 45.76182718755738 0.13985020949850976
8.559769853990307 45.808714331828504 0.13915068716615875
8.529291747331408 45.737627430432966 0.13931282211081092
8.592099930459767 45.726753106787996 0.1390193236567222
8.567961917678513 45.630136434096336 0.13914902041615002
8.545522362317275 45.53700732344894 0.13929685566635472
8.519923909401271 45.43871482825114 0.13943679425011296
8.493853818845103 45.325053407299094 0.13960416772186227
8.460257669776443 45.19712783157227 0.13981278253390356
8.437552980705991 45.11268677571238 0.1399379665905978
8.423498911685451 45.04837693594629 0.14004072348860147
6.392293634513037 39.7684678581391 0.12406175362548108
6.351881541613732 39.74351343289189 0.13135927047519833
8.399193241973204 44.946752874204925 0.14018997006702252
8.370737499526543 44.83813816629753 0.1403621128624359
8.346480597093768 44.74066434982391 0.14052400178270494
8.326830520346668 44.65419187790226 0.14066228394407482
8.330967395018801 44.57099050793859 0.14069972207250517
6.449038767103133 39.75132514969318 0.12626688491248086
6.487585263166128 39.709296354975564 0.14942662835737325
8.404972290636955 44.560418462978376 0.14043507475632686
8.399331602591628 44.5503139386464 0.1404686869683044
8.053566527310599 43.55294768200022 0.14263569761455303
8.02600015171246 43.45130651025089 0.14284812116823875
6.572041816793333 39.69763048497653 0.12823861266799072
6.521712434403091 39.68439234869907 0.12343209225942714
8.503701076782614 44.53383299072868 0.14013228280331302
8.008747811321811 43.36957611412848 0.14301620646184704
7.983518619096882 43.271940506233264 0.14322912801062673
7.955956441250072 43.16549589914593 0.1434713588823829
7.9320778024322 43.06925961263636 0.14369594750520712
7.906433433735501 42.9688242657342 0.14394032643418062
7.883048318873351 42.869409095235675 0.1441916200012059
7.857664058485689 42.77216950471864 0.1444498315096525
7.834137215499619 42.67649115039669 0.14471662411835376
7.808985227823694 42.5889541007553 0.1449745960585478
6.630287346204337 39.68485786534342 0.12567752006930713
6.665514428644907 39.63568268718129 0.09783094450896136
8.579235756754729 44.52244447817384 0.1399127010200995
7.829920933669861 42.6331334634151 0.10773980786953494
7.8118333557821895 42.57159609160056 0.09673132003255411
7.793475934543914 42.483407479222436 0.11053074706078084
7.773495899823439 42.38655924889797 0.11229218675450169
7.744693478837198 42.29015263698366 0.11409892505376817
7.718483571570198 42.191060015801675 0.11286892370530673
7.69163489799535 42.094797828660234 0.11964333986256706
7.667891047347824 41.99811221189595 0.12106837448218354
7.64122590218821 41.90055503296341 0.1228629464039176
7.612303104573455 41.80663592725657 0.12611783964761775
7.597630140929987 41.752761832759695 0.14841474836821433
7.5592773845818435 41.65930789837643 0.1489395184637105
7.458429668367898 41.40055062791546 0.1133538732134416
7.413471622502377 41.38487871101312 0.13894643416628996
6.680772578329368 39.618243201582544 0.12187640896720968
7.640068153179252 41.848425350100236 0.09739079008537274
7.615456818408823 41.78343486617367 0.11348452291495985
7.598903106447414 41.72852685197757 0.13278116576792454
7.567644124282344 41.636275211339616 0.14913811775912705
7.511278130324486 41.40948749532847 0.13127604123780368
7.673642975524349 41.4329968639662 0.1325458505951187
7.59706965053661 41.43054826139105 0.13003316600120984
7.17630999021863 40.15124947215966 0.12153189038661526
7.162207885523727 40.056814742107704 0.10694163292103435
7.715068939532715 41.4184873744224 0.10576048141784575
7.4911286289926435 40.87432149418542 0.14029089688804652
7.211778322636331 40.17630224279829 0.13588540080882092
7.167726959240549 40.045995189147206 0.11961238082873686
7.141079464034574 39.95151191951166 0.11678259800602094
7.118683069023485 39.85354245257022 0.11378353107222601
7.09340380651678 39.75686699432278 0.11486691001203446
7.069628026236815 39.655026479147445 0.11754267960215302
7.045217753667122 39.55787851758351 0.11082857430561378
7.0195254156732 39.45987464962172 0.11401170489092267
6.998212261596132 39.356120354091836 0.10951918520146958
6.975510769922937 39.287136609908224 0.11073630844239853
7.63066619694213 40.81223413478588 0.11604372482013596
7.613409711833056 40.739351241770045 0.12058798334034469
7.597976401725562 40.64865018710711 0.11413566221902521
7.557000751697585 40.526733857132946 0.08243910506429245
6.96781453946984 39.24466400028204 0.11015981315688929
6.950320871608558 39.16242952642321 0.10664743704342049
6.92797359078214 39.068311916822665 0.11085767277312289
6.905591167068594 38.975781869180864 0.11456555332814855
6.879263785119683 38.86582198661409 0.14423412962122587
6.853787236701512 38.76481024779248 0.1446566053747512
7.6998910157790394 40.830540820405346 0.11224166325591674
7.629879770773718 40.69367619385317 0.12491051502533423
7.602725135755968 40.622321109791145 0.1267885357879165
7.577570966497461 40.533408885596515 0.1251405866159755
7.562535704812106 40.43395086855397 0.1230313044099961
7.540143331627167 40.333723921204985 0.10484616185311482
7.485524861885298 40.249131699164906 0.10682289415733796
7.462613960639217 40.164471217025145 0.10507075517043289
5.020338420308202 32.516902811344316 0.16513472181480932
5.713589868224241 34.14374732355475 0.15832688712997642
5.671248504422252 33.983428305719954 0.15876009711085715
5.625389745376139 33.803526067996444 0.15925195618319865
5.079637146209144 32.50503897248652 0.1646254596654469
5.576693413571571 33.609887021166514 0.1597502580009933
5.523709328680284 33.396775221242265 0.16031483470422617
5.469010449258283 33.18390978979103 0.16087010836772123
5.410865948881018 32.957533023475015 0.16148357034758348
5.1832926254546505 32.48525377615627 0.16369992025486693
5.34694444862823 32.69968245824574 0.16213206870074734
5.2675837535862895 32.44616180550238 0.16293960221530485
9.868276929568955 42.351298128549494 0.1522649745013142
10.714565854551754 42.3500567196688 0.1565119256236021
10.734025336376877 42.2919408883305 0.1573020527788094
10.81262504312707 42.250249892389164 0.15822139723784073
10.8451891127378 42.21798652552529 0.15879121755356854
10.886999167723285 42.188435474582995 0.15938392745830784
6.501871218733256 44.28065963327915 0.2683759626959408
6.473233718889678 44.15525324341341 0.2641752681679185
6.446215281019996 44.051945188998616 0.2607627863895928
6.426186296809498 43.96480070450553 0.25786171878364617
6.40235082571042 43.872090316727856 0.254815198591967
6.380145813918317 43.77486846915733 0.25159870292516884
6.359213538243039 43.69279265601571 0.24892339703164554
6.331567643468919 43.577815933005986 0.2451673434618018
6.306544770830486 43.47527533705642 0.24184143138546133
6.2833761647908295 43.38196932148605 0.23884307128661866
6.259218706443057 43.27967421213226 0.23555669399633006
6.236609573448771 43.18509525483917 0.2325449932223893
6.213848213388217 43.08668316298888 0.22942531301006608
6.187865724556595 42.97962752035932 0.2260874393308234
6.1630043861595265 42.89109756135968 0.22342550469228337
6.145412200051328 42.83439939610713 0.22177731507140938
6.069511143351569 42.52428633571373 0.2675520091601748
6.063758425985818 42.481578321261146 0.24256361443332786
6.045432267571809 42.39649918609918 0.23301898825118225
6.019190784226787 42.306952605705504 0.23166143605023293
5.986541091413373 42.20914181453235 0.22293055294585498
5.962700649450189 42.10824457583129 0.2168015345084527
5.936275711551421 42.01117758588018 0.22081459414891072
5.912232704580678 41.91752752274227 0.23002590030804096
5.889997159785471 41.869824452783625 0.22820961830135872
5.560033856580773 40.62287079405247 0.2552625171728483
5.5640697758924365 40.60722352955305 0.2557589168308132
5.556968375088846 40.55186642647322 0.2240969307332826
5.534447064055334 40.458448186632786 0.22321787793264966
5.513622788738674 40.35838219724239 0.21398535685846365
5.495111779473736 40.26777980155273 0.21983424118968145
5.423627308893328 40.15816645608722 0.23132434944366273
5.38769230970247 40.07678214067521 0.2265345208488365
5.366364785381063 39.983271662908905 0.23741641990749154
5.341499109334859 39.89065423083924 0.23926942141555957
5.315378649228207 39.800269312270885 0.21456042594977692
5.27415247933755 39.712188964497344 0.21819560823911086
5.813346728727714 40.26743936019278 0.2506202793105379
6.131336919404195 40.090326054184615 0.18768397670718853
6.124994396842007 40.06205628287679 0.26106969699072896
6.267327781303825 39.70269389011911 0.24588101356748246
6.235901961935484 39.684980996243425 0.24775998865224041
6.3893116543729755 39.767447902591464 0.2209312194841558
6.34536069003424 39.74574892454337 0.21788113025829078
6.27846152739939 39.65414146914289 0.24903123797252893
3.7482272151360037 32.84727904600115 0.17442873006693327
3.6809776045855203 32.78968406492623 0.17490605442052887
6.447584612352706 39.746412923787304 0.21194879551832077
6.465953489412514 39.71977116058388 0.23637932269122572
3.847494863263183 32.81068961640568 0.17383055663253913
3.8022020509251733 32.81795567581728 0.1741188005729131
8.04962984501886 43.54492223916291 0.24717080036424122
8.030269429583955 43.4562773716421 0.24436556427653294
6.560307256670261 39.72523335399453 0.22033780499623934
6.510134303342719 39.69443140599258 0.2016982339054462
3.890680123134667 32.7970670082958 0.17357138425262678
3.921012311366146 32.74158140447606 0.17342786160311144
8.003576071895246 43.35169184495561 0.24101911214978192
7.97802337226652 43.25386129645898 0.23789773984191323
7.962029580874313 43.18091698921664 0.23563562918626726
7.934518482941501 43.079142373351814 0.23241697398476907
7.912079836464434 42.98221780179568 0.22944367884326533
7.888193195570404 42.8885815686113 0.22655950662245353
7.859907855442058 42.78043469555197 0.22325526870744675
7.836152280543653 42.678122922968804 0.2202340456832259
7.818997148654385 42.617028054477714 0.2183910686352052
6.709865362261334 39.81177325257186 0.223604131911883
6.650023707020312 39.707321862849575 0.22028177730006557
7.809365478028956 42.57219085544654 0.21711124554364447
7.792318756885146 42.48960826386864 0.21480930369943846
7.766702160333487 42.38782299721626 0.21192444802479424
7.74142432446342 42.28803791178291 0.20916236255532336
7.718991529155112 42.19008017957191 0.2367295205200152
7.692194048795846 42.08895592871131 0.23399915028257395
7.668322041849571 41.99364618912391 0.2275487321941376
7.643974981970317 41.904366712859655 0.22292746388545923
7.613909745459596 41.81389495380512 0.20126524094400072
7.442312785287964 41.39326214619792 0.22470489263364463
7.40293212513404 41.38192307232926 0.2211159738327336
6.761070009153787 39.79065121700815 0.23473088811129011
6.695362659041122 39.643067373197006 0.1957914206696098
7.648453334473528 41.87704044778976 0.2505968988759719
7.621647428191008 41.801314045523 0.23944512227441175
7.597373217218512 41.708973074415006 0.2420183753795395
7.573268065466145 41.63831198226307 0.21470203431101734
7.519040124075014 41.41468721319994 0.21876826126257806
7.668578113226689 41.43691829392576 0.21413078417329567
7.584034778874102 41.42965558134941 0.21392860467168767
7.205503735561865 40.20297686902997 0.1962651418514037
7.181214021270308 40.160857425120604 0.2175127689443491
7.164589521683057 40.0618569195424 0.21802848010057008
7.707312484311013 41.42477118990911 0.22527519254708475
7.255949169883089 40.19024331339862 0.2262887150600698
7.199021865347509 40.143508490815634 0.21601598822041929
7.167255715393646 40.0437333581008 0.2211493759706736
7.139255830739335 39.956811576012065 0.21158903458431869
7.115979259818456 39.8546742953007 0.21208804282794472
7.091534691511673 39.758570452557116 0.2140611976943202
7.067130004233274 39.661832932192326 0.21880835016016523
7.043035870085814 39.55942579787245 0.22152035801106867
7.018313298821834 39.460229044539496 0.23046415867086636
6.996250363552938 39.36725239201263 0.23544758401974614
6.978334122202695 39.29451308137442 0.2182490162365305
2.4087170902129236 27.388208231845866 0.18785989201444386
7.635416854215495 40.808067177624565 0.22353211481408625
7.6196228896894365 40.7437558648433 0.22280637159549846
7.60430935565674 40.654834243787555 0.21989909808641378
7.567681595088814 40.553778730387556 0.2080172772619646
7.345474082973591 40.16932625292677 0.2187785418944428
6.9708759174514405 39.254889405726246 0.21763127961207335
6.948971805414715 39.167688914249084 0.21020406626732793
6.926366584293157 39.07339819189033 0.2136387228691323
6.900808271932142 38.973873293389204 0.21729368690815706
6.848186007512182 38.782924877871125 0.2243811639545287
2.5043549627426507 27.354893039939686 0.18724120485823834
7.7011380245627095 40.83142252576293 0.20460143985760834
7.629682936855242 40.690913591815665 0.23129455024200646
7.609801087871912 40.623530137177646 0.22961560497761052
7.582730992695318 40.53129875418712 0.23147360427509386
7.565822263916933 40.42625758988345 0.23093049595689819
7.536777876561624 40.33231962654095 0.21580115762117938
7.484586264569142 40.24988187207533 0.218811195855707
7.472906540970784 40.179907118771546 0.23343675501167305
2.6975973816168475 27.581530486286635 0.1857310557762903
2.6100736394383457 27.452496583899055 0.186453952024767
2.768492754964756 27.56291794779213 0.18525850686302595
2.8071843740337434 27.327591920559914 0.18514669866948438
4.2091810975314505 29.241208896355214 0.17327295328105047
4.2761092675368 29.269288995973127 0.1727069488385726
4.435327540171427 29.311728278777167 0.17133937150920375
4.36396606784969 29.27050170385393 0.1719597471441316
3.574864748272141 26.469429433624825 0.1796874148748277
3.6234563338627717 26.44765519810309 0.1793164316761071
2.2263977178947902 20.790537623353 0.19322705961006753
2.297620197963508 20.771615685285308 0.19263053806302524
1.3419253367947785 16.993361584260647 0.2020781811692861
1.2525244334751209 16.986038265193223 0.2028291624454457
0.13872344873019937 13.240555005079774 0.2134364740266128
0.23538491879871515 13.216688378059736 0.21273697423677745
0.3327940002689749 13.199087794184372 0.21194136983661022
-2.140853915658181 3.8424284598269693 0.23613246096836865
-3.76942208356198 -2.4706377277500664 0.25202552084149304
7.031294172130475 46.794732034576704 0.3543944707427805
7.216608124782232 47.065770966186925 0.3629837499275841
7.0905133310923505 46.7826062096446 0.3535776513545407
7.311977521279815 47.05196204867089 0.36202601249948874
6.88362193940237 45.81480160584366 0.3202298403595827
6.860806205742165 45.74650267168363 0.3179545953593467
7.405714291610229 47.03784464658803 0.3611350464656253
6.835465343861866 45.64030443878965 0.3143156237243536
6.8112597760552935 45.539916259571804 0.3109031213792623
6.787691896564598 45.43747577683075 0.3073919476646694
6.766609245123361 45.36079390113262 0.3048132206710666
6.7359681716965465 45.24264431266474 0.3008080271880403
6.706404513041359 45.124322335569225 0.2967935312131083
6.687211067236374 45.03128973379905 0.2936206489569854
6.661796454760324 44.93755480277434 0.2904666290140748
6.635395540118886 44.82576533676392 0.28667505882597033
6.619010146607252 44.75841732551685 0.28441173758795035
6.595503817672892 44.65731493699129 0.2809887858153455
6.566513562010008 44.547256779381875 0.2773085447653269
6.54543976548605 44.45284924650223 0.27411494369834477
6.526085999935516 44.37126139405678 0.27138073708071203
6.453445681104541 44.08220968476584 0.3694730821778783
6.443062863848065 44.03822872010312 0.36648164398604666
6.423061899257154 43.96685266886837 0.36165460875470923
6.3995302917475305 43.86297733597293 0.3545852629642487
6.377345940444359 43.774871287516376 0.34863767813226143
6.35251724648487 43.670143546414586 0.34156523315312076
6.328665031776215 43.581112272450966 0.33562384576086945
6.303889025211934 43.47788118609277 0.3287163707992795
6.277793298939103 43.36948053939246 0.3215027872927136
6.262664401814618 43.30517878854265 0.3172322281290765
6.254349955278237 43.26233792774249 0.31436833882616755
6.236653401274254 43.2009371111979 0.31038819032488296
6.214006554894239 43.098716721358905 0.3036614587955615
6.186402354513185 42.98534692397592 0.3243416502006454
6.158653988659405 42.890504038367524 0.3239267862812966
6.132238083647243 42.793803109572174 0.31624591534574564
6.107734750895906 42.70072277940358 0.31096040780661255
6.086531690512585 42.59855162078718 0.29678237062381013
6.069926723989601 42.53871649521765 0.3242450874480087
6.066910315509647 42.49323908691278 0.32563792533708213
6.04507017912068 42.401220648351575 0.3370410193966977
6.019789501602251 42.305301170903306 0.32831704745735296
5.986913168488252 42.21193549713679 0.31308971692013204
5.965136623937381 42.10742721886151 0.319681994386225
5.9390570397528 42.01896817721006 0.31401049803746783
5.913396262607949 41.913686359313246 0.32657564711547654
5.90267823647441 41.86215115833629 0.3499594941707871
5.571071896616777 40.61209058243135 0.3320201779530077
5.557931980335185 40.55986895658335 0.32444301210007526
5.52941030596674 40.45330671572314 0.31934015278784295
5.511731030677977 40.36061489140742 0.3189520020205263
5.488702790994465 40.26770862902924 0.3118137359447781
5.4168628146448325 40.15127949579348 0.3273424113895511
5.403473878052037 40.07327430496206 0.3247131571504378
5.38201455489692 39.986126565580534 0.3377956401773986
5.3354235511675085 39.86457102862667 0.31821623396984267
5.3152929700426546 39.78709940993439 0.304345050547888
5.29382514488583 39.70586720970816 0.319881114189032
5.821932994324049 40.251219103660944 0.3369120738970699
5.853451949108505 40.25672282633606 0.3282865718340719
8.608601463652594 46.76178646323993 0.3533440263274337
8.695962730691315 46.72172011553176 0.35262707828787265
6.138907550944849 40.09010301401114 0.3170112803296586
8.788551158403806 46.69640913800906 0.35250596512406684
8.80501971142169 46.59879877616207 0.34950357742191346
8.771957998599401 46.46744881058838 0.3449967406734962
8.735590133047708 46.3286770303249 0.3402596120649022
8.712581233008462 46.223303837838365 0.3366792978871272
8.685967462171963 46.11281831504851 0.33293731549946054
8.661007961332482 46.0081436100197 0.3293681728000489
8.632074662012563 45.89853434610037 0.32563836290160597
8.605081482219662 45.794618306565845 0.32208116324738995
6.234534926914108 39.67117113034828 0.32206550910931153
6.188176373051334 39.60873543810286 0.3565899585485445
8.583825377802388 45.703338740672855 0.31900984219334166
8.566296944314487 45.62133398743167 0.3162425216115143
8.547990158919433 45.537354163506876 0.3134368226415179
8.51720626906198 45.42829867615088 0.30969557641477113
8.496499333019601 45.34529423047537 0.30690105873933854
8.468542956702407 45.22920441245871 0.30298383348540664
8.443310056471669 45.12055033732673 0.29933270827535796
8.41875879706508 45.034704997498615 0.29641971544604623
6.4049988338931545 39.756032574531105 0.28471676468440665
6.358706222437872 39.72691407162669 0.3113240533475245
6.278823082563861 39.65470367740974 0.3206223896521107
6.275922802327879 39.57555178662987 0.30625931348983587
8.391731902768537 44.927790560439846 0.29281409976910816
8.373881153208638 44.84074787726029 0.2899290133635621
8.348708743164948 44.741549141050385 0.28660593082860414
8.333426703962083 44.61799309075916 0.28266392664595463
8.335518106611962 44.57635620399826 0.2814339175470731
6.466966044371902 39.74387504673043 0.3072401763844021
6.4225317380429425 39.734507507619355 0.3202180187866303
8.414253822343827 44.55979971047526 0.28194650352137784
8.361746063407924 44.56594227703153 0.2814375009253982
8.06146446472027 43.561980595834044 0.35331571217940433
8.039323401569629 43.487918000479056 0.3482629063128558
6.556622280323784 39.7317434944255 0.30748646351497
8.501776408473349 44.541916953278395 0.28262530079528075
8.033708260855446 43.44093758986012 0.3453754116415117
8.007968819418622 43.348159675538895 0.33915937349693487
7.992846353898856 43.2742888685616 0.33443365936659253
7.969489631184977 43.182297932354246 0.3284100191206956
7.941303535773669 43.072324813719945 0.3212467382051339
7.913977709659078 42.96287259866605 0.3142055152600569
7.890947481228192 42.86425889312821 0.3079811508224642
7.870140246919959 42.773620348596594 0.30233610039116887
7.852483210397297 42.7089421707804 0.2982198106494319
6.718870686653381 39.80300592448832 0.30777517968669377
6.650082093689514 39.69916199777021 0.31178920529521703
8.57403192431761 44.524996007370135 0.28319083209927814
7.846761399534875 42.66282721307711 0.31063617395045645
7.826613617926986 42.58567444681117 0.32741749173046264
7.799436488910295 42.48566288308311 0.3146528181357683
7.773366847501792 42.38509780289343 0.3162320927305793
7.745830441154505 42.28673394414699 0.30001487755427725
7.721659933087169 42.20033508668968 0.3285592998588884
7.6970422961132545 42.098728087508604 0.3198601296286465
7.667203256787264 41.99538993248459 0.3397251407996926
7.647971771683002 41.90941512202793 0.3291660614403659
7.612237329889083 41.81072167369756 0.3345429015801507
7.439562493154026 41.39442201651321 0.2985550467803885
7.386648246687977 41.37613350312814 0.3623510780454474
6.761810868959882 39.793908404422936 0.3243438630238173
6.702806498062225 39.654986745077956 0.33032887310804543
6.7226057348226025 39.622207272090094 0.3475176728130263
7.644772787856341 41.869482749218655 0.3015753307911613
7.614350271738524 41.78552099279799 0.3083159041830661
7.597927447517365 41.720792332720926 0.30659617582164767
7.573427169824427 41.63308002053201 0.3283876303698189
7.542699709093452 41.42105901157412 0.2927412174440196
7.666150663875451 41.43986585126037 0.3190530719884336
7.582921409312059 41.42968034042402 0.319466500025181
7.208537007415579 40.195882450713455 0.332496327548113
7.182403223301728 40.160207566788266 0.31607859723453147
7.165098367839762 40.07051888017115 0.32830088629118287
7.691759044254068 41.423163578439826 0.30347742187528776
7.5396511385363585 40.85688110295736 0.29413668805448323
7.259312342666301 40.190282674796634 0.32888764016872973
7.182199268449616 40.09992137561767 0.30170267101518816
7.166210433204734 40.03961435042606 0.32859724463110374
7.143509311057846 39.94471934617537 0.3211042305676594
7.119373343332163 39.85704149836434 0.30530232091129045
7.096308981406266 39.7567014165387 0.3160364030888485
7.072389330494457 39.65553229042573 0.32370131898645416
7.045575465568062 39.559307877786225 0.33370058358164173
7.025052785896421 39.45605224980733 0.3170117772195566
7.001380685586515 39.368830380024285 0.32542174111666644
6.982416346535717 39.30580859886272 0.3315388418451708
7.6330122750853295 40.809448293100175 0.3103243559387801
7.614730255918379 40.74037227530582 0.31141345496773337
7.602537923241819 40.65267463441424 0.3287142827700505
7.328636006712924 40.16705954303799 0.3479704209945935
6.972925698799316 39.255189169888006 0.30704134980516135
6.952706348787665 39.180309428567405 0.3046855487138889
7.685938015103911 40.8302169685211 0.29124062477829465
7.632500776835985 40.68831520136712 0.30018132378072176
7.608667957263359 40.62034702849748 0.3097561923192397
7.583605747588357 40.53006048328211 0.31750029045309347
7.569657457561209 40.42970584199335 0.3244437474862645
7.541051350085247 40.330400815063726 0.32966893002493375
7.489768008471565 40.244405091532144 0.3333565400180704
7.473029408639495 40.15653162102238 0.32025019528507204
10.763515090198824 42.320863607336705 0.3142163014077814
10.847547280862482 42.25244178442599 0.31763188475869314
10.900522746849552 42.19285513621047 0.3198851681272431
11.024952744900428 42.174920423592 0.3248373597579005
6.793794820888806 45.48083401591611 0.4659887158731691
6.770242532755001 45.37247524106171 0.4584482198861398
6.738616402387605 45.24162366567911 0.44934873829502
6.709693628532791 45.13448122686038 0.4419244206984408
6.69163189633376 45.063543125798674 0.43702298842463116
6.664866711186092 44.94708684820141 0.428940840359205
6.6382421221452566 44.832528596370814 0.4210000819789666
6.614469355592408 44.74664764003359 0.41509612311072613
6.591207331857401 44.6506681560166 0.40847857079594996
6.568898372202169 44.54858417322821 0.4014180653389959
6.54165819688326 44.44549754959146 0.3943487026461751
6.522510052397331 44.36905956885136 0.3891008632110983
6.504100548050089 44.28450035902497 0.3832870370639137
6.475448587237033 44.171969313980604 0.3756044939433933
6.425189860525622 43.95837040332458 0.4649232243739645
6.401193635743674 43.878023589525775 0.4567214084063088
6.379352842607007 43.77229845533937 0.4458187672086549
6.354105727205182 43.677836299448316 0.4361916457175279
6.330929151481884 43.57186355616131 0.42535005827573097
6.308863669315181 43.49488532841679 0.41759597886411504
6.285811866106347 43.395583593718385 0.40753757470587465
6.270865812395345 43.32456081768338 0.40033899909659293
6.255271928632372 43.27125856851678 0.3950480222595682
6.233673854623608 43.178323061802246 0.42462811150206076
6.2100016086741565 43.090309085910796 0.41434632929612036
6.188384353526498 42.99853220750407 0.42726242529641484
6.160898681276213 42.89035164460316 0.42517173067828395
6.133172566116869 42.800520389021436 0.41371524956986194
6.108493979184522 42.6961538907789 0.4290713156038069
6.0870364804108705 42.59572333529846 0.4166575668574998
6.069346382754866 42.52106235005731 0.4060479327654653
6.068713308371604 42.49395151113768 0.40440572139001507
6.043879689029558 42.395009412664116 0.4357751715786541
6.0205636049152185 42.30251502692098 0.426335462885728
5.990544290735915 42.20262042350593 0.4156151989349491
5.971433103789254 42.108380434932975 0.4201916566397025
5.953494891601166 42.00739265579671 0.40655864317295665
5.9248323028423835 41.916263060722905 0.3968082654017902
5.90357171661532 41.84955693095233 0.4016586647300137
5.340071230007111 40.06061572474101 0.41716663713882546
5.582597318458008 40.62013313455794 0.41582981590248486
5.5643035642734 40.547699151187366 0.41585246228845973
5.541483771818246 40.45816348604824 0.4185074967263266
5.513146244870414 40.357251347777996 0.4232050409556684
5.49399350537594 40.264999396617256 0.4222394691729963
5.430308324007532 40.166781772621285 0.4132117303990301
5.369317850162836 40.064626702900185 0.4128340779843496
5.361214487994017 39.98525759632872 0.4036001351262254
5.325181590576151 39.91495739377359 0.39895001725495827
5.235936110162955 39.66916202779704 0.4147562229620169
5.857613858590971 40.28303411011507 0.43116919199388687
5.802131163105956 40.243722090319444 0.4276460720205565
5.762976519083188 40.20062239860153 0.4671236537381279
9.621339982548998 49.99249336661833 0.46608187591563466
9.542022093310422 49.67069899864623 0.45499062792213807
5.8640574647398855 40.28026453223806 0.4306165466110251
5.861309478650924 40.24951643961217 0.4061669455183007
9.449122572740912 49.31760824696529 0.44274642488826693
9.4384451602021 49.198178748247415 0.4387593157043692
6.148906448656424 40.104448496445706 0.4222518623943483
6.235892876292613 39.65983679090462 0.41960615427303505
8.48381453337093 45.27587411802715 0.4698954188458275
8.466772527561858 45.20220508292671 0.464852165186832
8.444900691993329 45.119785895840835 0.4591134516780436
6.403217739745931 39.75732486671313 0.4687983363062045
6.365354861053489 39.70940410081674 0.40706532542197804
6.294808818469765 39.633928353958815 0.43125550308353444
6.278633124446031 39.55403464950108 0.41464847456608506
8.42503882999565 45.026285789285915 0.4527626983499739
8.388753862146533 44.90071918993622 0.44398819350368335
8.374687101728723 44.83867648477808 0.43974453168199457
8.351797414129837 44.744100396560555 0.4332726719416265
8.342220009571692 44.60879860934676 0.42468341997567177
6.472944177469181 39.76606537122012 0.426515258474595
6.415648006829563 39.73372737498436 0.402995756492673
8.407630464172028 44.57394178243323 0.42446693879176167
8.056124526983151 43.55166931518772 0.45810115857968814
8.037126745394655 43.47308953328188 0.4502108949217
6.5816941979259065 39.79090123164047 0.4589096928187358
6.563215345571402 39.74646196449089 0.41403192130820665
8.50190045689012 44.55351859380451 0.4261406391773546
8.027026439015293 43.428768316810334 0.44580304775170143
8.013677269815124 43.37255353177334 0.4402123696358823
7.983900714671008 43.25982516372657 0.428864599859501
7.956136372284345 43.153792397116575 0.41826642522844015
7.939114089606545 43.07554286689105 0.4106918661688743
7.917458892128209 42.98054244084316 0.401500585440034
7.889881913849663 42.875385696736146 0.39119302879150925
7.865591569988537 42.7791617748647 0.42184270905087035
7.847108176972646 42.70386650744339 0.4079397884961179
6.725767385591161 39.770183647831416 0.4126943949655643
6.645150103594052 39.71373447561168 0.41318052517782244
8.583089323197576 44.53742037307917 0.42780839142959115
7.841158315963897 42.66206468238432 0.4168380401025485
7.818713837059537 42.586682542525885 0.4374278788011765
7.794125093503872 42.484819507743296 0.42472138252500297
7.767953206245917 42.38293795101195 0.4120518154447134
7.742298998865776 42.284894936824664 0.42580807176664004
7.717023853033705 42.191386397174306 0.41963471105419337
7.692011553212717 42.0940089108833 0.4067829915504978
7.6662505959084895 41.99991213296612 0.42215266146447344
7.6385216438505505 41.901182850552956 0.4346150450072951
7.613930563958816 41.81597143101919 0.41886082639309835
7.5634088052298765 41.68175188565552 0.4231819130500006
7.5551827498278765 41.65555449965319 0.43461073840474657
7.448039536790673 41.39417764149703 0.4149819765258358
7.413512412543405 41.38471818593388 0.3870393186204086
6.763947872424421 39.77622770208811 0.43664376317760084
6.70545421659923 39.66502698924964 0.42437094115217644
6.714284081281943 39.613668874481284 0.40010564993838055
7.613589471272424 41.780221607924936 0.4247492877466928
7.591908694567737 41.71930433049235 0.4029416072340985
7.557681356021824 41.63002696814742 0.44195998957203825
7.528651198271327 41.41539218831327 0.4116512914980878
7.668368575409057 41.43379104008905 0.41339625696342225
7.596984289952422 41.43092380358943 0.4309245567260467
7.199108169448557 40.21171376134827 0.4285432499293577
7.16500125827878 40.15909516784347 0.4318467958607805
7.12815566797795 40.084579051859755 0.4069739907642525
7.135034269265991 39.98722876814999 0.4354211643402588
7.696987685646268 41.41710341519134 0.3813354171108961
7.53239753684002 40.830524886659504 0.39182844361380803
7.496883857815122 40.807428856973296 0.42472711732933316
7.251485236888298 40.20234036821175 0.4460388867887394
7.187928806606857 40.094125286770634 0.38757865008902015
7.188216321796571 40.08697225582015 0.388849410940068
7.13576806097087 39.93986279079848 0.4302715582298072
7.117492577227092 39.85747350585725 0.410854740830198
7.093984134708233 39.75232154718364 0.4144107570293638
7.070699599038008 39.658604584650284 0.4315385259260558
7.046150859058947 39.57438145696201 0.43202847422021495
7.0223094032457265 39.4617130790824 0.40350240796918535
6.9962287602429285 39.361889335720974 0.42101948772353437
6.972368130410739 39.28312799538587 0.4415148961961303
7.631713446715157 40.80403374741684 0.38641801342558757
7.61550202512818 40.736221284552656 0.41959207445076613
7.602012022351602 40.65237720166696 0.44347896995829045
7.406570968596187 40.15661067228703 0.40356627751243085
6.975163979357419 39.26269091786726 0.42283577222522795
6.955403157677404 39.18842420829305 0.4107186255648118
7.6319499613570185 40.69104465273633 0.39047518564302747
7.608452712095243 40.6222543425599 0.41768207777968497
7.583967790639761 40.535801942119654 0.41410391384259915
7.566501977299662 40.43032827891196 0.4143702129792073
7.531588050695101 40.33518631723398 0.4198164250871794
7.484229540484451 40.251461349965204 0.4239830135454926
7.464534444080352 40.16465702023772 0.42901508566444385
5.04313076895294 32.539211361535536 0.46571022390808753
5.695011272847471 34.055834976201446 0.40366627897915025
5.654769891929163 33.91962330298242 0.40898159868830364
5.608072206680261 33.735896553662336 0.4160209067667262
5.099460383882362 32.509724963742684 0.4659290691964261
5.556848807522527 33.52669214747357 0.42403772721712163
5.502859880052002 33.311813823825034 0.43226651235413777
5.443162045819526 33.065586826595265 0.4416952442512304
5.187475924704785 32.48655399180161 0.46546704033111097
5.379176176872765 32.79980012520203 0.4518409412547443
5.307600816456424 32.49284767910484 0.4635565796320585
5.259473891106794 32.46725707842036 0.46511916867937025
8.761390103386688 53.04773661692032 0.5698327362492125
8.84263988590952 53.01632747491375 0.5685681657260914
8.466661173787601 52.138778059216 0.5384241934773134
8.33683138895141 51.62789582491169 0.5207450161646486
8.927220726137072 53.002729808533985 0.5679864140830968
8.208079243081073 51.10051524553429 0.5024380394200951
8.096443003961031 50.65721472502075 0.4871084429028561
7.985032147985321 50.195567780326776 0.4710902873200309
7.035379284653776 46.79965871001451 0.5583541914503265
7.096726504905416 46.80669617142128 0.5586769999451864
6.88762948706041 45.82558056384656 0.48996524972962713
6.8645817254188355 45.75543245902988 0.48511059795572725
6.839661195223783 45.65540692270893 0.47812781281065436
6.816457032738492 45.5691436980317 0.47214201582742676
6.658969909697103 44.919300260680274 0.5648713991998052
6.642595942526666 44.87031954789298 0.5597568471801961
6.617599907168665 44.76186889326722 0.5484100071974726
6.593787935147233 44.65526883486876 0.537263030570032
6.572071680595197 44.57438065117305 0.5288339774009764
6.544256759050211 44.45671428829635 0.5165692233314998
6.518599365463394 44.34579232970967 0.5050228575833118
6.494721944777177 44.25059697936072 0.49515018088135604
6.4720093347572245 44.15126403930866 0.4848435958641982
6.455541042728533 44.09258935090354 0.47879609105626936
6.445045695112386 44.056701336524974 0.47512185306892846
6.417093114499632 43.940204080548476 0.5671335428790443
6.403069654706308 43.88345277360636 0.5593064773736695
6.380770329942066 43.79005991195367 0.5464328591222343
6.35693384683191 43.65181344682828 0.527263714551535
6.328646426433954 43.56354987632731 0.5153151731282881
6.307304322032906 43.47994036290351 0.5039397044542698
6.280540409413021 43.37875425878155 0.49025356796186864
6.261621065909416 43.30961313519957 0.4809609344764671
6.290785456215654 43.244894539695814 0.53537570454561
6.23278566059229 43.17461568482688 0.5408331029689848
6.210171420616255 43.07773375113441 0.5245262319067326
6.186179282312297 42.98529739996557 0.5091670368633888
6.161623815951021 42.887394450987735 0.5243243010493854
6.13666064176733 42.79333399477593 0.5106212123292083
6.114980807018185 42.696856920859396 0.524598479525122
6.0869457545518255 42.59221174252363 0.5284336503855237
6.069421704447521 42.52287508327059 0.5144115732804513
10.051736773798025 52.74537093547537 0.5603548974137833
6.391466581297129 43.306670789501254 0.560184083442696
6.362070658267011 43.244014542756005 0.5496524301442777
6.067166109998525 42.48562862596447 0.5151804528858336
6.049868831555418 42.40680819235245 0.5081421186030358
6.020969538797063 42.303450354790215 0.5008229021361219
6.0043400277885315 42.21219318667764 0.48108161899945534
4.897577729606486 39.176204540362036 0.500462447414529
4.823705013201727 39.109119117884426 0.5146962890799023
10.126064203046912 52.69861598728973 0.5590676646192262
5.320337692879235 40.00229733178468 0.5397089993859394
10.229452420070235 52.68120128263312 0.5588917393746499
5.532476427478793 40.4141170456388 0.47437276321779565
5.519265388008262 40.35519361278815 0.48755065241376405
5.499478582235483 40.26538852183129 0.5081967414840888
5.433235135843617 40.16810652661805 0.5107704699699126
5.367639758979026 40.083959317217364 0.5399474457786162
5.335348885831195 40.01731239520442 0.5204655219321603
10.14685061043622 52.08991609100557 0.5387031875318156
9.955383896405712 51.6416340044498 0.5227770649902548
10.053535172161622 51.68276601709282 0.5246152564145559
9.954203756885684 51.27533410420924 0.5105471283923132
9.790107785002117 50.68717241493539 0.4900794120319993
5.761415028423805 40.18812192358871 0.47020736245157085
9.701584755597962 50.324376330152326 0.4775657467243568
8.621680279356777 46.75796908210694 0.5683138700819649
8.704127726073104 46.73521868714567 0.568422863612981
8.797862883394078 46.71219564423532 0.5688539075818602
8.805576414532375 46.59351753699347 0.561366118038543
8.77416516554097 46.4660534277058 0.5524588168798833
8.753549377063193 46.36421218231438 0.5454774480985539
8.720340878303862 46.23518423377985 0.5364435652597456
8.686597174993405 46.10842374467856 0.5275800960805443
8.665603069070519 46.01310145097887 0.5209925669711277
8.639151733201706 45.90915039514116 0.5137637208415317
6.235923448821559 39.635096089020564 0.5287749095046131
8.619651688906686 45.8217550366156 0.5077272412122359
8.591092730936774 45.714239172943934 0.5002327953420952
8.571200372647477 45.626885724438885 0.49420147278927545
8.552930215382666 45.543044813886254 0.4884675147641128
8.520245016822873 45.41085170441043 0.4793110665241014
6.405728529988689 39.76043734643306 0.515621368072581
6.376069224185642 39.721751317638244 0.5054623398542535
6.3008789303146955 39.63023359655379 0.5287777768302949
3.7465240730620897 32.83321966651681 0.4762003771412613
8.340205776664787 44.59407396585421 0.5660825801772849
8.352310513050247 44.57196652596282 0.5645948591216629
6.527431186764701 39.81064266889144 0.4995521711257427
6.468126976601043 39.79509287398978 0.5045427617949377
3.8105393140940316 32.83467674628586 0.4750626446577316
8.409642365819295 44.574613271688825 0.5674811469848261
8.05664570839357 43.55057419101565 0.5643242287297789
8.040676842575696 43.49622494561546 0.5567914003034048
6.574345689972636 39.79999769421357 0.502862153686011
6.62199011893359 39.767364542167606 0.512816592832681
3.897429310572241 32.809049086186604 0.47445516364078744
3.9441824524497235 32.755518641030655 0.47550753057514716
8.483713657205426 44.55733591398011 0.569437360824425
8.03356602161506 43.4467061783242 0.5504797843783783
8.00276338775532 43.35449467008092 0.5374747451971811
7.984326853592226 43.26744675394739 0.5260344965219942
7.959047645535741 43.16476939350242 0.5123484994977409
7.936974735066148 43.07130647051648 0.5000396858506416
7.906274965411775 42.958224005544174 0.5095309268515492
7.887663077058451 42.87404395520027 0.511482141418936
7.867102963173796 42.77994461556976 0.5430227738886336
7.838514416835547 42.67780743348528 0.5261312653625307
6.721585784699309 39.74582142401744 0.47284240090306906
6.669934969647607 39.71866824532393 0.5039526783591477
7.829774673530945 42.63835645749076 0.5199030571449141
7.8177349196419375 42.57942086438097 0.5108043102638743
7.790646610753817 42.4759617722259 0.5228022205689219
7.764925639044749 42.384826259335156 0.5071877519396292
7.734840290609025 42.292771826887645 0.5301731661931335
7.706767354064976 42.190327529123834 0.5179277687156852
7.684478863685886 42.09794744570923 0.5220395663444318
7.6618602298986715 41.99947061927512 0.5090993887363593
7.632446515515769 41.90029620800623 0.5144120924559754
7.609216029979268 41.81292614558412 0.49736180405009
7.569332019902609 41.686391685489504 0.47248402081103763
6.769328412350176 39.75101921951652 0.5139760424685924
6.713826678820499 39.69221799022806 0.5155727260775564
7.612466952672778 41.77828595903096 0.4933763721253894
7.596501246693814 41.72987226919903 0.4837385692561066
7.674448664011183 41.423735238049275 0.4714125553654351
7.171315143311471 40.103572980813226 0.47016327323138546
7.157654701262054 40.06446268950029 0.4774031042233673
7.133605719048344 39.9783073443855 0.49482745297688585
7.726771229852612 41.41986819915906 0.4838170210497496
7.305985605608858 40.18598099754094 0.474028756673808
7.153275429660332 40.016922890488495 0.48808758896784427
7.131682114154604 39.95304664429064 0.5008439372753649
7.11364741679095 39.84690608866091 0.5054971629853278
7.088951494210019 39.75617757535144 0.5185110027080098
7.066395416916575 39.66827452418707 0.531762274573541
7.045160951537146 39.55535448544343 0.5129811176749457
7.019795374006936 39.46303190377083 0.5236465438363751
6.994788731234425 39.36409662361337 0.5134884814680696
7.3622264891188065 40.17580873588002 0.48623387056229145
6.972172380615561 39.25222032585107 0.5218521964442564
6.955207825685428 39.198065404531434 0.49424618708848
6.8761129802373295 38.87999042209655 0.5303403762719181
7.573267336352467 40.519019183051626 0.47270027490454974
7.560480745990551 40.43090929797206 0.4819218454188866
7.5209419796800425 40.34043540395083 0.4873572950564909
7.473381181121967 40.252328977062135 0.4928044559214479
7.459506669094935 40.16255605402243 0.5069615130249008
11.158676653623932 42.45573684632946 0.5013736985108053
11.220088671725541 42.43870144423685 0.5056671375320911
11.328495806616498 42.41632910660756 0.5133487159077894
11.415261694258536 42.385444786285795 0.5194472665020645
11.586865181497032 42.35666022372361 0.5318028053800063
8.719353901971854 53.05569356645818 0.5701713254184994
7.222264449434418 47.08098774732275 0.5778162686500646
7.317175655511884 47.06258692923586 0.5764959288014385
6.888441987261629 45.800673968371704 0.6575375327131524
6.867866388629032 45.75848653585595 0.653112247503943
6.844221335235265 45.67464146470176 0.6442602267650442
7.399079403981815 47.04132200051394 0.5750716328471417
6.925032749292492 45.66542826853083 0.64321999350088
6.821240697050176 45.59262265226451 0.6356349889431623
6.797412773602282 45.49072055988795 0.6248849247928766
6.774655157749474 45.39460763429982 0.6147795123882693
6.7534707252241555 45.31035196540665 0.6059060715878496
6.733710969800158 45.239843180551425 0.5985177312386492
6.71342012189229 45.15143498771471 0.5892141352036252
6.694517787272155 45.06881546899203 0.5805497879981719
6.676567723398094 44.98814542726992 0.5720687943938672
6.582118848362493 44.61616619669881 0.6612220790559338
6.56742789488349 44.55119317292214 0.6521323829704825
6.5465610282328575 44.45762735415342 0.6390309943116743
6.521150332213219 44.362041296069044 0.6257072188891859
6.497004110633182 44.25934773678792 0.6113889916927998
6.474227687043106 44.16935857264244 0.5988820759110998
6.457656838619857 44.1030225430864 0.5896691006058215
6.447113369416135 44.05739031258962 0.5833445228486548
6.431994111597849 43.99586341399098 0.5748186818166104
6.405123842531903 43.879292051767024 0.6615877972421493
6.391934309467349 43.807051664817706 0.6489890447996122
6.380215685342357 43.3394887268951 0.6508699468062116
6.298421706790471 43.230453698379705 0.6296747808407215
6.2395786855800885 43.19884483429476 0.6248408285246904
6.213272658906536 43.07776080870126 0.6127222457287539
6.189580427052823 42.98930931687615 0.6226023331124042
6.164385154992849 42.89563560450165 0.6239670278795646
6.135819368568168 42.79219950446544 0.6103251906648617
6.108598797401295 42.69041596442142 0.5870562651458925
6.0939602764596215 42.63162505925233 0.5736740749031111
6.388360781789032 43.33193379540724 0.6491025438991463
6.360562841425152 43.22387655396316 0.6266153698317122
4.820219873088406 39.113627955148594 0.6051830383381107
5.321273163894308 40.01153134258136 0.5955401976789969
5.35472476922806 40.06263625893318 0.5783842926525489
5.353550229342539 39.9779708906771 0.5955182891986583
5.291557049292317 39.866705279992615 0.6310107038680703
8.60032196234848 46.824097720928194 0.5722501832134619
8.541920903856667 45.51425124485026 0.6609268927655636
8.51855458571234 45.422063996929054 0.6512290086501779
8.492827959962165 45.32865598269973 0.6413579567116467
8.470978795445943 45.22567994410132 0.6307249826825533
8.438850381567926 45.103237301776346 0.6178482387501137
8.418707404100628 45.02676031424498 0.6098299920435892
8.394466189349252 44.9256794431181 0.5993166806256033
8.377596049187316 44.84081015647269 0.5906475719922426
8.344875451568772 44.72699010812808 0.5786238659869952
8.059963143506783 43.5552654502154 0.6181517815277511
8.028324243211076 43.4559521687541 0.6551042836771503
8.520736402785362 44.55476164893501 0.5710311631376856
8.01320586005788 43.37773738259257 0.6422356318710435
7.983907423409699 43.26536331446622 0.623120923522098
7.961669691457699 43.16721054654098 0.6068416714722688
7.934048199365879 43.06618447893997 0.5897179676296816
7.911171338628721 42.98316478632164 0.630873588963447
7.8854371433550945 42.880140234573474 0.6438209134053106
7.861022223025884 42.783729107172654 0.6247002152364847
7.839713210815479 42.68460754078548 0.6057246758080282
7.807376833323504 42.5878959542554 0.662053217339381
8.57896246281854 44.52799758156772 0.5715638161271579
7.813621254910551 42.57263272099771 0.6010581056479412
7.789807300163916 42.49076271241394 0.6264552239792578
7.75964349835177 42.38236913536232 0.6166257043979206
7.735198814841715 42.28827635679494 0.595884470227205
7.714387217299772 42.20445204164247 0.5778738203648699
7.058448233562217 39.630750436617305 0.5758387656065552
7.041159116824095 39.55804943538862 0.5937813985355302
7.01538065983495 39.464826941318115 0.616920621312913
6.99690192880733 39.36005837380775 0.6114515896103552
6.972900537758455 39.282747163213976 0.622991975899672
6.968146937444863 39.254842813360945 0.6024715330882625
4.2829810029796 29.27695965269674 0.5902510670756669
4.396297752887614 29.30136196241216 0.5877328887700932
4.465197460692172 29.33296021657576 0.585634104556519
11.105458700799034 42.475167221601936 0.6691013715385297
9.75966991551142 56.76590334380752 0.6988452261069267
9.809523589623957 56.73699428724827 0.6978203526272413
7.900037444253389 49.65387060278175 0.7590618014109494
7.9598145764235 49.64045730027138 0.7582738080075356
7.110097421690917 46.80502429024649 0.7637916241504137
10.96406361849164 56.494680760443096 0.6905339898609243
11.014127970657253 56.46544630751286 0.6897210049128055
11.061261348848717 56.32842473591126 0.6851967958637257
6.676385053884453 44.830300559437134 0.6910983060604282
6.612793957266632 44.745884554612246 0.6794052759917557
