ply
format ascii 1.0
element vertex 835
property float x
property float y
property float z
end_header
28.381205515661055 59.21113865357639 0.4054702267558648
28.509615450825088 59.236130987894796 0.43441563303928576
28.562096022111483 59.24719325195987 0.45336266430901784
28.698564876984772 59.253400103205095 0.4795078975130642
21.08277290711331 60.92104260712658 0.5892794912003143
21.164918260972254 60.87093703806604 0.559105505072399
28.461228750449642 59.065782756360534 0.49986181283402276
28.528343186950497 59.07306521532344 0.5421207088494651
21.282599620545252 60.80077497158763 0.6625283568983386
21.32212971763966 60.774677746050564 0.6633124905117648
28.626561417452706 59.23615147252202 0.5214453900276641
28.658103748486162 59.24208910882622 0.5256284059190344
21.069932976473144 60.92350920043279 0.6406760928376817
21.144367644421823 60.874743048836855 0.6425994059530116
28.728232256322055 59.268153914499436 0.49811361193770887
29.154349093542773 56.475051593632784 0.6422514755998578
29.244100880707208 56.4642320247459 0.6372744825661008
29.321780917869845 56.45218854775374 0.6298496466020344
29.391600802450903 56.41992657470002 0.6403514024610518
29.48320215976174 56.39541249159917 0.6336929257380268
28.553197033896904 59.07816128919497 0.604661446657462
28.587174120893867 59.08511139717565 0.6118487587282876
28.672771928958547 59.115446028148305 0.6245077328342596
21.248714833587204 60.80673656825948 0.7225605743046482
28.66561229442965 59.244207007127315 0.6481048545014126
21.071213646589317 60.92357238765666 0.8023337981632621
21.15283844388143 60.87389750051861 0.7677532278055514
28.73168738252616 59.265820573356436 0.6133199961537737
28.780275715153312 59.2713652013732 0.6214527335454407
29.16898401069981 56.461277614023786 0.7157102632620125
29.223879043637456 56.4321967844653 0.7219224107679688
29.2949131010141 56.42367209231522 0.6671537540233796
20.751098670103858 60.58856725715275 0.8836570876122918
21.018822401903464 60.53881006748733 0.8409987734237424
20.768795975424094 60.669656160103 0.8841864589364002
20.958025228049557 60.67573606496098 0.8611672132339291
21.013510140304852 60.61706204662033 0.8462688149309175
20.922711506870282 60.72424242042691 0.8712400743444784
28.60123572537141 59.09399077341397 0.7311119812495744
28.703527877426332 59.11676061775043 0.7202012096463547
20.809556405905035 60.877741290399754 0.9034143093298181
20.855900788467697 60.86438845642948 0.8928571180486345
28.65896383425544 59.25908543089607 0.6896961682889982
20.919051484521 60.94541268948016 0.8974728988978348
20.996833997998756 60.94186468039089 0.8952896186686709
28.73066748295058 59.26748528882391 0.7125286107259697
28.781999132363676 59.27545842899456 0.7542369157889877
20.853348778175363 61.05708084258689 0.886715759240945
20.857814313846454 61.056222928426976 0.8688408870271004
29.135109716044028 56.46922159200759 0.8132138265947285
29.213682073503673 56.42418574645146 0.7990433569308488
29.305023386896714 56.392183569245 0.840185388398721
28.493014117446737 59.068091233725745 0.8522126614328642
28.544528154747557 59.057769572259446 0.8517005272464588
28.5927305629801 59.09167189327223 0.8144689155334777
20.916641154886218 60.97952443559453 0.9355432653826512
20.993822785619685 60.9620660448861 0.965548245998094
21.04165307256799 60.929251306634605 0.9206596916885821
28.72984557215789 59.26604982370679 0.823214280996864
28.788825881627428 59.28273934051625 0.8133780179647013
29.070506837448715 56.50446006890189 0.8637366301524733
29.161198172403584 56.447585598060506 0.8621829441641919
29.458419910738428 56.37543691292806 0.9377074584767283
29.055035232102917 56.531816160098025 0.9545538613280804
30.377068263216273 58.576401734170275 0.8914437535634144
30.47527107265544 58.5614082122499 0.9051581628583064
30.485840257550315 58.57520895487127 0.9425863764115088
28.630206204816048 59.24018823464341 0.9487839437352332
28.65336713134465 59.23557612179272 0.9328768657893326
28.71551505844501 59.26149413449067 0.9375147829713125
28.815116669234484 59.28436632432639 0.9191685245172031
20.813691267758365 61.04592433916764 1.0295976495842336
20.876781082515556 61.01489703464536 1.029152637347558
29.374596670447033 56.39177718875081 0.9617069184949016
29.453253543060175 56.354596112419095 0.9658963771524345
29.51416757294966 56.34964679483674 0.9784629701973235
29.591930640135907 56.31956565312095 0.9577024654557742
29.0413390695337 56.54636752468693 0.9853711041146416
28.74505400178904 59.270937411866356 1.0426722871857563
28.749564499563643 59.27144898316874 1.1436967918742935
28.795365965897716 59.27681869684069 1.1300477999595029
28.78645928914076 59.27158217082891 1.1949053110829624
28.879788680069257 59.31005644606453 1.250671768763533
29.05173291591852 59.35092366866376 1.3267895156196559
29.115885829228898 59.36441511884109 1.361642115473024
30.03257149228912 58.77031006745952 1.4579284162737343
29.359504968846522 59.41712528989156 1.4885688163407798
29.400675153445132 59.42451578266171 1.5155936429929506
29.697438079904995 56.23709724342929 1.5993540449274286
30.24283098644976 56.23376601584686 1.5535158658889046
22.688005859184692 60.495215098665085 -0.3553615992426857
22.715031000706915 60.49377328684229 -0.3523570561745893
22.822708904848017 60.494432503009286 -0.3411766324406172
22.023236228271003 58.30617358006761 -0.3485470594424769
22.09133198987765 58.2876393745991 -0.33923609530453186
22.957799771511166 59.899758155269254 -0.3572124153898544
22.898385495680333 59.87169977100016 -0.3631971899889631
23.37930509977435 60.397251289788876 -0.3632324880075626
23.452577356293133 60.37153052365686 -0.35126745069658744
22.58587001845297 58.15788551997617 -0.36085849226009437
23.570947511056744 60.36980543302472 -0.3381153298278469
23.514344951897076 60.368953510309034 -0.3440629137824523
22.68141552040953 58.138278376933236 -0.34491877581049146
22.672713743097226 58.136366875390316 -0.34650426447741656
23.834836491099075 60.21422498477446 -0.3597003049199441
23.913571934117712 60.1976082748153 -0.34743269019502276
23.970218405248453 60.18570039563874 -0.33882460182414154
23.14082974667682 57.80354914399285 -0.3603163110917965
23.21298866458828 57.7866575516028 -0.34789182991233
24.251439483492113 60.10766752518175 -0.35764438594453807
24.22398237538129 60.110095185965186 -0.3611002719868721
23.265514870575604 57.774127967972284 -0.3390016868545286
24.309776317832533 60.09289772227763 -0.3483115072768094
24.27150073532946 60.09385357201722 -0.35229117954672945
24.367110822232934 60.078358057006014 -0.339407979972521
23.530929560042207 57.70865852651935 -0.3603456148839567
23.51914244809317 57.70469164301227 -0.36340618896965643
23.615191909521993 57.69801764688088 -0.3442132707593295
26.154661534719793 59.600561909544716 -0.3458583470236834
26.23190185977582 59.5764119342392 -0.35900735179118876
26.464007198989975 59.524075550364394 -0.3421091978311216
26.539280701285882 59.50964795777431 -0.3564932249682436
25.823855765632345 57.328897071361745 -0.3481666344505139
26.677768555128623 59.29626971477167 -0.3650073738278509
26.66163928348329 59.24598143743936 -0.35862608832955734
26.633147788420434 59.13889600495088 -0.345509485539688
25.895423539136857 57.319239858819536 -0.3622852922365418
26.670291677861595 58.94917280016109 -0.3439802667335258
26.713811343048686 58.93596052092827 -0.35402151633011536
26.242153731070108 57.68645013825053 -0.36201421651839116
26.21670114471781 57.630792751399625 -0.36530796500537116
26.1621799294857 57.35980410005285 -0.3394152222023829
26.12654027578728 57.293529468154865 -0.34490935309436366
26.085266771374734 57.25961299880601 -0.3441068368638958
28.09275074942539 59.11895360334814 -0.35452953082354033
28.178769042037768 59.081691429839324 -0.3657433244271637
29.093788709937552 58.85960247905155 -0.344050758875921
29.183808664718114 58.83611974974735 -0.3532870951385576
29.268405734203 58.817727288053646 -0.3619934257922723
28.491534194919378 56.41774369466994 -0.34281211069000883
28.592438973332285 56.42240559632871 -0.35170274236974475
28.55419492421202 56.41194905691611 -0.34875231255514705
28.731968069716274 56.60561129945716 -0.3560908279016408
28.692250713037712 56.53445124395369 -0.3556025521717877
28.659340187534497 56.44283723799258 -0.35682300960774066
31.220262440500843 58.34583066356803 -0.3453603097260457
31.30928787293101 58.298036320732706 -0.351653126292033
31.293760128683815 58.22230633308262 -0.35101201027371337
31.25747046885617 58.12589362117368 -0.34914066002805283
31.228484341501858 58.030403574467 -0.3478322203122654
31.19941342459113 57.9357823949088 -0.34659244201163475
31.174979386362203 57.86202803856904 -0.3455588965157002
31.246283070657864 57.82069740645516 -0.35076834867371387
30.865705544944976 56.560105238402045 -0.3438787256039145
30.826090780120595 56.469326309240095 -0.3431613329757478
30.80163115383707 56.37462414454923 -0.34358641600610224
37.43693482737732 56.27647298401008 -0.34183359594176704
37.35584746180929 56.203418336723864 -0.3395845833305463
37.59043436175878 56.56305223891855 -0.34535837099522626
37.55126686551297 56.34577118787557 -0.3452067266345667
37.47522035118674 56.13707979382739 -0.34392308558991935
37.458373283010005 56.073391721881286 -0.34372686934001045
37.44134174016033 55.98608153183439 -0.34370897816984664
37.40920247555782 55.87932852784284 -0.3433675642966513
37.41794824269098 55.8774567965492 -0.34365556409006276
14.928836142832942 62.200447080734754 -0.3184382676969113
14.906326188458594 62.13073982841429 -0.3180782295300925
15.655895997091498 61.977858248667296 -0.29038137967702976
15.835762336675138 62.20568811344245 -0.28828613783352536
15.778514735038195 61.97014279982938 -0.286133220153192
15.976020771703245 62.11444442783657 -0.28202144799747125
15.967575449949882 62.0459931557244 -0.28111380032727606
15.927493457699295 61.96978600708537 -0.2811469406352266
16.08653353982826 62.14427849222621 -0.27890102980092296
16.16674164045333 62.183165603796525 -0.2769686342185337
16.707334516303042 62.031890658354854 -0.2564589070655031
20.392601140184997 60.5675007530512 -0.284188479390314
20.496653931775576 60.54198821019237 -0.2766146335045219
20.81360423447968 60.930985531630924 -0.27129242482642996
20.776970680188743 60.83791994418338 -0.2697589230293803
20.765053765594068 60.788124755719906 -0.26852174781729743
20.613339710424274 60.51020689726507 -0.2680370429040253
20.891511648905478 60.95393290834047 -0.2675485327695542
20.795589309792454 60.84625789055869 -0.26894161806757694
20.759470945664106 60.73389341158338 -0.26679204532033607
20.737800734934446 60.64422525629177 -0.26480647804181656
20.71210321851878 60.54814548583679 -0.2630066438699035
20.669361764912153 60.50398593643 -0.2642154264865157
21.00213072207129 60.92814891181085 -0.25982805940349796
21.10874321830449 60.90296270541967 -0.2523924973725507
21.192844977354262 60.88053501823701 -0.24642533565006722
22.15681229120539 60.63016403246978 -0.3024899028754446
22.225997070693086 60.61062011336758 -0.2953280701984855
22.907286794596857 60.534476129701794 -0.33674108925966145
22.830886879476996 60.497297831832206 -0.2550667625810131
22.826178678311287 60.370210383494864 -0.32827725266996843
22.032927353380693 58.30240802471495 -0.24133857576549617
22.9729686387829 60.52048031222295 -0.3287109385050149
22.91198614394446 60.50345136822893 -0.3329867344804832
22.138242941375573 58.278022060733406 -0.33278712013143696
23.051935614825457 60.49636654938146 -0.31834591874294293
22.978657743616385 60.2070282185197 -0.295917862792798
22.946145788390602 60.118876367104995 -0.29109370574129817
22.876907143503594 59.886053519702415 -0.2788399419293033
22.20467237698257 58.25621280959738 -0.3238471293067812
23.16614080560162 60.44995577553038 -0.3022347568801665
22.992670679016495 60.14022942474549 -0.28796016833734267
22.996066785058 59.96209548704437 -0.27127683362806876
22.96947730350358 59.89392210081913 -0.26854454504502173
22.307826620602377 58.23111739983387 -0.309852663645401
23.276814164309286 60.4215870257148 -0.2886177275700631
22.413776777362685 58.204687249123126 -0.2955904770042434
23.372895156525093 60.394166357619035 -0.27667773112520755
22.51393982943032 58.18071448814213 -0.282172749569722
23.448839950093042 60.38451977105367 -0.2687770026684453
22.60420404353094 58.157331199603 -0.27022701107076713
23.53572699733081 60.383574753266025 -0.2611743019661066
23.54200067010906 60.35448130558178 -0.29782734760188706
22.714297027060237 58.13036209531194 -0.2723956772551456
22.656017962869292 58.14153950049621 -0.26348930206174404
23.624179959198322 60.32116464882819 -0.27577101087348055
22.786247508413297 58.11148599556035 -0.28717618828420616
23.740285906095483 60.23640134494289 -0.3002790076948935
22.916283941268777 58.094839345212584 -0.306039846734463
23.81501258402752 60.22000611986765 -0.2902477667003611
22.953778561688253 58.058288411351214 -0.30140046675937476
22.932724974097955 57.98635278710473 -0.30896714438075146
22.923429755267595 57.88103089988536 -0.30711894854493166
23.916711809448955 60.19546854455858 -0.276639307058528
23.013860778870857 57.82951109895957 -0.3055432193249424
24.02225071713011 60.16932507025286 -0.29464467140616357
23.10468293399204 57.80753096257713 -0.2922888021537153
24.114271187368676 60.14589013120086 -0.2822821996233319
23.21073699228336 57.781950902569385 -0.2771835609978701
24.220581814278244 60.11952205949451 -0.3007150521979474
24.198024614796676 60.12054866817653 -0.2737587222316259
23.306703564262445 57.751208644214614 -0.2934024588952089
24.301389046974645 60.094420761949806 -0.2886567910965012
23.400371720778455 57.72663467585497 -0.2852232700422295
24.404449731211177 60.06206755824196 -0.29851705108655024
23.515267687501126 57.71613335947186 -0.2987024849206357
23.48789827472065 57.71420148725511 -0.2799413359731245
24.496309713220718 60.03807831746493 -0.2917922133382756
23.611063667498755 57.69861085456073 -0.28369261007884833
24.592724844840614 60.01219682535799 -0.27975541399677656
23.70179667848773 57.666683415209974 -0.29888796650744215
24.69121826147806 59.98441087092543 -0.26699549200346634
23.796025312438076 57.63678466495401 -0.29008293620802994
24.784164195940665 59.968754867348885 -0.2818732834879765
23.89199349963629 57.60970554593345 -0.2768621474746793
24.884008237141167 59.9384526698154 -0.2768071198274791
23.986381584635932 57.5772824978522 -0.26855039147459264
24.97830627435555 59.90812613742434 -0.2688529978801865
24.090120927046428 57.54321468527563 -0.26599143986222173
25.111321861598594 59.892449057175 -0.2677669925612217
25.063792566528605 59.885757673497366 -0.26449255293081375
24.180146247644597 57.547512616156666 -0.269029125763561
25.183257146108552 59.863899368545255 -0.2634520968187575
25.149463982348607 59.86689113428647 -0.2625222610015403
25.276556310010132 59.82967192130399 -0.2603063864811155
25.25350563027034 59.82278906932897 -0.2567844725202239
25.371399103441277 59.80340964629033 -0.2614050134393697
25.46905593311129 59.77900550237143 -0.2653706275545591
25.565698687169412 59.75328698431468 -0.27100755976464047
25.663978043123898 59.72911248123819 -0.27929975481132363
25.765806019478415 59.70079357337457 -0.2678599454276739
25.857854028281984 59.6771150034259 -0.27372432528007035
25.95388006276699 59.651107236134386 -0.2879383655135593
26.06684848345267 59.6290939625368 -0.30184674043181664
26.045422923626067 59.62652783752587 -0.30024266221341295
25.26967685016892 57.476417401459045 -0.24140567383597525
26.162428338915884 59.60120578910419 -0.2796015736428205
26.108299862950037 59.60790593135235 -0.3186216335436965
25.333741039022964 57.46144103246576 -0.25098461276618905
26.249913125173986 59.576231890598926 -0.27631496362010344
25.42808901623663 57.43378074226154 -0.2677502108578549
26.345032558911353 59.55264149562304 -0.29242371421068786
25.530657441613577 57.4065727321192 -0.2722777719183882
26.43144633908198 59.531884696939635 -0.2939174067234265
25.621580753770843 57.38075522498 -0.2794434440371773
26.54207360928103 59.51063757665831 -0.2924759157327622
25.721904810053857 57.34891848602044 -0.30121749686898286
26.64948462085903 59.48833482972301 -0.28027246538918427
25.82257516386104 57.328499818742834 -0.2841588774066636
26.7040546076556 59.434490042474614 -0.2834811010551729
26.683268713598792 59.33656964319199 -0.2893402325082987
26.658551181811674 59.24172012116267 -0.29240008402460493
26.631286138062386 59.144069117098006 -0.2816815002136268
26.60479052404651 59.043533945886814 -0.2999140816001915
26.59091179336221 58.978468266927365 -0.29848142976973896
25.91276482676329 57.30951105725828 -0.27578084051648294
26.64683253726933 58.95799407137705 -0.28982968944992693
26.01102086201247 57.28215158399212 -0.2972342196229462
26.711556988360933 58.93776723449735 -0.28881998640508266
26.253821240968037 57.686407396768004 -0.27647464266578486
26.21412941751559 57.590051254436325 -0.2826792431512957
26.20217895861018 57.48595129291512 -0.2963709026803286
26.172706102443687 57.39693637305927 -0.29927031328221454
26.12947621722216 57.291727275177266 -0.2815662965319521
26.078070494926486 57.26372159574062 -0.2784918945306535
26.38977555320399 57.69089327387092 -0.3024655942852748
26.349381717063167 57.696013029184826 -0.29412524001213797
28.062532542150787 59.17341881241037 -0.24039523646014685
28.095799130061593 59.12910700365045 -0.24325123383117114
28.209201966290053 59.07304628160276 -0.2542623652004345
28.311804568906066 59.052421486708894 -0.2645925593045342
28.40379457018399 59.0281787677196 -0.2738391414716564
28.50423630271451 59.00285008100867 -0.2839728756961355
28.612418818583933 58.9765404369932 -0.2949272527475872
28.57153777224955 58.984903220421536 -0.2907809194435336
28.684783184585932 58.95841688904536 -0.3022796055581832
28.78912360901309 58.934684937881954 -0.3129052010778008
28.87463463649336 58.91413091359571 -0.32162845157820813
28.97805931285648 58.88657218548039 -0.33219087099131916
28.299201555621313 56.489510952782965 -0.3220015114747284
28.377111474880177 56.456267606059484 -0.3306296484358245
28.44177672805327 56.432039596592375 -0.3376400993754871
29.754408293079663 58.69812155922531 -0.24424824275865456
29.84059105073476 58.6747059126685 -0.25017103175506783
29.955601443928405 58.65019016351499 -0.2580574404080724
30.07049971485459 58.62482502865327 -0.265943839940829
29.25960370938999 56.462453429482125 -0.24324777621091498
30.196194809272317 58.58951871830127 -0.27460628840187884
30.134350212992132 58.60783288096329 -0.2703524460193089
29.32103847151464 56.4514460306979 -0.24737503448294637
30.277869546485032 58.56967406573129 -0.2802458447957093
29.43612042427798 56.42317044422751 -0.2553281978958107
30.371494198806722 58.54980054295351 -0.2866779007017363
29.565633372672167 56.38834059633584 -0.2643633008686132
30.43508195374165 58.53043649016432 -0.2910893593780689
29.706077124652012 56.577033691972886 -0.2686286180821868
29.689705376536715 56.477145931664296 -0.26998115993716015
29.653697859797383 56.39835925195066 -0.26965333050423235
30.534553820252768 58.50972305288881 -0.29792838764401264
29.73379264257924 56.346749056396845 -0.27600836905599824
30.601971689160116 58.48878668566089 -0.30261379472143046
29.87063914055581 56.565380605706075 -0.27942396061043856
30.70926984273123 58.466850641037816 -0.30999689774708333
29.99386866499943 56.53427426792279 -0.2880284899244022
30.804478199096454 58.445033600709145 -0.3165865430392536
30.095317541165485 56.52400461009497 -0.2947754839241183
30.923559602517273 58.42103220902235 -0.3247879023593804
30.998597207817745 58.39699494921377 -0.33002071109113995
31.097532253378272 58.37200874083509 -0.3368602083592327
30.385820429469156 56.43871022530899 -0.31536792668160124
30.66049009879315 56.37348284529285 -0.33450220046182577
34.72618741538332 56.99474055613869 -0.24867282658618609
35.35069725345683 56.10551157367992 -0.2746382401423092
35.28446278396656 56.0452579695268 -0.27289944770368757
35.27408506274678 55.97135130458666 -0.27309757956531405
35.45328982970875 56.19527834166807 -0.2773609722060746
35.464401597751966 56.11673383222863 -0.2782571949650282
35.800549001385946 56.77821331754699 -0.2852447688954172
35.87100061104542 56.72753701211109 -0.28780942805398074
35.93323012978067 56.677309688658944 -0.2901609499475406
35.58405244326416 55.39489072104987 -0.2875151973307775
35.55284653242248 55.30488905196792 -0.28722693325650045
35.529709264146575 55.210880128322394 -0.28724053629245533
35.506503952072336 55.11950927964738 -0.28724410753369645
37.271974839189006 56.351818018466034 -0.336017616573414
37.22254420104881 56.27241511069856 -0.3348412454486034
22.151050845306216 60.63675362443542 -0.18009035549037647
22.79845776275001 60.501307039008495 -0.13868106807667963
22.915179572431818 60.543189609746435 -0.235731263091162
22.8494874660059 60.49838929976254 -0.21432150416859538
22.94275081654515 60.52760285429575 -0.232413897572414
22.113247925314546 58.2805943114245 -0.23312052830324423
23.065918043820083 60.48969572370413 -0.22028792882450993
22.94638472442683 60.13159158126865 -0.20131647329827315
22.214561187859807 58.25792816292648 -0.22273286082362526
23.161055545868344 60.455887939334225 -0.2106388879409817
23.0215244699977 60.19797848783232 -0.2001630094443073
22.999470362657043 60.14257600599904 -0.19776785371277023
22.963301096180253 59.88773144885289 -0.1832033324503798
22.308272470651612 58.231627722546484 -0.21326930541300276
23.246286245556156 60.43861662042852 -0.2032111805233494
23.03929922392287 59.95474699840621 -0.18108021134324193
23.00960406756355 59.91209267229645 -0.18075095318143744
22.405109678385593 58.20829588793326 -0.20348293728002076
23.362775386599836 60.38891965628187 -0.19091497728774887
22.502254460603986 58.183470414044585 -0.1937649949565428
23.425911266147903 60.38543458535978 -0.18643199644023908
22.600568392796397 58.16125294284995 -0.1839385638866445
23.547374738066033 60.37836099318471 -0.17807160970643782
23.52872948883078 60.35366006093457 -0.17693267715539035
22.691908826901273 58.136822297414106 -0.1749826121782163
23.63650428480477 60.31761665634038 -0.18586025724913463
22.788378408176666 58.112319429483684 -0.16558176277024872
23.72829086016049 60.24344894785965 -0.19111619191582818
22.92641989876943 58.101497826623145 -0.18945436076594535
23.811367521053604 60.21679464695746 -0.18251643018693858
22.96334798836867 58.05912499286216 -0.18903426462112338
22.946089894216122 57.98281929852964 -0.18821386963776615
22.934050313293298 57.88546104787665 -0.19577412298409452
23.901898317879922 60.19283696884344 -0.1786795495283871
23.022825281987494 57.832720519637874 -0.18990066915166987
24.005812205697133 60.16592351667163 -0.1973024317565266
23.101537679755808 57.7929841035271 -0.18501881450718954
24.106775902998553 60.135270489988336 -0.1864949110197328
23.197283267096385 57.771456581252195 -0.1815684198019347
24.247556201002517 60.10876344068315 -0.23491581549068155
24.206588304255597 60.10832997468123 -0.18885024491892283
23.30255088908214 57.74447381721291 -0.19747688833808216
24.30741801585587 60.0904149580473 -0.21521169927443018
24.292799406333536 60.08211040926428 -0.16832430709506843
23.795779747662674 58.75437194656449 -0.22703508638057462
23.40102674261606 57.719552071772284 -0.1871495453601703
24.400766930341177 60.05756951940338 -0.19359428422935474
24.368433991738073 60.05729993338092 -0.16099864982249013
23.927793229560404 58.85286954084669 -0.17648463467095252
23.925476672793298 58.78857651240443 -0.17626360577806321
23.874495880650638 58.74337440168433 -0.175859969400426
23.523313171569807 57.716357170595586 -0.19509054573647194
23.49967450520007 57.7064629291797 -0.2177145722084145
24.495388023858233 60.03264128820966 -0.17858678829715985
24.02550244917408 58.69630120952816 -0.1680636769806154
24.0203799793731 58.68824505028392 -0.1691580232269835
23.978872137938254 58.54552096459855 -0.16034034043693918
23.60932567275926 57.70105904068339 -0.19127370127015778
24.59412716563808 60.00745706911359 -0.17226344835435645
24.035390862691816 58.67511687209327 -0.16513970846138634
24.008285392787123 58.55247606075796 -0.1624205452150938
23.70217223476922 57.668721348189536 -0.18485284744065983
23.72554921009469 57.62708268635811 -0.2151646609728568
24.683719672443086 59.982148348952315 -0.17106825333818362
23.791741893669965 57.62732704866396 -0.17824721647257896
24.791273923485484 59.9673509474091 -0.20538978662638707
23.886647689225704 57.599138421155814 -0.16945886676396446
24.88828218188198 59.93568993200582 -0.20234112592905656
23.981610630523953 57.56189928209069 -0.19333887077873244
24.983381819053054 59.90919127288248 -0.19786625352530068
24.079395062673733 57.541803710567685 -0.20699167254649314
25.11592602106494 59.887026466417 -0.1788750046176967
25.073212906544075 59.88248577721171 -0.19581059953550753
24.17768733789608 57.54558477705233 -0.19480489984288563
25.17869065062869 59.86632907525529 -0.18957833577347827
25.17751920741751 59.85378673451832 -0.20556429851792704
24.386882611917333 57.72512191149423 -0.18103121414641238
24.34224730198561 57.70784249388012 -0.2108709781643265
25.274461210959323 59.832473581614 -0.18946103268550146
25.26007444873187 59.82510283029608 -0.21188906729069168
24.446963068232982 57.69484032216681 -0.1772181871915742
24.465779758721915 57.659456034011896 -0.19191025694103092
25.37020925474869 59.8049564774667 -0.19308236348741048
24.553394787187315 57.66095318875634 -0.17715786248385235
25.467641018818856 59.77991985075483 -0.1953614001161049
24.64858636846323 57.63196747971512 -0.17651484267988177
25.56467355285359 59.75504609160459 -0.2013919550078932
24.746533998298098 57.607009359517434 -0.1767830584302883
25.666132796302772 59.728018321710834 -0.2017851012779266
24.844894949839023 57.58203232761144 -0.18094369971518062
25.754746144324287 59.699662861206505 -0.17267443144766106
24.943359813333405 57.55555167002788 -0.18511768976463394
25.854188847486245 59.670796378393604 -0.1738476822915502
25.04234699611517 57.530573233357615 -0.19069691961081525
25.951198175202673 59.64664804248884 -0.18396378218097728
25.18612858232705 57.5010126268775 -0.14550538468247334
25.1359172032184 57.504988433090176 -0.1835958527827747
26.083521088936752 59.625288889032504 -0.22633480443890439
26.042929112228393 59.622475776726525 -0.18916369049938966
25.24207999407717 57.48510107259393 -0.18629880394508383
25.21384083093676 57.482992470354844 -0.19633860850279217
26.15040094143657 59.6012737196886 -0.22558069268034364
26.140204346211767 59.59111315324425 -0.18045401183917065
25.33128326164143 57.458371393302905 -0.18288321270743751
25.301894124453558 57.45247418523057 -0.20564551335286382
26.251176614414177 59.56550130270881 -0.1903309776153009
26.210897054621686 59.57078677641698 -0.18508123741358729
25.42464040498183 57.431773718327726 -0.19912093916134854
26.339962880120257 59.54288369283074 -0.17126964655686988
25.52025889154029 57.40926614635638 -0.18757051525328805
26.438384860777376 59.51972453653031 -0.1872544172605588
25.611921313862478 57.378709588763385 -0.18703907794532573
26.538797537085085 59.50170111414425 -0.1945583655396361
25.726643855409367 57.34737422937614 -0.20817845226178094
26.636671968703435 59.48878435685741 -0.18191574037425343
25.811067694547777 57.33564269360147 -0.20247881322624375
26.700608654795197 59.44006970719889 -0.18129942466944896
26.6694690260339 59.32691767910193 -0.1966857602414331
26.649133500589794 59.245512634824905 -0.1952831447090887
26.622113307160127 59.14674306399664 -0.18534871492741412
26.597085525224742 59.04693535881316 -0.17999788414453322
26.58798088914464 58.97964177279316 -0.17293330193521225
25.964354352799614 57.31044045648241 -0.13862435393576283
25.915076482218012 57.316674914935795 -0.1857692455310672
26.613295593959727 58.963186851314845 -0.20890970897117694
26.233889012190286 57.718580154063766 -0.185396841401549
26.0437087193648 57.284896959997155 -0.18867795028385295
26.003402598576603 57.2908831035575 -0.17174450943325317
26.320919195684937 57.711473796358604 -0.1411308489443335
26.248094789742346 57.691425257133936 -0.19009249414198573
26.209367693923035 57.58987252460642 -0.18571918092811288
26.19398205885672 57.49153022758136 -0.17369525020072302
26.168888324774553 57.39023408633976 -0.18296472575990544
26.11755876635883 57.29659249009009 -0.1852320833672042
26.377592208128704 57.69412023158011 -0.17888275943699272
26.3398719837476 57.69878882163514 -0.20274750508715905
28.224308078612452 59.073636032989185 -0.14057794660931008
28.292826406918348 59.05415455799502 -0.145130543357397
28.39183661734364 59.03115137496926 -0.1517521404091102
28.491772411116674 59.006059120851056 -0.15844597191239346
28.570518294702996 58.98316833437303 -0.16372551331619356
28.684082703743286 58.956640087237865 -0.1713801770119731
28.781759907569555 58.9323371885067 -0.17797220870646982
28.86552311821538 58.91162747989403 -0.1836389336049085
28.978187766787546 58.88484394018011 -0.1912750038030335
29.07090897096913 58.86342146313906 -0.19757687381027933
29.173502059447618 58.84094235867616 -0.2045489469034459
29.28567919158381 58.80905627794282 -0.21219264615642325
28.376026068009217 56.43985354664942 -0.1896930298734461
29.376365853138307 58.790488154690244 -0.21838341021751162
28.458271346490594 56.40843722609675 -0.19559102500309472
29.453034039701357 58.770224389445694 -0.22361646358210416
28.609744225066308 56.411405565259265 -0.2046289931829663
28.57109757564759 56.409345780925555 -0.20235614921524372
29.561746848919075 58.74231934985297 -0.23105273674274715
28.73408662598153 56.60389843503008 -0.20673208300122997
28.684893250414426 56.53804122067424 -0.20553784229465125
28.659114729799715 56.44239656744739 -0.20671587097997962
29.662132659403028 58.72101154230133 -0.23791656269057962
28.945392956629803 56.54256590865965 -0.22151426489982892
29.0385481873507 56.52065395826769 -0.22789816246369837
29.143463706553927 56.49359946416067 -0.23516539485003707
33.89114184342463 57.32370687770852 -0.21947112986415054
33.96950253718146 57.393028510098276 -0.22170559225129444
33.91300391125635 57.320686523076375 -0.2201837520294412
33.89765017299278 57.22729576911193 -0.2201587133654501
20.380962396084943 60.57492061792928 -0.10917876082245176
20.514602342748258 60.536738854671306 -0.10410306053352421
20.814358950041896 60.93338614115031 -0.10344788760626844
20.784427465898503 60.854862862410265 -0.10247013104192579
20.75157277932489 60.76876574253104 -0.10149070327678904
20.732233078991193 60.69436547116772 -0.10043284989481724
20.613118813257916 60.512699111500275 -0.10045549010049175
20.92011474222272 60.949981800688896 -0.1007096496907752
20.861512565420888 60.96432984132836 -0.10279486064759491
20.794052363582367 60.831585657097634 -0.10163495461882643
20.750426255642047 60.71314858944602 -0.10028192712905741
20.727320831425494 60.64269935450018 -0.09947797354348126
20.715068723397657 60.54920248623669 -0.09791442256653107
20.702201470781148 60.49202457625492 -0.09716888225148959
21.001606051092992 60.93123566233801 -0.0978305044362624
21.098349172028335 60.902704809367116 -0.09426184658281375
21.164593676822673 60.89097531432175 -0.09203072636202257
22.723787304363125 60.48681482711454 -0.038075345406440954
22.906420881212444 60.53341051808226 -0.13520111100512347
22.839202009552157 60.49621761449386 -0.13637365444174204
22.052848458579433 58.299748127591975 -0.13483294268282908
22.962807903677515 60.54160342757643 -0.13299144974946536
22.106771064273953 58.28032930159046 -0.1312032598839619
23.050420947615372 60.50503741257214 -0.12669170861911083
22.937891395236377 60.12866424529318 -0.11138045613930078
22.19487282361629 58.25584885839466 -0.12522418958696055
23.150521927929876 60.47210816952347 -0.12009561899954499
23.024689625726715 60.197472542870905 -0.11038410591200727
22.99630666804358 60.135555048435435 -0.10858690081766008
22.96152377778884 59.88714579693134 -0.09837709492788066
22.308615999846136 58.22731734766815 -0.11751874203564987
23.273291449404553 60.43635224848309 -0.11238872750374414
23.03497915511225 59.95938949943463 -0.09758864848650646
23.01741906171266 59.911017252948355 -0.09626136787223707
22.41946725733042 58.20167745482915 -0.11003286607907015
23.414937403359346 60.45398038205954 -0.10752021768601819
23.363719638844636 60.4153674403402 -0.10715711162686076
22.516633473558365 58.17742692026481 -0.10355169406302206
23.45679729449737 60.39704013408535 -0.10208403214654083
22.611092460405647 58.15056545012448 -0.09736448821153351
23.562159121204257 60.34558112750104 -0.09445344264587222
22.719075473172538 58.126171816370075 -0.09024935720885652
22.669092139153484 58.136409659451324 -0.09355002678567743
23.646057309661888 60.3148636797796 -0.08911905826054588
22.78726878846215 58.10820323300322 -0.08585100770088752
23.74457010915289 60.232264226034665 -0.0797835337681723
22.917795649183248 58.09585283261629 -0.07704453749191369
23.82305845440112 60.21640666278328 -0.07584247491149186
22.95662862922895 58.05578552925668 -0.07530145474151383
22.94510780261717 57.98276016286808 -0.07798890962199082
22.925303686487812 57.880944718828054 -0.08227376434892124
23.926772207871966 60.18848196926898 -0.0894940772304184
23.021451809435085 57.828785140891256 -0.07756522916699087
24.014870287937345 60.16525939365563 -0.09690269389617348
23.103627675434677 57.78766550800096 -0.07364443212064896
24.108963331983905 60.138107862976206 -0.09394606187824339
23.216981574741325 57.764148165805274 -0.09193137141944717
24.24159123678942 60.10976500700561 -0.05558856037666835
24.201908890858448 60.11424547217111 -0.08951314324581951
23.30357559093763 57.74292770921746 -0.09442904153242943
24.306912356093374 60.09089815519235 -0.06621654153569874
24.2918460135133 60.08029728913292 -0.10991580588112791
23.872358318638554 58.88026006100765 -0.12890915943078732
23.400689467388247 57.721209134613275 -0.09125711701363445
24.40262335056929 60.05958781971998 -0.07276279792775159
24.366285543962917 60.05823405381592 -0.10486776489400979
23.944753625591066 58.850872460756996 -0.08782867634983914
23.945548214132543 58.77591295550519 -0.09806946708021093
23.894310540084007 58.728534601204124 -0.09845427897303916
23.521979807817306 57.71371949186239 -0.07677771440113129
23.475760168543893 57.70982844954683 -0.09077336371266276
24.494637458497074 60.03409278688837 -0.07258398015742881
23.986312255223442 58.83122772609482 -0.06971363203190249
23.983010855656715 58.76834975345506 -0.08122972467626907
24.008959061513956 58.69425049080194 -0.09184006476766002
23.967058213494933 58.528384069422636 -0.09413102525875049
23.913270997549557 58.517005570256444 -0.11629751711462213
23.61185291659809 57.702117414918554 -0.07510925920719792
24.59457448381095 60.00978440105565 -0.06769019574634831
24.00368434074666 58.5439728563894 -0.09068587415500987
23.704274445529066 57.668211471086366 -0.07150221961181213
23.73079994421276 57.62720002174303 -0.09981823712325516
24.691621699476713 59.97666891410686 -0.08512478920830961
23.79613585175788 57.628756913086214 -0.06610775509638947
24.788358106345857 59.96108599564812 -0.09459739191784547
23.887068144059416 57.60303756125584 -0.08634543524823074
24.883656510568102 59.93581958504974 -0.10649828884001344
23.965520547305587 57.57631330120818 -0.08604883949318552
24.980040873351587 59.905198393475644 -0.10299019596378267
24.10504967021928 57.544688125760416 -0.10591649113320556
25.069785102430075 59.875660384874344 -0.09824137121567852
24.197516018143453 57.557387510780174 -0.11972593282062644
24.180344022503814 57.55086044825148 -0.09659718618635801
25.191953460325816 59.861239123570876 -0.07957938994935006
25.203781968713432 59.84194476845011 -0.07764843658345794
24.386035609841997 57.720185411669306 -0.08319448352460115
24.34335070784171 57.69729683718731 -0.09026025625200754
24.27999389107577 57.62043383172975 -0.10506962725568997
25.285970284928354 59.82883311493295 -0.1052210648245473
25.25278667321861 59.822691935418874 -0.07719615408225391
24.44549046853657 57.696149186146485 -0.0778753625820574
24.46394192641552 57.6596902645592 -0.09684370402970086
25.371045440991022 59.80414120210527 -0.10275748186074994
24.552575795339866 57.65742735332911 -0.08250282455382853
25.470349165010866 59.77765463711806 -0.08743860876881283
24.648449380880393 57.62945292894862 -0.08240912080242987
25.564542804902747 59.75295442845579 -0.08600332420682488
24.745686766268012 57.60420655046866 -0.08305093956182066
25.658574565222064 59.72651420709463 -0.08845307182105774
24.842787387543773 57.57966094010366 -0.08677503390374121
25.758340188967395 59.699729399574515 -0.07282449175078999
24.939984456097775 57.552993068438276 -0.08974167280932674
25.856590841232872 59.67245215210825 -0.07834530818168775
25.035894182341206 57.52985785253534 -0.09331437245050585
25.999333188437067 59.65212362768534 -0.06386518890718927
25.952085071995924 59.647741601989104 -0.08455539164890939
25.165867657946723 57.508505071521434 -0.06282206070045389
25.135470987815868 57.506253115994674 -0.08208246866811666
26.075756736803136 59.6262775361196 -0.07489585955456922
26.044565830384244 59.624940188345214 -0.09783887941360761
25.246081265726737 57.4852825117939 -0.0816268458690038
25.21932137335471 57.4807860068008 -0.101340011123408
26.16109155263975 59.59717370870609 -0.09696292529756945
26.125895095259754 59.600810883023236 -0.10243129465002056
25.33152750535789 57.46028978038453 -0.09635610302636474
25.318963394578574 57.447943279991144 -0.11997313297292317
26.24331109535678 59.57025807921758 -0.10871910439652695
25.430619671977563 57.43493383448631 -0.08755750048263863
26.34287563176543 59.55516885604725 -0.08736609302616351
25.524354981424363 57.411113427506066 -0.07926577578411965
26.44523759352899 59.527714170553814 -0.09519146250438315
25.614371597697474 57.383819012448605 -0.08290403889798713
26.537677656752013 59.50921375173307 -0.06706903454547684
25.707681552989612 57.35701739513887 -0.11226838187405089
26.63840051912493 59.490735273833764 -0.08332560139488769
25.819707233687527 57.33369491250668 -0.09755389802157655
26.70621357798031 59.437691465114 -0.08020779929368319
26.682746276130583 59.32915097341593 -0.07572123499474362
26.658565282319607 59.246004305167276 -0.07925554964508799
26.62402015833728 59.14444864746087 -0.09465762523425075
26.606400734170826 59.043366782733806 -0.09070559602101566
26.595196279328626 58.97780860270554 -0.08838292061768209
25.916232123124217 57.31540748745682 -0.10550277119314226
26.65899352940003 58.95547859880834 -0.09450932191585967
26.0416980048486 57.28149047476795 -0.08841125158442117
26.008985969890702 57.282880313220154 -0.08603708213912549
26.712970428652454 58.93836797274664 -0.09976001307932011
26.29654298088265 57.72141193972041 -0.13755481162305191
26.247084592475552 57.689308052967256 -0.10641949109740297
26.208793678437807 57.59496379149596 -0.10439007127318842
26.20421811413318 57.482190225381025 -0.08725468534990857
26.175323751044054 57.39639721755244 -0.09045139975082797
26.1251786048439 57.297145617114055 -0.09333411638869163
26.074249285344624 57.26425273124198 -0.09192816246836229
26.381029610454696 57.69400666738663 -0.09024493234084081
26.3511074511942 57.694383233125045 -0.08756963936273766
28.101722898369644 59.128473133917716 -0.13257638675505481
28.165138644252355 59.0876741853715 -0.1366368887245804
28.614081186716493 58.973433943508844 -0.038839948511893235
28.688765574723554 58.95539274191313 -0.04133714341590511
28.799555571727655 58.93207906749099 -0.04503382455637381
28.877484478654946 58.91077683280968 -0.047644502175227414
28.967267063529228 58.889249980782374 -0.0506516747151632
29.055866707121147 58.86753451046792 -0.05362212114372933
29.175010892748432 58.839188013039305 -0.05761825212158931
29.283021133657822 58.814630778275834 -0.061250554228847065
28.3830021119702 56.44337845375398 -0.04886108495858419
29.34994664533831 58.79500867764259 -0.06350265649767925
28.478397658576426 56.416617564204 -0.052086163726202755
29.477981338004284 58.769180215653364 -0.06780157768981855
28.61924551787787 56.405141635066954 -0.05652122629343532
28.551584114980088 56.42089362453224 -0.054268646434604335
29.57988928246266 58.740937244420955 -0.07124147542111665
28.742609339285064 56.59876113188683 -0.05812674078593549
28.689620314587756 56.53482898441536 -0.05719737884290013
28.6592606690862 56.441789431375526 -0.0573239798213496
29.666457619639875 58.71915261513415 -0.07415637624718051
28.88920963738183 56.562694712942715 -0.06307534354938849
29.765882844219583 58.696338124655426 -0.07751259122971721
28.967100581401038 56.539200484216465 -0.06575994045512146
29.879193992349585 58.67319537875065 -0.08133205244539171
29.04003623270026 56.51918747677997 -0.06824354496611452
29.963420850501763 58.64822286427255 -0.08418257933520847
29.14157122212541 56.49387831167175 -0.07168534579074354
30.067517150786188 58.62283019203593 -0.08769519654552138
29.247121099417246 56.467897322017244 -0.0752613834727798
30.15146716769123 58.60579165623395 -0.09053595111564755
29.322936688465695 56.449642588033804 -0.07781984543080253
30.27031142865939 58.57719468437054 -0.09455043763790094
29.436450589397328 56.422232511621324 -0.08166410670931798
30.37302244361882 58.547675131054646 -0.09803420711423476
29.56257155962551 56.389021055250645 -0.0859666031358508
30.4547047440373 58.528000397478266 -0.10081226129617614
29.724049256227055 56.6258386819506 -0.08870532241340355
29.699987867481447 56.56925368126686 -0.08848501634175407
29.676700415768565 56.482114643137955 -0.08860875606624488
29.6585809884392 56.395240381521546 -0.08891440405791579
30.548348737317788 58.50726773187436 -0.10396605636870708
29.810344966374846 56.609442956306054 -0.09159685619379138
29.70390793598232 56.36012516507816 -0.0907020684037152
30.647855360452294 58.48552880673773 -0.10734420183103045
29.926404717439297 56.58162721688839 -0.09555412446333436
30.72935847928666 58.46417060140927 -0.11009841071656876
30.053992929538573 56.550355207733524 -0.09990096774613025
30.812740904997884 58.44260702650401 -0.11294298172029296
30.926027942183943 58.418609267055224 -0.11676196519661845
30.239204950538145 56.49660898489913 -0.10630464826946492
31.01717122541853 58.39395104512732 -0.1198776162617109
31.134252158977585 58.3682390084186 -0.12382939694158034
31.255191322439323 58.34197422046305 -0.12794044530818702
31.313076150607127 58.29547773230448 -0.13000729145218354
31.29584185249916 58.219876261935994 -0.12970545301315786
31.26724557341762 58.12293038681818 -0.12912490310586863
31.238380008234373 58.02727973974931 -0.12855150629186243
31.209035320541 57.93259439482707 -0.12798453992817851
31.184738889180096 57.85873005598522 -0.12751509364372482
30.580765619828803 56.38167286359273 -0.11824677641991088
31.28888131672509 57.813202690153204 -0.13117552530173482
30.86271066180746 56.54833838020832 -0.12578222966318883
30.832972566903727 56.46541024524425 -0.12555191824549877
30.808220418855385 56.37081823244802 -0.12560722927228668
11.258566994988325 63.35434935806562 0.047259919628034004
11.049264476262241 62.94113400984208 0.048724294499945676
11.042089931077353 62.863348033186426 0.048997275301213235
11.018448679596766 62.76408102993882 0.04932439165339932
11.004525780634198 62.68855500638956 0.049565678240899684
11.240524242636036 63.28009734627142 0.047562473738791085
11.204421167109896 63.18518365779476 0.04792153854180498
11.1899020141371 63.0832107807408 0.04831492508256923
11.178994711281872 63.006920608494056 0.0486046099077801
11.12175308705986 62.97178680968822 0.04867469900699179
10.994178410807699 62.638615845627236 0.04972828996103703
10.97911903301808 62.56381353098662 0.04995239716028179
10.942609801288649 62.47007162328862 0.05020654597274863
10.923368035015555 62.3685519279302 0.05049170170506569
10.892007783568763 62.27316565984008 0.05073060934101587
10.846872375884715 62.153186405468716 0.051007661630282995
11.807730067226771 63.2165444773971 0.04830660659457179
12.208454072915536 63.12613558395238 0.049008518012136786
15.631723932452122 61.95453647077308 0.05682760018325874
15.7750789102017 61.93938123204535 0.056994501849347186
15.998924124373788 62.128203419605825 0.05623918931792462
16.00233576789295 62.07346811379121 0.05650955981232344
15.878836240100329 61.93804781812412 0.05708176518904203
16.104261485565033 62.14189137586382 0.05623038235240809
16.00010057709578 62.02002848456461 0.05677183249056466
15.98834677788605 61.95173596366942 0.057089401018456866
16.205271989994678 62.15461764768578 0.05621011551107082
16.294990976724325 62.1708489088233 0.056162196215734296
16.699417712409257 62.03953033052426 0.057039356004186546
16.830984600562328 62.035404431053394 0.05710898436395847
22.76378192397078 60.48023684911441 -0.036884683953866584
22.91161900347538 60.537850997943416 -0.03539480416243301
22.834177692580568 60.49971002222834 -0.0358680638841759
22.04319385784688 58.2992398012659 -0.031291331930178454
22.982297882526176 60.53922182734332 -0.033881793873259625
22.11244405328154 58.28144577594467 -0.02889403033669543
23.0447959060323 60.51288333822496 -0.03159392728709594
23.014972457469437 60.224176290282045 -0.022452235330867945
22.94512614415574 60.10315894594331 -0.020467876156189266
22.206798957489603 58.25783707892593 -0.025642233381054876
23.13588732042854 60.48280447410092 -0.02858317273192331
23.017974901781407 60.1891227562825 -0.02125584875883598
22.992348198242198 60.12921097983893 -0.02002990060016819
23.031938002197865 60.009137572012314 -0.01537143247593157
22.948582772048706 59.87930001861217 -0.014030802995726795
22.300958440791216 58.2314213318764 -0.02244432057556485
23.25667434522429 60.43344595405295 -0.024309275241134014
23.04459185646456 59.954450249764555 -0.013440241019462763
23.018560070694775 59.89709300184651 -0.012539019124867247
22.413180903474903 58.205709630827805 -0.018615791760540387
23.373426071975835 60.41347129851941 -0.021277540917910488
22.511854276724943 58.18135313478934 -0.015295570937096145
23.50529773178673 60.3957866234231 -0.01819669171330633
23.49281516925836 60.385247623398094 -0.018001666283011884
22.60878600172408 58.15913031353013 -0.012049022112018748
23.53045618330023 60.41653104021664 -0.018591512381214405
22.694576494351438 58.133744981687684 -0.00927358823366315
22.687716104218165 58.13226164919901 -0.009536323792899495
23.65154628496178 60.31649325084504 -0.012570243477347462
22.78715273946121 58.11252615762181 -0.0062399430786216695
23.73763124803265 60.237560525267355 -0.007990456091707503
22.918735283344702 58.10014975921334 -0.0017409816921815854
23.812575783683542 60.21991207648145 -0.006120537521308651
22.957434505464654 58.0599939362912 -0.0009704091459319802
22.936931538230024 57.98040678236468 -0.0029776562754455574
22.924060505450633 57.88057057480131 -0.005224032847114805
23.908564081990964 60.19943237787421 -0.003912062270924006
23.011769071526082 57.83293675341707 -0.00322321739870695
24.01029454063543 60.16673939178706 -0.0012310412809941398
23.095494053643755 57.7960313005976 -0.0012603131140874815
24.110054510654237 60.143587866805895 0.0008641868810047235
23.204063397454366 57.767349081307636 0.0015828331287576838
24.23614161615436 60.11328802124462 0.003324668800662102
24.201359895117122 60.11703300085057 0.0028843123789264666
23.302723478610083 57.744359289814994 0.004128433039590464
24.33227414542619 60.08646814381097 0.03371135934429121
24.304609100380777 60.076519227561114 0.005479027068707794
23.399647808659754 57.72223464478414 0.006524302530103242
24.40443867866693 60.05711241375523 0.03197591589879536
24.373670747658498 60.055401323703244 0.025066065933366653
23.968683293515806 58.85392840660894 -0.005187553144424026
23.940372812293607 58.72922672946978 -0.016648330459120057
23.929040287070688 58.7204439943109 -0.020385066724807034
23.530861648043118 57.71174859063899 0.010142548601547265
23.4828860608082 57.71240906018958 0.00875113722838388
24.494173486940205 60.03507573811367 0.03552168172936954
23.995661621757584 58.82758777157346 0.016101079743219414
