ply
format ascii 1.0
element vertex 846
property float x
property float y
property float z
end_header
34.619588222890876 57.101557509499926 -0.0040906578475715764
35.447421642958076 55.44317972270087 -0.011713421549052732
35.430436936118575 55.36807342403283 -0.011758003959910071
37.35541026830383 56.27708282440882 -0.020663650205225786
37.33814713684283 56.15391267979987 -0.02087132022240311
37.30666597839479 56.033951174384825 -0.020984818971137912
37.28211232499305 55.95489557802711 -0.020971508917837174
37.26499716279541 55.87400523960389 -0.021088068013198416
37.2456263989333 55.75120362577236 -0.02119867587709819
37.252847518346215 55.62172523524212 -0.02145544849507364
37.975631674685665 55.35517208706326 -0.025947038074374207
37.94924626544568 55.27588935687257 -0.02588837184860216
37.935552934129674 55.19111683247944 -0.026000903628951084
37.906752791465145 55.06616368713277 -0.026014056122281463
37.865774860881174 54.94445893233082 -0.02594253640962402
37.84318318377935 54.86199994005764 -0.025980674814413816
10.932781613609173 62.85679265328279 0.12490181994458857
10.917375179479532 62.80102997359498 0.12499552143842299
10.889803672988615 62.70292901784373 0.1251261709621781
10.862485403073912 62.618789629643295 0.12521199993913673
10.807946862266444 62.47035712601036 0.12529234931428537
10.906378493605395 62.69671736759802 0.12507157428684382
10.862717580951397 62.59180728611991 0.1252034191391781
10.846064550107448 62.51102752211309 0.12521247322334159
10.813861487162486 62.40932856995608 0.1252103334086469
10.778986736180354 62.31475175568191 0.12517433301770864
10.753186916991748 62.21707798923574 0.12506037105362466
10.725578913705766 62.120164911581746 0.12490491921511451
10.708972924781738 62.02063729991408 0.12466816926155605
10.68310039553012 61.92282670704029 0.12441044316494934
10.655262163339724 61.85060153587724 0.12421136109676204
10.717200403983963 61.786095690600334 0.12381558667423728
10.685319681670943 61.707953883856405 0.12354903168670847
10.662082145152743 61.60911990960805 0.12313275625587741
10.64133261397193 61.51842023460913 0.12270718069823416
10.6277030282256 61.465783147012026 0.12244968905274614
10.659235807473301 61.50894906019519 0.1226199193559932
10.634898114809166 61.427570204300025 0.12221221850920627
12.34384791104738 64.30532940463556 0.10958864739743346
12.615174987271448 64.90556159898873 0.1012578224746494
12.630593530109833 64.80966283683803 0.10196497610474048
12.610136773844035 64.73170201575641 0.10293796429017885
12.592187955576717 64.63318082638635 0.10405256396741155
12.5032862229995 64.42649501853275 0.10689713411577884
12.436565358232613 64.3589901830659 0.10818913410506945
12.439655187962654 64.29061365438538 0.10873129660190023
12.653060880535723 64.70220273082796 0.1026880906338237
12.611179362182526 64.605453526063 0.1040792732882132
12.58031948013308 64.51085742364019 0.10529115279994752
12.550204821233425 64.44270322244648 0.10623671697037412
12.525505052290951 64.38166559918157 0.1070428135156738
12.660890370018995 63.394249091025976 0.11355139602798756
12.736322960989753 63.466318954669624 0.11234452073942874
12.704620972433176 63.41110124797273 0.11303927459440413
12.667178746700625 63.32959961369332 0.11394788608446299
12.600417611341113 63.01131329867789 0.1164560481852181
12.756198352112149 63.18074236582482 0.11421825190529733
12.663517228071449 62.98210586966288 0.11617662314257807
12.801179104041761 62.99605945415707 0.11506773483542188
12.75523027004533 62.9805093547468 0.11551429198023155
12.851502724492732 63.00752739246092 0.11459375821087489
12.377848815055383 60.69875887276536 0.11218120746258264
12.33363016139217 60.705469584435114 0.11239053930812079
12.43091139381389 60.67892091076819 0.11177684381122188
12.386283362280086 60.68703047281394 0.11201646118925995
12.526310970411878 60.6549845696264 0.11117340386921568
12.625188683480971 60.62840387380914 0.11052919490108082
13.59863798254067 62.82815082548943 0.13123941038266074
13.219753854796908 61.85134256821245 0.11743474853638211
13.052929225671008 61.36244963767537 0.11150432679024438
12.7237901473958 60.60717641259377 0.14119531557325926
13.660596717096194 62.781906831563695 0.11594438393459797
13.665847238315358 62.76046647481702 0.14351868754775515
13.467169854030521 62.14331869432221 0.07634711075145617
13.410880280638622 62.02525010400807 0.11605668104939915
13.379657879561282 61.97548314552776 0.10637450309769259
13.337326644895052 61.871029292032816 0.12750674266655126
13.283450392808746 61.832546778571334 0.13715291720589198
13.127549273095505 61.425864031257255 0.15500188731631073
13.117976909750292 61.32540143352628 0.11136294050970544
13.099928086229463 61.201551763872345 0.08136010736285576
12.999179972649369 60.911767911568674 0.15956664973145576
12.967011857996747 60.8794541562872 0.16072464876450343
12.823412149487687 60.58526347291785 0.13779045859944272
13.751337237033736 62.700797452759446 0.1351225414752132
13.479032904306848 62.1151543988583 0.11541080691391009
13.458869502099892 62.05098203099102 0.11415410285856475
13.40246006730778 61.95154603142976 0.15279173777852942
13.376184823678306 61.88048519825649 0.15253472226138803
13.159638772697694 61.28122271116509 0.12969614076216648
13.138554827886317 61.206753662070646 0.12578107354186624
13.150390719364326 61.10722324053764 0.11306763080469179
13.135426126112513 61.01790180742819 0.10976148444594844
13.017341423645396 60.90151840774768 0.15891910281470992
13.006546924090923 60.869544035681976 0.15931369386426553
12.919356073450281 60.55867726240436 0.1348335817326964
13.831996993336448 62.679867592611984 0.1288974237435487
13.167040780998901 61.05799782029053 0.12385535646762577
13.155625366799034 61.02402210091459 0.15397095608708863
13.016758523952129 60.534372089196175 0.13388348250537127
13.967033308548677 62.66110459422363 0.10492657980738584
13.926922567734035 62.65766334979328 0.13147329842009425
13.140942515307325 60.51115965585518 0.11771178623412806
13.106525295643198 60.51511554869048 0.13886881187902408
14.03611591787004 62.63627610739163 0.10878491467579293
14.026008223495076 62.62548676174433 0.1427099707514081
13.214558437739736 60.488067302730805 0.13709735655596458
13.203286570733162 60.480346992924886 0.11711597479738581
14.14428147905395 62.61544839829308 0.12100647765007788
14.101243328095961 62.59789618847648 0.13337969592827115
13.311159888341894 60.45635710471177 0.15080165911051915
13.272725468575379 60.45625968666797 0.15202594637572092
14.229115454390454 62.582892700800635 0.12332795938829827
13.428296743786149 60.435263806880975 0.12873387083463014
14.320399821416046 62.55166130993685 0.12067102287236134
13.506481734558093 60.416012461244364 0.12300253361233521
14.397409559109906 62.54027516928646 0.1102616612929195
13.609175416654404 60.389940872168424 0.1211776634976229
14.520737953697902 62.508198738298745 0.11658857697863131
13.704034307314714 60.367155409080524 0.12056898562542584
14.615168028756187 62.47882279921346 0.1132356991769656
13.800271417734729 60.34492145664439 0.11767386981847663
14.762747718174918 62.46205016733899 0.08953426527873617
14.70981963233654 62.45270192032329 0.11196802646534351
13.913019330474373 60.32687817769176 0.13461421779336022
13.893490724711382 60.31576441911358 0.11108301683807595
14.810102377502243 62.425020582925896 0.11724709293909541
14.004958409937505 60.296067798528114 0.13910578089047246
13.986755334609896 60.28577398981072 0.10102795886453272
14.923022671554412 62.40196206823303 0.13268707470265345
14.898709895478817 62.399688422224294 0.12672540860483186
14.093886566294671 60.26824852682849 0.13139890537616963
14.067100487771748 60.25894872078302 0.12175153668660335
15.009701631894547 62.37643385190675 0.1266383939261465
14.9722554948183 62.37615505789457 0.12707278808297678
14.190106511979366 60.24478204093532 0.12845920804904154
15.101327874279114 62.35406865624842 0.12522885244350887
14.2876246009896 60.222331146641125 0.1283201998573995
15.193490159698502 62.32771599119467 0.13620254159770806
15.162557180416455 62.24567072756424 0.079008794111185
15.153235752953357 62.138258855302794 0.07995007033398988
15.149224231593864 62.08763954226224 0.08035466619581252
14.38590506716559 60.200401490408076 0.12546514499094688
15.295722212466472 62.3002956952353 0.1482643741739464
15.240310639694881 62.063496010973005 0.0773615577900903
15.213487062547772 62.06385498825906 0.07827923732104516
14.484720744621614 60.17908247338705 0.12248418174704487
15.385871114521247 62.276509521115585 0.1294345631863058
15.30395271059267 62.04455761953191 0.07523296042465907
15.272554239501115 62.044419518150185 0.07632538896496577
14.580797682832252 60.15211728674097 0.1239652499882663
15.488763807032859 62.25201866068713 0.12050912276291767
14.726670688668122 60.118901279295514 0.16725943038333646
14.676162478807086 60.124602147011046 0.12114736589966471
15.588238830431639 62.22703515869371 0.1195199213041343
14.7794765588419 60.10351537739049 0.13983056697745697
14.757079559388837 60.100195400472806 0.10697171931302177
15.6879841703654 62.19758192748445 0.1185326191627642
14.87204973803889 60.07418468188491 0.14289877310117288
14.862115635852852 60.06493057043933 0.16933916060520585
15.81480223595757 62.17161092410902 0.11752911409926195
15.76422913669397 62.1747664647334 0.11781593967326376
14.97050858279071 60.04269793339021 0.1440295939007022
15.897291722972971 62.158042890094514 0.11696550188286226
15.068156982765805 60.02771356399782 0.13837120659653399
15.970173899086916 62.124950542162075 0.11620707639997002
15.938888752306466 62.11560911323648 0.11621781673144177
15.170488079423947 59.99789981289483 0.11532327150321733
16.088488464277468 62.134042241561865 0.11583562307868814
15.258310695762098 59.968938240016406 0.11446449208934378
16.208029949712934 62.13022616662371 0.11531491181278058
16.145480051903633 62.131945311106605 0.11558146744060399
15.359029937305964 59.94159841535049 0.11346957210079198
16.29122277428266 62.1109801120386 0.11476702902952038
15.45701261795259 59.91666315147902 0.11252470898342015
16.362660589107243 62.09308233404057 0.11429614507182545
15.553351959929318 59.89150876662133 0.11163350514661596
16.47357368249702 62.03432769454135 0.11019296346278495
15.653591402921858 59.864131371959076 0.11074253536003895
16.56042398163063 62.01219021258759 0.1094359816247506
15.746520958110223 59.840527120204925 0.1099290483249892
16.671695567525322 61.997649968630284 0.10865325173065374
15.843552390067849 59.81348468015163 0.10911603716174853
16.784381443533096 61.984889800729995 0.10789556541335191
15.94026249737757 59.78654161610787 0.10832520068505425
16.880330000697832 61.964756407994166 0.10716194163961015
16.035770409394964 59.76513578799182 0.10752864340476032
16.970131395049997 61.94503434627424 0.10647696952383362
16.997044793503388 61.92108490472811 0.10609215671359243
16.13171337930438 59.742612153471235 0.10675091966544378
17.101666773337605 61.89063040077926 0.10524196443537018
17.076687398087063 61.88574353539779 0.10532778918438887
16.229995123474666 59.71700575123826 0.10598558455088294
17.15392119195072 61.8317974152006 0.10441487788830436
16.334757864375167 59.68978673700331 0.1051806900762933
17.248792830909007 61.80975112397549 0.10372466192492616
16.435579664735254 59.66419209031232 0.10441751266201729
17.34631067814091 61.79642534539067 0.10310547339882853
16.548746032587136 59.6394244682071 0.10355538510858878
16.504112573053817 59.6483326545753 0.10389775641514648
17.444942881984954 61.770004374564486 0.10237258871979471
16.635349031781395 59.612723620787456 0.10294050914401745
17.54730247523707 61.74236186413173 0.10161917368212156
16.739345950676142 59.58848364667487 0.10217469775827714
17.65181106781971 61.71851023255534 0.1008929574988226
16.823105925407255 59.568455329596766 0.10156697571488513
17.740738251365986 61.69657243865392 0.10026804751334129
16.915643868923485 59.54505567592958 0.10090797593047865
17.824237356148227 61.67229852484994 0.09965722787142839
17.017718257278432 59.516665967131495 0.10019748655885802
17.921473469146804 61.64862736488904 0.0989863190946457
17.099271643936227 59.497424636829926 0.09962266514213206
18.026504854618114 61.62410192406582 0.09827463755508559
17.21293295175889 59.46695733532916 0.09883730631041487
18.15675967450331 61.59233989148232 0.09738819883671188
18.108055144407814 61.60315200503247 0.09771554048089137
17.3032723699907 59.44635604371302 0.09820908352912075
18.223810824915258 61.57515523436582 0.09693257926675092
17.43393710826069 59.410404329745944 0.09732692417688937
17.362522595859197 59.43173308600241 0.09780638272521769
18.307088887708677 61.550933129091014 0.09634511275502108
17.51372004765347 59.391488063871414 0.09678094507058599
18.418195547729454 61.526797301798865 0.09562413005874293
17.60540269406973 59.36746287485944 0.09616486419932152
18.514151271457624 61.501023034863515 0.09497037771981348
17.6908372340997 59.348955236458636 0.09558265079213313
18.621962150315543 61.473649633039706 0.09425107958121828
17.787365010674495 59.32602746046756 0.09493462745398998
18.735580828047773 61.44533864531416 0.0935007711140042
17.89437743078631 59.29766351493898 0.09422795345929483
18.820929948559332 61.42392687842233 0.09294190880002595
18.0026203664082 59.269839105594286 0.09351412547935481
18.921151248973786 61.399903966251195 0.09228816451365635
18.081689569215207 59.25161466583503 0.0929845920276034
19.025258323988297 61.37617646629949 0.09161940267652702
18.201609549925784 59.220835448270954 0.09220091472192038
18.148703651853644 59.23235338246595 0.09256163178528948
19.113249802229646 61.35149909697456 0.09103408687496467
18.292890443069478 59.19841612467824 0.09160963723824178
19.219116145127476 61.325042118651986 0.09035100785320291
18.39368868222597 59.17282356102263 0.0909608950054698
19.298913175677214 61.306622587383295 0.08983720946690865
18.473699600227526 59.14883955326365 0.09044090257343737
19.414515608164685 61.277968403308144 0.08909763990897407
18.56585319827297 59.12878181558814 0.0898439032494596
19.513975266502058 61.24862288195153 0.0884360274203583
18.66381791529406 59.10714903951027 0.08921280863577019
19.60948790297322 61.228095956562996 0.08783617242542613
18.74991399159913 59.082355987493514 0.08865562135184171
19.688968760573417 61.20741406463373 0.08733190385116832
18.868901204963485 59.05184388386327 0.0879007738401914
19.780322265873302 61.185773460441744 0.08674824994748218
18.984889958382695 59.024555152232296 0.08716335672870482
19.855643228240986 61.16409447021819 0.08626163831531342
19.071803913082846 59.0019428309569 0.08659948913576831
19.946806504229823 61.14076204287233 0.08567130978212087
19.15357580866175 58.982513920152705 0.08609022660243307
20.041910795486103 61.11663025778621 0.0850759880370269
19.250095965737618 58.9570689852381 0.08546867513218234
20.15285452377136 61.091056131392925 0.08437741381258704
19.330673451622115 58.94006315754286 0.08496631359867429
20.273723791746484 61.0642088315512 0.08364237276708533
19.432861271856297 58.91287005071421 0.08431114493827865
20.33334857497078 61.018905113244294 0.08310043920722934
20.30960906459073 60.93665933192382 0.08280288260721494
20.28049575724504 60.832989080273265 0.08244692879522841
20.256113120733502 60.73056565798914 0.08211125240158484
20.234183900761934 60.638273749370086 0.08183374375196228
20.217344607879046 60.5767074517536 0.08167542318855503
19.52447466533052 58.891439499776226 0.08374442355804795
19.627535862289132 58.86642639645632 0.0830828057363234
20.397370192483475 60.51992168870762 0.08053483278065413
19.882125205574663 59.276186246833696 0.08114015624028403
19.853639235207964 59.17541617066899 0.08134139626009743
19.829024037636714 59.07301568583103 0.08155789029219954
19.80119535025674 58.98333483958943 0.08181108514251939
19.77882975631004 58.888962529810875 0.08206047078205186
19.73273120688909 58.841336138180154 0.08243478974472807
20.527073936383008 60.479632564915676 0.07973158714941583
20.041769011857255 59.28649240564669 0.0801643073827698
20.224256411009186 59.24442185221175 0.07907735581947464
10.922936541949936 62.79124128726086 0.2517834237183881
10.899598405836507 62.718825643845314 0.25167207886020815
10.90318536829887 62.69966956091676 0.2513003805126921
10.87198770384046 62.60808337105242 0.2512696217071115
10.836616086687691 62.513659229794435 0.25140314562243693
10.812037765087654 62.41586933554001 0.25115708611779075
10.785378139118425 62.318788243463196 0.25104456261853164
10.760680230360867 62.22101668155394 0.25090412616037366
10.735872720417216 62.12361119327297 0.25082187906894005
10.713002206455284 62.0253962452954 0.25071125847066045
10.688452622552536 61.927425230270316 0.250714589619297
10.661657417744568 61.84868980297605 0.2510130830115386
10.740805019663561 61.782298279298445 0.247535275283338
10.715387906018048 61.73515073079037 0.24809055700183572
12.308343295233666 64.32743731927502 0.23374369799908593
12.624502203633277 64.8260328574405 0.2356386395406209
12.592124841640025 64.75662522577397 0.2349865653785105
12.576631297374963 64.62904002603734 0.23260165711220657
12.549095872225763 64.53185750892098 0.23124100467557376
12.51556791735303 64.450491396846 0.2304146510870567
12.454055866738596 64.34945424622188 0.22998979168025255
12.383741716614539 64.30261790288031 0.2310166594400299
12.506031976722536 64.3820805655758 0.22920181914593848
12.704277629418375 63.383391281344 0.20232821741126505
12.681245736468183 63.32036903780642 0.20174529307398192
12.651590534371348 62.977890921214545 0.19592000307431093
12.796650993685187 63.12670876414616 0.19431330984961018
12.850951283340141 63.04964638394764 0.1911049093912792
12.772894354805679 62.97281898167811 0.23419382179731527
12.87523541978607 62.99168790852386 0.21022130251630333
12.862932634071583 62.963613858390616 0.23539663899659422
12.924660274796086 62.942119696379436 0.2591178561306747
13.076390660307469 62.91573520006109 0.23407412629866706
13.040951395713256 62.873310189193894 0.24972010189227148
13.167013659828411 62.88883706262993 0.24399663076886688
12.364617185351628 60.70373786471657 0.18236138654863848
12.336584949807463 60.70511293560791 0.2010758108061918
13.266500731577935 62.86332889118745 0.23781229347306101
13.366003886736049 62.83906109091458 0.23181939220196965
12.558319671500254 60.65214268178617 0.188329717028873
13.458412751330705 62.81546216890352 0.2263369569329071
12.622525234028151 60.63440248722718 0.2060718737807141
13.551523520545715 62.7915731799271 0.22095514020687698
13.224287107356842 61.83231255299179 0.22384190649983207
13.105412534721186 61.491770992061944 0.21894789993419575
13.103590131733478 61.485915340197856 0.23954988514882022
13.036113989136746 61.37917878529757 0.21654033963208844
12.727748691506434 60.60809090210032 0.22939491930350733
13.674958429075835 62.77503186466546 0.2619695632957606
13.644390192177257 62.76977285067001 0.22542786925950384
13.44727683727436 62.1232478821645 0.21691703545019997
13.423552453425536 62.048482775775774 0.24548768648198824
13.399655293980642 61.96791546539831 0.2357060942676917
13.341217851365302 61.863444206266834 0.22990846607092044
13.287928319978507 61.82703400851114 0.23060345703058546
13.117804616595853 61.48431391430515 0.19757033829648096
13.129108034726524 61.43633515693203 0.21584607358884933
13.12602865376005 61.33781131207838 0.2174513392125124
12.994230937945833 60.91211992402829 0.23046899801422974
12.829311234999354 60.585785010127665 0.22315430996253935
13.750835112910007 62.7053659278516 0.23442601629051799
13.462247304543707 62.11004013213188 0.1919403103478907
13.446259551822815 62.05506517101604 0.2072451099351146
13.408976486079291 61.95414551776021 0.22327923921813167
13.378327701224697 61.88655998337861 0.22123288663844046
13.159063250342355 61.27771400310512 0.21922827886966714
13.159681714678028 61.19769473253754 0.23074937030676693
13.14662038163213 61.097034120974534 0.21542620653125782
13.12778713763098 61.01217918488697 0.21898317540739506
13.012181801696363 60.90079453856511 0.22393036320672513
13.007381714575548 60.86642495803974 0.23499656156121992
12.928744764497395 60.55692695694948 0.22941590503622497
13.836754198967649 62.68286414889841 0.2273590534085073
13.14158590293308 61.00234221071189 0.19560314434994713
13.014782768872958 60.53102468642042 0.2418088963883082
13.960873702681697 62.66445772378299 0.24520300929763042
13.932782288230966 62.657803822691335 0.2180118512456983
13.134950311003648 60.51427750911343 0.20549440257619347
13.110173394878165 60.50803839448999 0.23326802877511413
14.039883310730001 62.637289140979746 0.22793101218493186
14.023575689675608 62.62865593334657 0.19733809745678263
13.221050513821897 60.48409813971907 0.2084765490377836
13.205800017197674 60.47973278977296 0.2373645286661217
14.13298775749851 62.613511989525826 0.21518039597029495
14.101418484745459 62.599414429537624 0.19033717074090084
13.280527755325746 60.46460323558315 0.206803805780967
13.264156519902874 60.456680696613844 0.24679638557830544
14.2323594142716 62.58620373340724 0.216889127676578
13.422982862374166 60.42357640707058 0.23586605607628405
13.395066389346747 60.41048012473817 0.2388160337747434
14.321410583024148 62.55586098757999 0.2265591616254806
13.507187693020624 60.4103838823504 0.21402143667079296
14.414785158363857 62.54102955270023 0.22782468486513416
13.607311351017511 60.389464434107865 0.22586511747847857
14.520224067819267 62.51027573824761 0.21908258338957246
13.703550151285528 60.364998913548284 0.21958111721683185
14.61661740046808 62.483273018742075 0.21559450805410024
13.799195004348135 60.341041847282554 0.21630120282930926
14.713828317273656 62.45727851033695 0.21522592195529497
13.913488627461367 60.32235203801549 0.21191691520494135
13.896288077237859 60.314374771542845 0.21335911105658434
14.843969235134544 62.432524980631975 0.2146913775612893
14.802089721274148 62.433114960924726 0.21857117031141635
14.002033889128993 60.291903373271246 0.21725034284822656
13.982001371413183 60.28826344715564 0.2198979754773341
14.916891742406323 62.40944516535602 0.2341363296491286
14.881050580588479 62.4074875736653 0.24035212076503967
14.091750279103607 60.26489771969419 0.22888874446328114
14.072457013084742 60.25873352010504 0.23014426026818582
15.007211738828351 62.386781266959325 0.23718379839414397
14.190069736991692 60.241968275107276 0.2280685725358265
15.104387075834715 62.36187031966154 0.23858543531774104
14.287516124054184 60.220495644200774 0.2284502769331356
15.201148789006451 62.33376805073277 0.24271652057887896
14.384025231376578 60.197123452012164 0.22864887583876967
15.29890458609345 62.30638744132194 0.2418947082779976
14.481774191089258 60.16895476750672 0.2312924669542382
15.398565703594262 62.2793562126347 0.20119353325272343
14.579198216168354 60.138415425833514 0.23442909588543645
15.49203561390367 62.25672919554257 0.19884868194051208
14.674972855072543 60.11592192448467 0.237328973107117
15.592533633058402 62.230671154454015 0.2022454332197553
14.80355348137671 60.09166974100633 0.24655696311301914
14.767017250494481 60.092983220619395 0.2407903383222452
15.7024251381282 62.21023609488892 0.2346489003136973
15.68858814100054 62.20391472579852 0.19516296975444025
14.861769173480635 60.07027061887457 0.24111078409003792
14.863392743941784 60.06157965033106 0.23701665578083983
15.790890376162842 62.1847665252776 0.2253405730778825
15.765860850721499 62.178057879926634 0.1845032847668434
14.968481182014157 60.033480777306046 0.22398540067678954
14.936403470851124 60.03584226101502 0.22321269283889525
15.892562796979183 62.163946441313065 0.21018119463233453
15.071942951753003 60.01647214762108 0.21147272800378494
15.96517083316497 62.13357012438444 0.2171983336289339
15.1676310258752 59.99275664725423 0.2023341383351392
16.098871869852452 62.13606473396971 0.21963496196445506
15.258406181592099 59.96169948425546 0.20698281989405085
16.213889513503812 62.134046520009065 0.21869964990007998
16.162255419762587 62.135513530793425 0.258013914290831
15.405247772253894 59.97957097672734 0.2392501595023296
15.355336409586776 59.94478021185817 0.21229550628966318
16.297632188082062 62.11480743442206 0.22779078589447208
15.486603431754443 59.963010656388946 0.24305174070818794
15.454900091691046 59.91460478883274 0.17865463190961456
16.367813379950753 62.09449448606206 0.23468419751114858
15.570877970919485 59.948481871489726 0.24695057509591337
15.544933964557684 59.89109514609681 0.18048664874578185
16.49223524185859 62.033765660667825 0.1920637512155153
15.671335381019574 59.91786669907541 0.2525152679619656
15.647547468010568 59.86064108302591 0.18278522683685539
16.57183211323259 62.00923750993734 0.193759867750589
15.769821839737697 59.873325157620364 0.23364897453987823
15.732859418828191 59.83347791983731 0.18480892433545548
16.683948928005613 61.998955706126736 0.19671006890623227
15.846336699574971 59.83043000844355 0.21757265517939514
16.793222376061756 61.985138379316936 0.19954414737343887
15.93865268872122 59.81019319727054 0.22548099294423743
16.903880023595384 61.96328726110242 0.20230239945609813
16.879056117575235 61.9641359366067 0.2016062063494106
16.038448098746375 59.76292987912879 0.19161696032321063
16.99854326931327 61.939112027231594 0.20460098379345407
16.967645672152372 61.93263730407386 0.2036022677202586
16.137804458051804 59.73746438933582 0.19401830761011366
17.086975661688413 61.896171234724136 0.20644801744231625
17.06633583290446 61.8918814290582 0.2057830736588149
16.23643080215807 59.71170158497395 0.196461402126829
17.141507928288718 61.84352074100555 0.2072214358652081
16.339405384303085 59.6861305137113 0.19901460076398145
17.212103068157113 61.78003306597777 0.20838756105779693
16.439671975302122 59.66101724126885 0.20154470155751522
17.319341201065573 61.730788800998575 0.21090238952120105
16.571380291944443 59.628559225522054 0.20490043995781612
16.52225851104589 59.64084563287896 0.20364136841786148
17.430809641747842 61.70518829888571 0.2138947741436315
16.621370921712245 59.61654903878557 0.20618646892950124
17.512383945167702 61.6734531533641 0.21594732049388626
16.71914040328929 59.59014623728406 0.20878382389361672
17.606291294551756 61.6520258756245 0.21850628075685843
16.820387809399534 59.56361228656682 0.21147650020322964
17.717377809967807 61.6253287491183 0.22153512741670958
16.90283723490426 59.54691142088879 0.21357196792988117
17.818896007869323 61.6021470691145 0.2243325026856007
17.004943823183044 59.51827464394287 0.21637195075139795
17.89464507880912 61.575453483601066 0.22634283448196466
17.10849763868582 59.49120421911706 0.21918911082083145
18.02015039652922 61.54940198942632 0.22985547329795444
17.2092280615576 59.46903968986374 0.22184865969788367
18.081972919064896 61.532211454043136 0.2315522759030648
17.354211798069958 59.43659596296479 0.22572941015150524
17.30009060580122 59.448075291151625 0.22428816032941276
18.22337707320155 61.49706476710753 0.23549788255200646
17.40135122037307 59.4595024450276 0.22627870036840045
18.286153836083816 61.470787932904216 0.23717155794345915
17.555436904617498 59.44367519203732 0.23008006103353104
18.41155535649156 61.45201749630486 0.24078574923444027
17.626181406896023 59.43432785631728 0.231887968611558
17.756648630792565 59.39904073956772 0.23559826334702125
18.576140264751828 61.411032277374446 0.2454272962298227
17.81654201268919 59.38948945954154 0.2371827842655483
17.950264262143342 59.3569107151866 0.2409407354295008
18.78730032192027 61.35849190167279 0.25141730946400237
18.002848420262886 59.34485955282181 0.24241893619215985
18.931068588232236 61.32533989820202 0.25552787058008714
18.19678394689903 59.293843335782384 0.24798003350616962
18.321606714430075 59.26378372765717 0.25151434056869765
19.180213114163752 61.27115007102263 0.2626885315835623
18.378753308463665 59.25249140492958 0.2531050693900834
19.27580745483069 61.2516872359267 0.265458954536462
18.485821526167832 59.22494112522692 0.2561837808888176
19.33732038632182 61.23286701681125 0.2672013301633472
18.83659252953121 59.1359360300295 0.26630964023543097
19.01793616510407 59.0886271279132 0.27158679980567957
10.750096685019876 61.79417023706509 0.3711326610284508
12.521916180411036 63.02878362205407 0.3700807222358256
12.584080622121926 63.002913854221944 0.3323040087804423
12.663126414946953 62.98047226218659 0.3152542254649327
12.798678006317289 62.99802213234353 0.3456761955499456
12.765862080613768 62.982465684846694 0.34714747008433267
12.866339422384268 62.995092613268454 0.3402455132768359
12.835290628771723 62.980015503668994 0.34153463475190327
12.985333246924244 62.93807158842642 0.3270258963063325
13.071526089978398 62.91871599623577 0.31920648747785657
13.167027769660326 62.89673736928966 0.3106625134750202
12.360773268816104 60.701732569856105 0.3236384587905289
12.325399719009017 60.700625814047775 0.32728459232124135
13.282110553101782 62.92126142953828 0.36990714171810485
13.268643401553243 62.87339365766076 0.3072199992422298
13.363865606252729 62.85086492627538 0.293637511836222
12.554587666622666 60.645937454756044 0.31627203578921453
13.468729499503635 62.85728986706446 0.3474502652921694
13.468167147502736 62.8239137015664 0.2964327283415592
12.626105293027976 60.63003543800614 0.330503939597399
13.554616419352842 62.814291386995684 0.3078870868402436
13.562742037109606 62.798308493999365 0.30510114569095603
13.231063348258857 61.825140386184785 0.3031134819525686
13.108817445488981 61.503901784560526 0.2804224553466201
13.072621844166521 61.4227136016291 0.32679510687881275
12.724963676443771 60.60267654783796 0.3227739366525305
13.654603517290488 62.77873146261594 0.3153901127146889
13.637465409675173 62.773175246094034 0.30309152840917575
13.426067246603488 62.12720074289365 0.3213419908430988
13.428998912185685 62.09464529971588 0.3285369938494643
13.344044600526109 61.851978480697994 0.318413738781275
13.282534298178325 61.81927686151923 0.32707428745990064
13.130749882396453 61.48835232525752 0.3242271005054288
13.124599517682432 61.44463515500857 0.32185746610772586
13.115221130965438 61.33663539968027 0.3212356561224695
12.992636465303999 60.93236673896085 0.3266744819582026
12.822289890076464 60.57651348622298 0.3091569072014429
13.75351838992114 62.705228656551135 0.3337802967730068
13.459008227004553 62.02203166155326 0.3282752022574744
13.437896749455165 61.946581104219284 0.33126901608303033
13.390604958532132 61.87230821925593 0.3375771082345267
13.347738188113535 61.81596354865242 0.3713288498855041
13.15310200604964 61.2759700947142 0.31351256465691957
13.164516517645675 61.20203928332653 0.32493664069731976
13.15003242565057 61.098656593633756 0.31637216755953573
13.108541756581277 61.02010188146335 0.3162939520165722
13.010114519221762 60.89859810023674 0.3224826028353323
12.992041822555619 60.86365466881753 0.3362092974815186
12.912511841074865 60.556138977930985 0.30529237592201797
13.835947334041947 62.68183064582932 0.3274726778351293
13.021200383603492 60.528935632784396 0.3359630122025638
13.963682819052176 62.66010340855854 0.29174113445430316
13.929816276243576 62.659682256569546 0.3206467725360564
13.137381620643755 60.51435744664138 0.35498022403244295
13.113004042185967 60.50543071930487 0.3282494694044273
14.034092017021928 62.63816243555996 0.3026862024205608
14.019833809208098 62.63039516103322 0.3255884666910468
13.226141590739205 60.48173247346506 0.32109285795452197
13.201560746601412 60.48078921766811 0.32437611999039745
14.135908543845497 62.611868172018696 0.32198476266808534
14.102111019354492 62.59943153181421 0.33380054782963653
13.2846993599714 60.46021333442893 0.31243466858693536
13.2707351962577 60.45528123545527 0.32583856272637096
14.225787005968924 62.590058693537735 0.3232765022559357
13.419842940199056 60.42720293549707 0.3089246632440276
13.359754813893938 60.417784328541764 0.2873809258575888
14.322019009657602 62.55219160000934 0.33005211430881454
13.555326743437838 60.46368244390475 0.3460264074999733
13.50628667510348 60.42081851482451 0.3112621196193296
14.42140343769814 62.540536363874345 0.33202383671656227
13.579911644567334 60.45165924007548 0.3444387914753711
13.607548658160031 60.39361676257468 0.3294372570162852
14.521479338613226 62.512858703435924 0.32279966749617933
13.705012258594957 60.36703248530709 0.3211615114294049
14.617944940159955 62.48533922363745 0.32102273102167794
13.83485040636847 60.35907385948568 0.3699216678758227
13.798971392402507 60.339535895225985 0.3161733115076089
14.713846043361048 62.45833057074017 0.3195390591338541
13.907073837521 60.33842035730404 0.3669774324671076
13.895184706781645 60.312617793265545 0.31384871797322655
14.842350460492423 62.432894481903176 0.33660053454950445
14.803794275276196 62.42947177985193 0.3167052011782099
14.005814389525154 60.304194753646634 0.3435914477317581
13.983201928839623 60.28716184826438 0.3089482612477522
14.911357149194046 62.410552509473405 0.34293912983077746
14.901272538402964 62.395051968200875 0.30468224398024735
14.093817666385466 60.271769660002484 0.32913398157670637
14.065954718873702 60.26078227103074 0.3036033941426034
15.010589657909955 62.38128542280361 0.3307056092276433
14.97747482694972 62.3706483644171 0.2997898715226075
14.189728344939827 60.246797435039966 0.3278946593355246
14.137193956555528 60.23536747468316 0.2909355163476337
15.101306819310825 62.35430230620503 0.33065054664644344
14.286544266170878 60.225095711611026 0.3233220417913847
15.19836366562355 62.32719789821178 0.33564849741325453
14.387703241798238 60.200790855584614 0.3124954636440736
15.293257646183232 62.30075995251729 0.33924838466050766
14.480695847112061 60.17387494600731 0.3180482157307638
15.39448230820805 62.27851007651332 0.29988047915556837
14.57813881847309 60.14627386605266 0.32485531020189845
15.491491252092553 62.2563513577777 0.30496545704626643
14.69462795196177 60.13189242130332 0.353208279651483
14.677124431659053 60.12362423882139 0.3290118891686163
15.586981091338314 62.23029777908002 0.31267114990683226
14.780365581114571 60.102988330597455 0.33567689021068603
14.767230151167782 60.09783126546177 0.33816645523375694
15.703754840290594 62.21108817869259 0.29319877679812106
15.684515695889447 62.20406008978664 0.33182070413847575
14.865482064985013 60.07277765438406 0.3207073015307055
14.875921745055008 60.05836495202579 0.3082833044288072
15.790706718989856 62.18323684899961 0.32178540187347376
15.754756780528673 62.18214961890919 0.34055969029208866
14.971999906330757 60.03402413632349 0.304507228649148
14.941117524243815 60.0339757936197 0.3165011039785085
15.876353558670774 62.162846041490205 0.3273529548828895
15.873296759798365 62.12108320014279 0.35974307214971074
15.064981912291502 60.02071023615013 0.3123163770836658
15.9639060177721 62.130898088529676 0.3111414478204839
15.162094050778927 59.992231575162236 0.3188435591027665
16.09676548809133 62.136290623116594 0.32365126254979504
15.257549588224554 59.9590913425798 0.3238677598514512
16.2147898319584 62.13565665919362 0.33460374293036105
15.40209391393644 59.98821062158929 0.3265716797559859
15.35420047933761 59.94943157238581 0.33745500368723175
16.29135697097493 62.113888540051164 0.3407196684955513
15.473639421236445 59.97241383646664 0.3218700549851716
16.370797446089977 62.0948565275136 0.34736032996381405
15.576419489714125 59.94787396844046 0.31570645359423755
16.49542444685779 62.03624848217048 0.3158542508566889
15.663796240482542 59.930785593898 0.32255882699032923
16.57210645211407 62.012748844656315 0.32493919429275747
15.743440819277671 59.90170756041789 0.33002014682552977
16.666233087575606 62.0021131793771 0.3015698869514368
15.884006470070377 59.834322562695 0.34462352938393204
16.78402060636286 61.99021341286991 0.29100912638716736
15.981731678767243 59.81730339568651 0.3525559587902982
16.919242213216933 61.95982564081675 0.29867382770430817
16.864980611764853 61.971952974104475 0.29558175133688197
16.084667381442376 59.82200373908718 0.2748663108305374
16.063858882692372 59.79949119141804 0.3135454125348072
16.986343501375146 61.94453708623114 0.3025180708065568
16.173087254378046 59.78886204090856 0.29513305417475016
16.15659773523677 59.78411724796727 0.3673128481189139
17.078996656669137 61.907841487345785 0.30751054805646166
17.031421100946634 61.90893437800396 0.3045143568777559
16.249720181934258 59.76956639048652 0.284902995357159
17.128421119312975 61.88632407081504 0.31015772818888654
17.15338189698128 61.84867839879018 0.3109454623369644
16.366195531073128 59.73602027281112 0.29190511929490076
17.2153406030545 61.78528533254585 0.3136555491295604
16.448957865044516 59.726322817610736 0.2962593397462671
16.55462125649469 59.69660654205798 0.30268449890897847
16.667295917660024 59.664720411765764 0.3095926795603402
17.53279498760601 61.6850496686974 0.33240194113452054
16.74038971182243 59.65185675629448 0.31375475031033734
17.58414221865207 61.67198230373705 0.3355244805767794
16.838270461316657 59.62371293721569 0.3198422674013783
16.963762375751678 59.592704734719014 0.32746999750675837
16.92119945492037 59.6005657921588 0.32499163415851867
17.819623463744406 61.60629938058029 0.349887285641263
17.027234928658743 59.57873563371279 0.33127657860811327
17.89151967719123 61.59224524015169 0.3543750502035185
17.134455728313196 59.552169151037454 0.3378609888374128
18.022923629904962 61.54740353793763 0.3623935472932716
17.25183800156918 59.52174813967504 0.34515349860416666
18.099596735626513 61.530781409351434 0.3671936112587553
17.336252773224786 59.505682426509274 0.3501891457235613
17.432477503059058 59.477317855419535 0.3563482178047593
17.554014004466232 59.45188679202277 0.3637420284566417
17.629923762845156 59.431750175204115 0.3685461853759639
19.766475270681685 61.145346370479906 0.27965844873630813
19.88152938814174 61.120924806557326 0.2830108633863079
19.09068454608036 59.0740936509589 0.2736224183138877
19.203415438926793 59.04128444280839 0.27697982364642104
19.406842523452944 58.99045630695985 0.2828923621521396
20.324863266822604 61.05866995505419 0.29603565418250577
20.368538558252446 61.14204398752011 0.2976785822297796
20.341368473047915 60.99495378125993 0.296312924334667
20.318801279459375 60.933115615276954 0.29547726390697115
20.28607536772585 60.829721143863395 0.2942894684960084
20.2600708500565 60.72745032193557 0.2934051646920721
20.236331738097498 60.635363512690795 0.2926775357607067
20.221466754146732 60.57360559108451 0.29226434204217505
19.60400816774945 58.92170350010078 0.2889310202573796
20.422188240770193 60.51388001908509 0.29823123699022397
19.887949858979653 59.2725650808166 0.2913702852402792
19.856817820193054 59.17282131492571 0.291811597127245
19.83349442548326 59.08125196237314 0.2924400775440534
19.81034506473693 58.98934031483394 0.2931586469937082
19.792227808651614 58.90485373354345 0.29395807806646645
20.008785364864654 59.29677778459288 0.2943001914156476
20.539943190192776 60.47521272522416 0.301753393134287
20.22316215419154 59.24316066852217 0.30069840737700354
10.924686604227544 62.79186816150489 0.378820458530145
10.902092897876123 62.726442192389 0.3786223392643024
10.848035721874915 62.57740923133147 0.378600638475852
10.8316684251426 62.536321189102196 0.37876587089173436
10.904260975173496 62.692635017064156 0.3775983383053446
10.88109925798665 62.61944045029875 0.3773460876936095
10.833694067121556 62.50915873052713 0.3779993474639366
10.807313883827264 62.41835194228811 0.377810060150965
10.78344091507468 62.32023840127458 0.37742762993609136
10.753847181671235 62.223568255913335 0.37762552222784596
10.730893979174722 62.1254256337626 0.3774762595765457
10.709682751691929 62.02674432174648 0.377342996477897
10.692725253988154 61.927386946781965 0.3770452167114517
10.66390262967584 61.84888087903936 0.37801531309859154
10.721385767536034 61.772562266909404 0.3729217402607286
12.483317381691279 63.03239607409507 0.4599821920291286
12.701815059517067 63.359244172455035 0.4694686136880767
12.70617461867769 63.33239824658517 0.46628166927096426
12.565310343841794 63.006485707544286 0.44871259910703554
12.663234836926925 62.98332433548372 0.43608453721506774
12.840775311783592 63.10170269742317 0.4296202927944157
12.83588415031452 63.02180765634469 0.4220731492221347
12.770092106213893 62.978549924262246 0.4244632809138749
12.875385575466392 63.008439185437226 0.41679717374165376
12.847183181988717 62.974213432660825 0.41617227510975563
12.9702896511945 62.97050545821051 0.40363335481490736
13.230869973907613 62.94191471661138 0.4440443464834266
13.196498777228598 62.918656966064155 0.44456603456265975
13.256419043931249 62.95839373106212 0.4436514346117109
13.393586383453455 62.848307913242 0.4139494982683325
12.545537570903752 60.650981728462924 0.4141006474344634
13.511645366100423 62.87654345536144 0.4067957516939222
12.634043578687532 60.62962025722421 0.42498114227146244
13.59182602970885 62.831677532633826 0.41239000895029604
13.374353205980889 62.19551625220702 0.374228709729717
13.218845333013288 61.82588529429905 0.40196776031137454
13.107581587872813 61.500524513679736 0.4287159444631136
13.052553692291724 61.384777503245815 0.4294436075588685
12.731781662139904 60.60259983267899 0.4271218780584517
13.656240882911584 62.78465866205647 0.4043271588469991
13.659261857856688 62.76654488997741 0.3994629421795725
13.428290281516722 62.161836534885666 0.4442074366798006
13.449513195649958 62.09554649931433 0.42927934262437806
13.334082270834813 61.84488657383908 0.40790820192860855
13.29747241926318 61.7946976610456 0.40876413903219544
13.274779114005181 61.729138758892816 0.419181110880126
13.132171818731102 61.48330505650491 0.4174490142971713
13.130750469797391 61.43572802501686 0.42297363500309854
13.116167945645818 61.345000520682746 0.42205119387648793
12.993188191130836 60.9466290920588 0.4211137339591503
12.819115538741702 60.58047801902875 0.4315688839852725
13.753091122170286 62.70087810169735 0.4422821944486477
13.466048133886021 62.041953908947846 0.4009718848386189
13.43768651542024 61.94731425690421 0.4060881083972615
13.406495497304897 61.868294374133285 0.4015822468373491
13.191450914966534 61.27188520828602 0.4059507809293762
13.209647638608846 61.20943436196893 0.38534212550290603
13.155200889129588 61.049345503016255 0.4146237336789512
13.114238549849793 61.01724775031761 0.42210461194785226
13.010133664832674 60.91099448847691 0.4227190208376412
12.997509284010894 60.87975627131754 0.41213441963305075
12.922211968858104 60.55768684809359 0.4098389237083851
13.835855795845578 62.67854161625465 0.42772339397993553
13.220199325455509 61.16746703975344 0.4040885013867007
13.192240194641787 61.08962973012407 0.4089500964594121
13.013065114834546 60.534943528876 0.41336394446210933
13.933671124954698 62.66925845631271 0.39109729619797
13.933542031552493 62.6530436277188 0.41234731053381024
13.133266271172616 60.51639122628022 0.4581551480861111
13.10739472874653 60.509733629576665 0.4314034086185396
14.041117676266149 62.63155804220135 0.37704801026972024
14.031427143739949 62.619208499754855 0.4256229372418791
13.221786634491663 60.485791638596595 0.4206461992319509
13.182709033634636 60.48835261708825 0.42019867890213347
14.141064762099115 62.60366052914544 0.4286968610465733
14.098286127992996 62.59744410950371 0.4427978955285748
13.313643362177789 60.46087425150698 0.4091923186614774
13.29902837256273 60.446298716354 0.38702560377656653
14.225172743054546 62.572861548779606 0.4249291414412033
13.40444239333032 60.43394516610344 0.4221539391212416
14.321375179591053 62.550065937751334 0.4169342398158704
13.558231260084606 60.46949545478244 0.3864338475140962
13.509124349306532 60.42935559277745 0.4314122209562498
14.42141028334624 62.533033330355956 0.41175744815147597
13.585446836700296 60.458427517270934 0.3840503594564539
13.613512288689558 60.40090843091701 0.4120614433588568
14.51623117266 62.50090483872207 0.4059774743667806
13.740021845508826 60.39224144070815 0.4072780685015554
13.70393961591144 60.376482384068524 0.40247081100404297
14.61175337675889 62.47395184398208 0.40319728482428113
13.816685633680931 60.36304519705236 0.40026162664510573
13.796181464511298 60.35630794630876 0.39836000717507103
14.71055334233022 62.44883649020009 0.40317795315849686
13.909325988718244 60.335035210134706 0.4079506249476536
13.873797884883864 60.33237869885287 0.4041931664481035
14.80804273764721 62.420779322885544 0.4045009361605431
14.001210288983096 60.309302132802976 0.40572762159650444
14.905799133848088 62.40492260026058 0.38797661847261
14.90344506828164 62.393287576576114 0.4077570083935965
14.098187487237245 60.283583179919546 0.40541601107436015
15.01654729124903 62.36559193599013 0.41332218984540336
14.992224397816612 62.365067731093006 0.41336319702801055
14.197185708453647 60.25511445063037 0.4081492153571856
15.099188344489308 62.342257503753885 0.4232136925073471
15.064203919483145 62.33614711699464 0.3921067626106047
14.295741444915127 60.22346435271006 0.40310381171222787
15.19616175557053 62.32452036335658 0.4305572306182147
14.387853850436825 60.200693364039346 0.3976981519422909
15.28998622435747 62.30188101042812 0.4353727992705296
14.48695571427906 60.180637720520586 0.4061288546868468
15.39254708936235 62.27504422775054 0.4036104252474498
14.617505123015976 60.16123382882617 0.39086506141668736
14.582142739201453 60.160648456871485 0.41273998515475213
15.490773914988715 62.24935785933827 0.4121503562032761
14.689502493345428 60.13546250512113 0.4162380409122923
14.678174375952072 60.1268672563446 0.42544553023460374
15.58860207284222 62.22641430924561 0.424094885514145
14.794075874652075 60.097722860176354 0.4443397379267429
14.76290416992283 60.09945217408576 0.43562624047940546
15.695398298517244 62.21060002112117 0.41027710788767613
15.680336497633379 62.20366906953816 0.4368397866607053
14.872082327559717 60.07749018739379 0.41988537357016265
14.868544495423519 60.060560330757745 0.3746735936183476
15.78637990191922 62.17866116731232 0.42046852193091144
15.766649762971419 62.17929046203479 0.4175617402346913
14.972428023857333 60.04632567315568 0.4085097140287282
15.88090953372273 62.15870369486826 0.43288823219545686
15.079671421195574 60.01729360304979 0.4286320047191991
15.97409204625593 62.130477419924816 0.43120022595930485
15.935539247619436 62.107828053705134 0.3716756891579621
15.163640011355753 59.994485120363954 0.4332787796978898
16.097763263465676 62.13605928294702 0.4265322139282411
15.247673043338116 59.9665815442482 0.4187075671340274
16.203691775606597 62.133505587601796 0.4069909634519912
15.389938680304066 59.98978374671351 0.42885322870498216
15.349808366943703 59.94580833113526 0.43132658394870266
16.295987908849945 62.11386906516487 0.4174930479465655
15.476521224824335 59.972465166682795 0.4166135468844463
16.381293354007973 62.092765719515626 0.4271780756683152
15.573159787204174 59.95201064057037 0.41868278735037046
16.48896588115129 62.035779852320076 0.4396437844526517
15.668865624043658 59.928085172679666 0.42836041695713734
16.571465886237128 62.00573164207711 0.44880672197287175
15.770232478060606 59.891336958887194 0.4078380632342501
16.676489841645992 61.99310484548897 0.42594114674078043
15.854348230430677 59.86262304174831 0.41851659281752246
16.790469195056748 61.989907291283195 0.3836819554792977
15.957225179378108 59.826643518800736 0.43181151130050427
16.895997153492694 61.96737808327438 0.39311212506503823
16.886295115870617 61.965044232061345 0.39209669413319664
16.069640333070716 59.82239571887981 0.4430474775691891
16.05326995548733 59.80839900244533 0.4428179115019564
16.99610916219809 61.93965640662904 0.4019512552251392
17.013254397076814 61.91342457703896 0.402807891131969
16.172692859851548 59.791316398864 0.45619222002275944
16.15896022244036 59.77669876939845 0.45621224716503983
17.082421568618905 61.90166647456411 0.4092275553206097
17.05994305208546 61.89720253051228 0.40689867329632873
16.253787093639737 59.77137491659416 0.4207086145018521
