ply
format ascii 1.0
element vertex 825
property float x
property float y
property float z
end_header
-2.4386210472922185 9.32558932757958 -0.013468953725406164
-2.462402195873594 9.248230953280698 -0.018929692096002537
-2.4952079307265933 9.158041523310041 -0.05165025449012692
-2.513919349057182 9.081524828746502 -0.0519337360647133
-2.60866458649745 8.519185777268017 -0.08046956586542747
-2.6262291796980435 8.466055968162406 -0.04562803540655015
-2.6510316807693686 8.361391972256571 -0.02896209772912106
-2.6781188623975067 8.26010291803411 -0.03799411026203213
-2.704661589237194 8.167805105457646 -0.04656955254449403
-2.726153733883432 8.079647310136192 -0.054565144477522864
-2.7533379894220733 7.975471872233695 -0.06433649313614549
-2.7755353531778253 7.89630435826541 0.011585754939700044
-2.777036259392542 7.867217915621623 -0.04609389838639137
-2.8035013333826493 7.775433638726289 -0.035760596780027215
-2.8249173159458643 7.682628899680167 -0.001911124595335073
-2.8520472183737278 7.588909688100148 -0.008242327894906247
-2.874953072061664 7.494586848505955 -0.014440013325820136
-2.9003610188011164 7.393996241529594 -0.021157930903406896
-2.926616319799486 7.2870980619002435 -0.028324315716522996
-2.951544970159206 7.185634307629551 -0.0351812287864704
-2.96586445768083 7.121642338543879 -0.03946060273994134
-2.0571744343029184 9.219531218936801 0.0031595490395552733
-2.975275495492818 7.081500356666986 -0.042172378839867686
-2.999792429928706 7.000160016585423 -0.04796452155138685
-3.0251258921910043 6.894853644163588 -0.05518598196228443
-3.04677370799707 6.801483939981642 -0.061582038977700204
-3.0718280109919425 6.71083925483626 -0.06800836359470369
-3.081670098842225 6.640765849532823 -0.07256883362341467
-3.148319433083367 6.491262979069761 -0.08435386514629276
-2.0440354138670913 9.222825981531345 -0.0015449236703839464
-3.366962168029037 5.531502038557822 0.010846675803343205
-3.3813388111181895 5.470998195801857 0.008618897227758958
-3.4038180260664848 5.394547750313076 0.005678954828726303
-3.4118892535500818 5.344393109821504 0.003912752658654116
-3.437474594772635 5.242567237300638 9.162571090349375e-05
-3.4664324629107157 5.131347873347318 -0.004109790845067032
-3.4872802354226717 5.052057630614489 -0.007097176004059326
-3.5136405263163137 4.939781138224188 -0.011292386242902068
-3.539398061444721 4.827339773600944 -0.01548711211729753
-3.559268002788303 4.745593912707589 -0.01854651036291112
-3.579454044075962 4.661907109762107 -0.021706507583565515
-3.5973549128421203 4.581565627047922 -0.02468698296194223
-3.619057942441144 4.492095465921633 -0.028074665626448392
-3.6521866673170944 4.353813017503246 -0.03328078082052632
-3.6977338130402835 4.186188037232341 -0.03970661981120503
-3.717776201646821 4.094018918966881 -0.04316680211425933
-3.7481652055038817 3.9780330165463624 -0.04759040440448155
-3.566346643193496 4.224445458772044 -0.03595130263052061
-3.691770548864945 4.048849358844717 -0.04417792974275089
-3.4890069213323343 4.194056868473974 -0.03557484237170515
1.323773484945645 16.525171898002597 -0.047540238755208936
-3.401179894070051 4.138830193603076 -0.03591196501775129
1.4242751873979618 16.50150454464969 -0.047848035422408425
1.3727267304196342 16.511888011873395 -0.04762440415457782
-3.320492549732353 4.089615289533405 -0.03624766001149243
-3.2813869078941367 4.048478185039501 -0.03704230294340782
0.112814865044091 12.83443898460519 -0.04336048640634292
0.08771120264161847 12.737202760604735 -0.03663016722232708
0.06646961378297878 12.651215436985634 -0.030693306384068905
0.06342570650973345 12.58230803067444 -0.026278032812907193
-3.2605734355748415 4.044712570904261 -0.03682462471023955
-3.3153240402696786 3.8410312056360265 -0.044772064253377236
-3.4023040142194136 3.547001973778487 -0.056329175587412725
0.11579323074265169 12.53467700548631 -0.024570002075157887
0.21365008670262875 12.507797247336121 -0.025410191414824868
0.31445797597001235 12.483894501273843 -0.026678098758536994
0.4518903669686345 12.477291238070892 -0.0302348280602774
0.4167857014441949 12.466691924113581 -0.028562795503131816
0.4807595267433016 12.425668264246944 -0.028000608644821248
0.46418278081203845 12.318881801137596 -0.0211148394202125
0.43977802070126315 12.214286474048805 -0.014141331100329689
0.4172908107580351 12.117444087622232 -0.0077021221185403915
0.3928928449611553 12.020644818909256 -0.0012240488822532272
0.38012239885761834 11.963386797787111 0.0025498777890775384
0.3654085717433777 11.904845206313892 0.006447544341369155
0.34850684983988445 11.831198241274869 -0.04538513072761251
0.3255338923623883 11.736897160451576 -0.07391286337428761
0.3011177523656572 11.631881571113421 -0.06352091398547059
0.2755542290081492 11.530717500475806 -0.053448923829020334
0.2502807343479818 11.42875657896103 -0.04338527371570956
0.22666361148223868 11.32701698552156 -0.0334973369932382
0.20169348641531415 11.230178785252821 -0.024011851355132854
0.17351351229964496 11.138640593092806 -0.062327862045369525
0.17125966380423363 11.116921472022073 -0.03308820885896993
0.1514571502577846 11.03694641521083 -0.03964829333573619
0.12892754136732054 10.937029303602896 -0.026811120518234394
0.1092922578362221 10.846713298461218 -0.030964609091717388
0.0832471998640456 10.746667928751009 -0.0379996270878606
0.050114997204784295 10.64806952134792 -0.04945182181227678
0.029434782175998375 10.553330302433487 -0.04229139602889641
0.09320497110456682 10.50221330514066 -0.042616842144948805
-0.4794325935659819 8.8826264223381 -0.06259415116684428
-0.4910867583218764 8.851424868242002 -0.06629703492940742
0.18961807614429205 10.473593911209177 -0.0512821670154953
-0.30161368140948985 9.095373200530252 -0.05406925960801644
-0.35659167027563343 8.985419209309848 -0.029939390392338006
-0.37331690271876417 8.910324886629919 -0.022206286654430377
-0.43744368414849677 8.76926672022992 -0.034465767928949245
-0.4401363092243836 8.696566798523177 -0.04434869555650238
-0.4660275551719081 8.623222914783884 -0.0502605229155708
0.25733424141817207 10.433416031290767 -0.050483696053155155
0.26242690254488 10.370492381311854 -0.05238532899949619
0.19033535947744085 10.070679122561359 0.0044708344265253636
-0.20899474179814248 9.093573723870845 -0.036094169226439404
-0.256069657755597 9.104691444613792 -0.03977058228771446
-0.43526984984486417 8.68174194300516 -0.03379104175467956
-0.4630544283658218 8.592641429341281 -0.0390085934590281
-0.4810874331731152 8.54665603607239 -0.08358667182175758
0.2224614435897807 10.103773417971441 -0.0012669472711223373
0.19744962894882678 10.041710192390742 -0.01223086533180369
0.17637329795389078 9.955422947010199 -0.037875882990024645
0.1427655261634968 9.861591329326167 -0.05145715471571646
0.11124544975909534 9.767297784692799 -0.03864525286067881
0.0926026321893405 9.665395130058087 -0.033983696149975845
0.08158732449116579 9.566248914469485 -0.029643522123320193
0.054720385420753415 9.466917267567316 -0.03301404281243786
0.029629047468619607 9.376507238048466 -0.048898681573314756
0.00016719992133262807 9.28851638556924 -0.0671996909222466
-0.039752502587552474 9.185746784925817 -0.046726210720000175
-0.0957291499437467 9.084131756669272 -0.03814003909977488
-0.6700810378593336 7.7778580652170985 -0.08373448315549706
-0.6840423907731735 7.718816885123404 -0.03101822786744067
-0.7078036304241904 7.625098267998631 -0.03176184705667795
-0.7283040127193664 7.529878066303004 -0.04128810345859393
-0.755881686928438 7.430486787375033 -0.05117079193210247
-0.7816190650352417 7.322206908538663 -0.06215329733361233
-0.8071573097437528 7.221478242987173 -0.04393645931956576
-0.8264853004441899 7.130089545656277 -0.03781386261249407
-2.20019175413059 3.5219699827439364 -0.04423252178030038
0.0651012827697921 9.434129373164824 -0.026410564607079093
0.03812502954709074 9.353437710778207 -0.0204360359352576
0.010289718422083816 9.268296710291205 -0.03132937896042916
-0.02721265332354883 9.179099382021551 -0.03154180611773781
-0.055808251799920106 9.09798450062568 -0.03867886392394414
-0.8499928495498195 7.026229842707318 -0.001298391291554013
-0.8730974280936363 6.938960908817156 -0.00736947819996938
-0.8972571893559049 6.8388165262388805 -0.014405209003640972
-0.9231327056486455 6.73058122481733 -0.022047238610343828
-0.9476204776443604 6.643635916906492 -0.028175072762647926
-0.9727365786734556 6.5330040220009336 -0.03606291865313439
-0.9960792356653737 6.452354569032758 -0.04179091674026621
-1.0191313320383555 6.344017647257308 -0.04956861240465822
-1.044927731016236 6.2660807552951825 -0.05512661647937177
-2.1763516422861504 3.5319930879601253 -0.04369967091536227
-2.136774182968236 3.503064260194135 -0.044573953378977835
-1.0718961553093436 6.1484713570708625 -0.06360597044014372
-1.101023740543405 6.0546693673753325 -0.07034916400412407
-1.1191667647871077 5.973762889805255 -0.07620233628167715
-1.1448582224668509 5.860778149991759 -0.08440703872054184
-2.051779420917744 3.490092020178283 -0.04462712271421761
-1.3785413076956243 4.875990835447338 0.009516306955405493
-1.399811710838116 4.79310580332948 0.006348661297479984
-1.9476729094091856 3.461186117111171 -0.04527489957624585
-1.4227629742722518 4.688306906575141 0.0023689948753043283
-1.4455641615555854 4.597623233347803 -0.0011028584856220963
-1.4690221656844102 4.506994059889496 -0.004548251046639792
-1.4932754490822924 4.410514920234773 -0.00824802119626513
-1.5182837274340226 4.3100946220101095 -0.012073211295634406
-1.5447221461707699 4.2058835626629865 -0.016075072934605
-1.5724008164784777 4.101781978150221 -0.020047834626776256
-1.5994874362824971 4.007780840815758 -0.023669891365606183
-1.6295112930649802 3.8819509086889754 -0.028479031079617953
-1.8516582672579518 3.4426978213306363 -0.04564516650094466
-1.6604451557858746 3.7583211847753466 -0.03324000384646297
-1.6984556356507001 3.571137006805327 -0.04039899196896882
-1.7671403264449084 3.42132903807096 -0.046234058789980104
-1.5041444382564781 12.943769315861552 0.08550357505055212
-1.5357270770550235 12.862006161066498 0.08816360813419899
-1.5586410590828454 12.771128476785833 0.09108590811638026
-1.4337622836307986 12.939325781691483 0.08547924630604009
-1.5841589439981478 12.6692118622477 0.09435677421036066
-1.610196858129753 12.555073158682626 0.09800529061982288
-1.6325500011369114 12.469506004718703 0.10073685160822701
-1.651211433086433 12.374653592425355 0.10374831828806949
-1.6708736726700448 12.265259951477487 0.08823060559470496
-1.6895946440664642 12.172904705529696 0.06372999787931412
-1.710567904428427 12.09970508651949 0.040337085534681114
-1.3384320254097528 12.90907794864257 0.08617733936104688
-1.7239195434678634 12.034857794625086 0.026373387500155648
-1.7401350131039939 11.973537007074025 0.03024077673215167
-1.7669682540434484 11.877385525510078 0.0362510692810691
-1.7883928845920332 11.774147684453954 0.04272175278128411
-1.8044389986349598 11.704379749081117 0.0470428531111952
-1.8399957629839605 11.582865836096088 0.05700088244686652
-1.8618311600012778 11.480242074526618 0.06306577489608958
-1.89092043571531 11.38258741442811 0.06862402592819589
-1.9202972837720527 11.289068427153438 0.07381058513052297
-1.936199990800136 11.228844985416027 0.02679062817534408
-1.2459401452643835 12.886360451862934 0.08659648132679233
-1.9363936934055401 11.179571283597392 0.05641819085107846
-1.9534985326535048 11.08880816761056 0.05201245460995958
-1.9770617379457875 10.994667035833109 0.06294776145985657
-2.001498185254321 10.898719453569374 0.06782580641802341
-2.0275522356149325 10.80043728120305 0.0737319134106612
-2.0517586916364015 10.701625530427886 0.08085705350883572
-2.074421663874097 10.599497322402918 0.06650067702738724
-2.097923048466804 10.522807878859336 0.06417848280924057
-2.1360521939245647 10.415288258008967 0.06425930822727335
-0.9885061397768324 13.163483395071363 0.07668661167342368
-1.0035463794839088 13.100085148722183 0.07877276983608805
-1.148497190750303 12.858160738298514 0.08712338365225342
-2.0769433724885658 10.56160543792332 0.0639915620462404
-2.101450207019193 10.48915006354751 0.0390505948454968
-2.1242821438204462 10.407709719137038 0.047063844505926405
-2.1493482636008507 10.311492168963309 0.05396844692728307
-2.1747286844563773 10.21379807401222 0.05986120215212186
-2.2013638892285208 10.116550163990365 0.06286074728236503
-2.2277233898871884 10.020046310921993 0.06505062366475103
-2.252456038183103 9.922337749987406 0.06747343329877027
-2.285515454970339 9.842856970710033 0.07113220657104546
-2.3002621216531405 9.721489852783591 0.06849029056621472
-2.3290804528781637 9.6453759472465 0.06768419934436275
-2.408080882251877 9.533148872876938 0.05997064361185096
-2.421270892503346 9.45612153779193 0.059417989802172506
-2.4478653861528663 9.351255498630382 0.05624511630515609
-2.474390079603271 9.258897727496764 0.05504920977498181
-2.4994159362369563 9.181091587537832 0.05255606734519809
-1.017817590642992 13.038573448129151 0.08080409704610134
-1.031121998939514 12.983029769940618 0.08263086126694483
-1.0505460734891376 12.911578604470849 0.08499907696516476
-1.0811269382369315 12.832258471018037 0.0876641220647745
-2.2883976829369646 9.711323393503408 0.07340862693093626
-2.323586825765241 9.60727110348522 0.06981470789278355
-2.3405238960615655 9.56486888171408 0.06755140017991951
-2.471324856992541 9.237806801557076 0.05697253276163136
-2.4999882069021684 9.152855252009244 0.04587462539699725
-2.5177860623896353 9.08551561754344 0.044564754896698935
-2.6379464669907664 8.438818664128767 0.06663397658933237
-2.6540320949924086 8.367706218529966 0.07687572354077735
-2.679342816767621 8.270708239097898 0.06596378297155021
-2.708166010908924 8.167031503977942 0.07042054377916447
-2.7291708688892315 8.071281140417462 0.058522026609733116
-2.7556700399542353 7.97269930068415 0.05368308345123685
-2.7794743283890004 7.890744024167347 0.09445361501634508
-2.2425875477493804 9.164617633246873 0.05271556864412947
-2.78568756457344 7.8488385921627515 0.09324626419965432
-2.80483013688257 7.773192726064444 0.09078697896190398
-2.8289946177976093 7.679926165023476 0.08769993472931395
-2.855177005409131 7.5799167105878364 0.08433656661858743
-2.8822636505141945 7.48019134062919 0.08091573572296504
-2.8996064975903852 7.397064475916737 0.07819228180010596
-2.923764805412326 7.3015457612767705 0.07490735126026682
-2.9505790774792535 7.198062082929906 0.0712988844065017
-2.974170836814583 7.103621242598992 0.06800775916795077
-2.0630982797797093 9.223555753235372 0.0385403899084269
-2.9855010317680213 7.051656408498976 0.0662262967564976
-3.0037041502293125 6.9875665501133 0.0639145856496437
-3.025910434919327 6.896382031649091 0.06070023021277051
-3.0514285309376197 6.797364538412106 0.05715900034103964
-3.073401428580574 6.700435948997007 0.05374651714732478
-3.0822015332672805 6.631520374994794 0.05148702600396688
-3.1634168435756536 6.470917613852263 0.044653950181486685
-3.1912801076097157 6.403287127466728 0.04192286422762346
-3.21189424678255 6.333425075605689 0.03931671214970288
-3.2356137192015075 6.231042797329298 0.035642209140427636
-3.2638469124817466 6.118480630645875 0.03153044518071045
-3.289751353794569 6.021970818203439 0.02795368513163578
-3.314654826532662 5.922755620277456 0.02430706837150203
-2.042945434995763 9.21898439099517 0.041186120173142965
-3.3528316212892393 5.813024664220665 0.02000958289959929
-3.3208283720385143 5.759915347433633 0.01909262552037718
-3.343574132891552 5.623611397469851 0.014289442431406847
0.1162615034176 12.857817952148551 0.0776777131071984
0.0876771886966039 12.734957794430573 0.08174084666223305
0.06267739211147805 12.639539894380903 0.08493374419677742
0.061482053138134596 12.575508459054578 0.08689902854537249
0.12048968733938126 12.544051907966862 0.0872022934779794
0.2211740562479816 12.522478794918225 0.08669637037858338
0.32322808066759534 12.499958435286747 0.0861475326488388
0.44260446610142856 12.483076541530819 0.08515642679465682
0.4140561944179697 12.478439439522553 0.08565377097800767
0.4779522714416369 12.476242204271097 0.0848977443399109
0.4745661276401807 12.413847260133936 0.08678411013113072
0.4622903602064876 12.314757358302733 0.08986042592033106
0.4415337086402462 12.21630315595764 0.09301995140955031
0.4126357612093894 12.109119282219918 0.09654211043905678
0.38982087350677697 12.015055880478997 0.09959005325029564
0.3704221129546381 11.938588945012782 0.10207747614908341
0.3654778840454629 11.89538690487755 0.10339640804441072
0.34259691960459837 11.808351004544651 0.08761142724286253
0.32268142452198934 11.720440770611704 0.05865549523481982
0.30050201666768284 11.627796706651148 0.05402135152395566
0.274038137624129 11.521427254288822 0.03161906652438222
0.2507992177558307 11.422385096200992 0.038031574282722996
0.22678730003223335 11.320702261706066 0.04458093392972222
0.201865496765965 11.224343852902404 0.05082702318676736
0.1804576900838628 11.159206726642706 0.05519914451593259
0.1726574633475757 11.117433359493688 0.0577650047988891
0.15536760809978012 11.041137681644539 0.06253790798070355
0.13201235946310752 10.942593169876394 0.06868863288127752
0.1079006999646559 10.832169855255243 0.05349350034157778
0.08441113986827098 10.739650071603968 0.05479955893545793
0.05291611342434388 10.650899830092415 0.052361253779568157
0.028714491938544695 10.553160117996482 0.06866169652422094
0.09906638596913275 10.504904627532515 0.06458402227983276
0.19321989442311427 10.479544222799756 0.05897880319383032
-0.3564855637509212 8.971071723576964 0.05851175498999417
-0.3710830935513447 8.922121673187675 0.06120826955286628
-0.41268150883579147 8.781775428331063 0.081575655695298
-0.43903911451767985 8.701758232191038 0.06849911104356195
-0.468883247356333 8.622528489028165 0.06670739643077656
0.2652301967337729 10.442251774244111 0.0563910047920371
0.26227053207172313 10.371858639435146 0.07435608551198222
0.07832647628695533 9.761805267234712 0.03209353666717345
-0.21728329391329804 9.097190068364972 0.06527139577954585
-0.26427963192051296 9.108155293338534 0.07115127572237279
-0.3521045083859691 8.907460095559887 0.03140475425485119
-0.4035092508629887 8.773477530567012 0.055576346599327045
-0.43424158316419115 8.680590051408384 0.038030171749479896
-0.4583891923409603 8.614575333255967 0.05739405217418149
0.19743232270938127 10.03010462554425 0.07075310704311999
0.17498870255628263 9.950345306595631 0.06961942552232372
0.14333160461859107 9.863139140226926 0.05315662437279087
0.10964222988536054 9.767627865895605 0.05029202657738924
0.08806402714917883 9.667849880974963 0.054714930597112764
0.07523985168380354 9.56912041635959 0.05821944576837366
0.04951308601090876 9.473461183157237 0.06223203214846176
0.025493959927423093 9.37778314854601 0.06295205639503143
-0.0024028718268853666 9.282017065540336 0.0613889857022193
-0.04342331161465407 9.183007449638236 0.07075549928250535
-0.09989820328134758 9.090940926687177 0.06624795786768649
-0.6872773027431514 7.686978692442248 0.0550320487385507
-0.7054386325119881 7.622243974984255 0.07790950468696303
-0.7274484804135313 7.533275266638906 0.0669002887526021
-0.7522917984852917 7.430970564732879 0.07160500296356494
-0.7781773110786236 7.324715233487537 0.051589049746653584
-0.8011708940889108 7.236191200241784 0.0731456669480749
-0.8281329247884199 7.140317586469732 0.09370163838084791
0.02984951975981942 9.344918344836946 0.07425023638382355
0.0045684599268136505 9.269230675032707 0.0725195560631311
-0.028575821380738775 9.187414126256433 0.06329228175786279
-0.05671025997432588 9.095486951841755 0.06577016683995315
-0.8510434041398345 7.0335554961196625 0.08986691742133343
-0.8772816812613203 6.930452081419647 0.08617405335427863
-0.9014278222894976 6.82748141922159 0.08244828428048684
-0.9245936668499617 6.74551914186778 0.07949118173897557
-0.9473365965427684 6.633830537047043 0.07538823490419035
-0.9735264539475373 6.539621833922006 0.0719514336009438
-0.9960644552522437 6.443186720953046 0.06839852065148831
-1.0198621122867062 6.352282854630341 0.0650506517387319
-1.0446879748342435 6.240576547209749 0.06089835205791825
-1.0667320237660232 6.169129006404954 0.058262873177817906
-1.0953866136339707 6.051477010487274 0.053875493857886786
-1.1259975258314772 5.941708886095293 0.04978757121960577
-1.1453020460915968 5.8647773175701055 0.046911772061879735
-1.1727240238321872 5.765751410662206 0.04319459034458042
-1.2005171096617617 5.65752534663804 0.03913288531986271
-1.2161638880241072 5.5619061361240165 0.03550105902113498
-1.2329419387443823 5.4783067627876445 0.0323515486883149
-1.2648590443981664 5.351255145934879 0.02755123327037142
-1.2817267074835512 5.279853371062952 0.024835644280269915
-1.319989582585639 5.081324878716967 0.017298993409092342
-1.34792052458037 4.992541497607528 0.01393943740095941
-0.7671438796978811 15.9837182971573 0.20955989152997778
-0.7935856557558723 15.90104662442383 0.20940182304963068
-0.6254445594420649 16.08630491564139 0.20944925569616296
-0.7001757870505533 15.981006531905424 0.20935388609521938
-0.8230791980234953 15.748408902366988 0.2090231970409887
-0.8494063361793673 15.649561145633832 0.2088174468963113
-0.8751647737426426 15.548651306958627 0.20858689022980448
-0.5790022821973273 16.0088055245164 0.20909281802669064
-0.5681723811123572 15.961049198826853 0.208926408551684
-0.4859259469619799 15.959823142185382 0.2087130153200472
-0.5052531524223646 15.916957183000887 0.20862431649460386
-0.38900166109674494 15.963399590650376 0.20850082214798132
-1.5022573117702405 12.927872556246694 0.20337151526723615
-1.5298369985818185 12.862322447490914 0.2033419565353816
-1.5464279212360128 12.808555791110772 0.20328902730284432
-0.29250985797684803 15.899443923990336 0.20811314719134255
-0.31250410759500813 15.858424827525933 0.2080373478988115
-1.4384478868617758 12.927272444867253 0.20300196446294924
-1.556039831571719 12.75186027161068 0.2031812635889918
-1.5783480895052777 12.669031951703865 0.20308327120763106
-1.604970115863742 12.55633692238497 0.20293449263205576
-1.6270798101892696 12.468475878770242 0.20283460644064394
-1.6473064036313185 12.381815452237934 0.202733992278649
-1.6708420535214124 12.27278914927431 0.20260334361464197
-1.6927348283958072 12.169448194304433 0.20248627165528318
-1.7150202014338292 12.081009269850508 0.14323353705247704
-0.21153040585264227 15.87760834363268 0.20790597679399528
-0.20830830652569554 15.823654462665942 0.20773788010135466
-1.3434753645867585 12.898398296760707 0.2024028153954596
-1.716123473411384 12.059287945328114 0.17282652429681225
-1.7393298723285415 11.967697155581513 0.15943003308689235
-1.7642592420500114 11.880279479556593 0.16080189494057723
-1.787032823584716 11.781627398438134 0.1622746040594162
-1.807213622219624 11.705112080059887 0.16897845575623627
-1.8393290812885668 11.579883926772848 0.16604710773979253
-1.8626069844108868 11.485891077890168 0.16538549022195392
-1.8883164933424375 11.387902061924047 0.1671385846277061
-1.9182676908641998 11.299297605946592 0.170169839652215
-1.9353196044527845 11.214900251774258 0.14030862795773727
-0.16413399145771568 15.820968695009414 0.20765920132665672
-0.1453204361842917 15.795705397412153 0.2075688438906292
-1.2513593026752865 12.877081813916396 0.2018830672689949
-1.9306890808301251 11.188720538681071 0.1735558607417353
-1.9503110831527533 11.09035597598149 0.17651344135946492
-1.977854313560515 10.993895604831362 0.1723039287891744
-2.002112034358376 10.89563426097395 0.175858275380096
-2.026007202539777 10.799157631928136 0.1771826858186189
-2.0501038461863796 10.702035205231851 0.17787148412568513
-2.0756803236972234 10.604330196021714 0.1806464342584788
-2.1061071180674524 10.506091649435898 0.1598391721760098
-2.136621593389215 10.421360628445672 0.14898659265818315
-0.9968006933678872 13.117611450902945 0.20158313413583792
-1.1541597131700014 12.849346462294495 0.20136426780011957
-2.0992011902584027 10.490549667042034 0.1817033446655103
-2.1257307685700804 10.405829071840017 0.1641869722498827
-2.151208270458362 10.311026079393022 0.16193129223507113
-2.175622981509814 10.214739553277274 0.1651735524650252
-2.200814559449055 10.117112224399255 0.16629531315154422
-2.228712668833035 10.020064542504176 0.16778256425801713
-2.254208808545431 9.928379926388052 0.17541601132709977
-2.280160183438011 9.846500943378462 0.19399501782755785
-2.304353356899341 9.72410049523511 0.1526913894357635
-2.3321246375846316 9.635815624577434 0.16426088644061104
-2.4027664869818715 9.53967064673516 0.15066411594691378
-2.4255373406956617 9.457459820326799 0.15029194316547811
-2.4492226491571323 9.35435394404783 0.15211847251687668
-2.470408874470596 9.267051127140588 0.15636661427357945
-2.4978320220337324 9.183455469869132 0.16285541447650795
-2.5404280737798035 9.074341401172104 0.12291553769433342
-1.0111801915785414 13.064140084834468 0.2014643960984225
-1.0310236261781711 12.987749019725504 0.20130443143174678
-1.0509754568736782 12.901273541283247 0.20111535998126223
-1.0811804132014413 12.832899416758664 0.20101737643170972
-2.300771575097336 9.68975895129077 0.13140800344657816
-2.316625613614492 9.624613250823549 0.13785579410847826
-2.3410575772554165 9.568306309127912 0.1498708983846293
-2.4699441650265905 9.237765751420673 0.13637641026593844
-2.4917470243752344 9.155148816223386 0.14974978842632486
-2.52316734429661 9.092705740218886 0.1497769631005189
-2.6579585602719273 8.364521408180833 0.1777084249384222
-2.6828940262569723 8.265265149654912 0.17773513163423782
-2.7079803410707797 8.169561616805398 0.1777251152800839
-2.730607059224205 8.074932354011136 0.17771128683704823
-2.755413779085064 7.972932180205375 0.1776705174928791
-2.772209334938252 7.903339943783619 0.17763190177600752
-2.7785626903458294 7.860361288012763 0.17763713929176558
-2.8049484873330566 7.77502233038088 0.17751983978779773
-2.8302410153393573 7.680511945267465 0.17741231785055736
-2.855477951782012 7.581685370581156 0.17729453900399686
-2.87994202501529 7.485258474539508 0.1771693664829889
-2.9034955046067417 7.38641394723889 0.17704181249983225
-2.932809126411085 7.27537482457986 0.17686300396399401
-2.9547991482344544 7.186051465954645 0.17672209720913556
-2.9783329945942656 7.10046120338486 0.1765656939375293
-2.0938964613075193 9.24093149584386 0.1798634783592071
-2.988064791369073 7.050577011427247 0.17649393303643116
-3.0086679294966245 6.983226006342905 0.17635279055458344
-3.0251213093273837 6.900119012724091 0.17622690344889622
-3.0477688360438764 6.805509888750091 0.17605643670665025
-3.0735413232879765 6.713828590612227 0.17585664920952315
-3.085198415840032 6.6411283334935725 0.17574816025699133
-3.1456831061627035 6.50139136220011 0.17530780339784643
-3.197463851882872 6.396766334543177 0.17492109734896988
-3.2127372181086113 6.335282023948186 0.17479568751509478
-3.2368634319727785 6.23228310766247 0.1745851633388133
-3.262737355032912 6.12363492632348 0.174352705662501
-3.2855225693145 6.046190089960227 0.17415530061920348
-3.3112320410974903 5.961275207478596 0.1739421500719144
-3.3317497683446318 5.882700132826727 0.17376238162550603
-3.3500115147760283 5.821527187132812 0.1735942997305893
-3.32833630164673 5.7558518164829255 0.17365700385024183
-3.3385768283744697 5.636460228363049 0.17347485417601835
-3.3721868240032657 5.52592163050946 0.17316872550199325
-3.383715671459139 5.470643717233693 0.1730557143550005
-3.4014973386574288 5.402950544607298 0.1728728531324078
-3.4143050973512956 5.343947280805531 0.17274696137956871
-3.4427561493487895 5.236752025243828 0.1724644353692277
-3.469924066966895 5.1290139191710775 0.17218548732689354
-3.4880891772962905 5.055019993879684 0.1720104945880242
-3.5099667693209424 4.951579301002326 0.17175777256197097
-3.544823781540707 4.821232506309536 0.1714034765182585
-3.554899769615756 4.759116204264161 0.1712799770596215
-3.573407615726829 4.678981553383135 0.17106468996353544
-3.6027681534633835 4.552979932846948 0.17074878467886967
-3.6547377602420297 4.353675711208374 0.17020996573941577
-3.6888403986753526 4.210358679831959 0.16984089384551382
-3.6741118609625114 4.16806821412635 0.1698289723878884
-3.542666921803988 4.282215466533261 0.17057378665238576
-3.597897331909841 4.258358836696799 0.17029483721961197
1.2453514565016834 16.57772827727271 0.20952195390909376
-3.499200517676546 4.253227272761999 0.17069681209363285
-3.457002251039559 4.221681067595041 0.17080195790477753
1.322047782386759 16.5245443557913 0.20952171620631319
-3.3850113050602753 4.1833751414274305 0.171008189510915
1.4478593898842287 16.494733554337294 0.20966333573924553
1.394883387334903 16.501542113071334 0.2095861035174067
-3.2982903638172703 4.123581192000256 0.17120083222593546
0.1066219911563362 12.834564890290672 0.19993661856551578
0.08290099840976817 12.740855531678616 0.19970033600253936
0.06173092338398756 12.654649038143798 0.1994981578839991
0.055841124486737836 12.563407227848547 0.19930861405031067
-3.231780322601678 4.067719613697204 0.17131455526286565
0.12429849680548055 12.540642407002615 0.19942306900764806
0.22443509104798665 12.517923059901866 0.1996545577407345
-5.210157630761075 -1.634035921738878 0.15298284817354818
0.3189112787854096 12.493231450640543 0.19991563434850845
-5.171016925374502 -1.7734644716687011 0.1527863845367784
-5.349001365448741 -2.408461751223479 0.15089359435906352
0.4140441985319241 12.46821186978589 0.20022749100519865
-5.28438479065543 -2.4256327934915785 0.1510130419597666
0.4732126494792457 12.424599998280248 0.20041798322275192
0.45757603508205125 12.319394355698785 0.2002632426314501
0.43016100004576274 12.209398508484497 0.20005654178636262
0.40970188174201483 12.115816167925523 0.19990276648152427
0.38279985160917085 12.014889406592342 0.1997153668136416
0.3626641631587111 11.928210392400825 0.19957756500566468
-5.179578411131048 -2.4602311601898883 0.15119900251543958
0.35132202217456454 11.875262059976393 0.1994955460736594
0.3416942903746971 11.826554857393925 0.19943402662301024
0.31906652237519584 11.73581702834177 0.1992916941681203
0.2922742432725449 11.618471168130675 0.1745936754970245
0.27209918551524503 11.525997010932457 0.1616578029596718
0.24792417155986946 11.425523895689352 0.1549086510880349
0.22075837002482745 11.32578356789923 0.16451001309601704
0.20185281957032974 11.238561773295205 0.15534543914547833
0.17489763713029882 11.147809576387695 0.17475986050949746
0.15352658176421308 11.08563082420482 0.1985063608321999
-5.069364657237724 -2.478831289090957 0.15143123757952265
0.16698425471358203 11.105311839532423 0.1286866684165566
0.1493806510054767 11.042364888372251 0.16455244870259517
0.12292574809296575 10.942475870909323 0.16427708279512385
0.10171075502790483 10.84197544235932 0.16766477277607694
0.08308260632390496 10.746306136037736 0.17053366249667967
0.05056219215091784 10.653590619720859 0.16657567782221605
0.026785566693777074 10.555594861305321 0.17552233243846968
-4.984069359569301 -2.507364124649831 0.1515590191401247
0.09749994202652079 10.509262995420846 0.1723744958688245
-4.918670580812359 -2.51962333217036 0.15168966661526365
0.19209130978769706 10.47941152851499 0.17241454897347902
-0.35579014730952385 8.964559338183003 0.16528226772631258
-0.3742463818043086 8.918433286960582 0.14707638817420848
-0.4142440869719243 8.763691868983793 0.18018080840857126
-0.4404325967111379 8.687284810414589 0.172451993220367
-0.4691287054089569 8.618236928188466 0.1653549898908772
0.26095746347570503 10.43996267765729 0.16997886815513322
0.2589882752526991 10.358052958604851 0.19094872369645005
0.24492948382652324 10.254290699511081 0.20217681803568352
0.2174147404675697 10.158060302633674 0.2025671151452946
0.19440928879167418 10.075485825694232 0.2029638428609044
0.11340593748041927 9.857267881897627 0.20405770436051973
0.07872226290624362 9.774001373920933 0.2045540979742427
-0.21515619943832476 9.096280318770438 0.1752374373424311
-0.25033877262290116 9.104349920583305 0.16441657237438786
-0.39715976788062746 8.78119257923806 0.17990495859594466
-0.43153403364874443 8.688845714704229 0.1775458080279911
-0.4551454495848275 8.622904039503378 0.15298416591194225
0.20041658823523356 10.041578236517621 0.1720197265636407
0.1737923311675753 9.959776437782281 0.18108846103846915
0.13799763747311777 9.860315918137601 0.1618855083158802
0.10495246516324164 9.770258722061604 0.16093827771185448
0.08843333877136628 9.669791293671473 0.1635110532194593
0.07523354803883686 9.569200392873237 0.16348291777025664
0.050512198460351154 9.471532417168484 0.16771031820035898
0.025600874797851336 9.37727688304693 0.16757036752087534
-0.0028324774734889147 9.284165369074696 0.17897345311923687
-0.038933463143888014 9.193098082943767 0.17136074663760054
-0.10880794270652605 9.080213782675791 0.15456249448517922
-0.688168096379961 7.696060539569768 0.1128230401810342
-0.705902812474059 7.61480624033201 0.181187903915994
-0.7295636826238157 7.515300413153603 0.18105105014961512
-0.7555243895072633 7.426030653743117 0.1809432838832797
-0.7781397611996821 7.323026804012853 0.1807608973119096
-0.8015018186794072 7.227861452130831 0.18059543685892698
-0.8260463879108582 7.122086735034779 0.18039492289699313
-2.2024419513047175 3.5178924869503447 0.17150624524408978
-6.034949293997235 -6.388484404894676 0.1397404128960009
0.073811801238862 9.457932953674838 0.1663093723567437
0.03159092784937956 9.340162572960502 0.17552305822097344
0.006617884134011209 9.265619021286783 0.15594078878598316
-0.026964413813795662 9.180327566110817 0.14984561746006805
-0.05396338088997643 9.09796643823221 0.15165664412921617
-0.8503856887580197 7.025162867551028 0.1802108707855584
-0.8736247796843502 6.938333343800142 0.18004779330844295
-0.8978340699782006 6.838273101112907 0.1798370316884838
-0.923639130670962 6.728104029267927 0.17959384862585603
-0.9477863945659615 6.634957442172761 0.17939643538826883
-0.968796622057174 6.546281060265628 0.17919211236653768
-0.9913251903326104 6.449094942695594 0.1789615620737944
-1.0198231215292113 6.339904554654428 0.17871432520754463
-2.130736557568402 3.51690038873162 0.17150266629956507
-2.158174845300876 3.516343374837952 0.17149622700271225
-5.8946103550230475 -6.443422698477814 0.1398989749574407
-1.0451134529069888 6.238113580106755 0.17847041914471395
-1.0669853685140909 6.1576214576677994 0.17828230998889508
-1.0899994300267175 6.076271103619673 0.1780925325795575
-1.120287140593362 5.9574051821586895 0.17779784307467952
-1.145865293102357 5.876065482134379 0.17761664917171263
-1.1664911038616992 5.781228021631181 0.177361540044563
-1.1946290153453079 5.656584800400659 0.17703300054735283
-1.2167125301501909 5.570996504755204 0.17680769168237156
-2.0421640875308817 3.491840588487829 0.17138870318048705
-1.2416305751095078 5.447557890562789 0.17647533957955572
-1.27526981042428 5.2725017994458225 0.1759877799445406
-1.3023108559692556 5.15338095633156 0.17567044175361776
-1.3302133639939506 5.046462197907894 0.1753819576431283
-1.3696954721094403 4.902176652288445 0.17500167887676354
-1.400556720066877 4.795684608861965 0.17471605838489118
-1.948097551372693 3.468477531002179 0.17125303921491591
-1.4235352334218843 4.690814332227344 0.17443568132324228
-1.4469718674547596 4.59008801479754 0.17414314100110656
-1.471666156097689 4.481438585814609 0.1738525090286891
-1.4959991918475701 4.384900541981561 0.17357260652884102
-1.520118296957805 4.298386316923897 0.17335063634651116
-1.5468616047063264 4.192119213034496 0.1730418897006489
-1.5744715237196727 4.089947399111264 0.17277462695011103
-1.6048527063346305 3.956018369487107 0.17237956173921995
-1.8418894314363863 3.443971390077566 0.17107756863551193
-6.689003023701553 -9.359788795152944 0.13093611799399044
-1.6326901038303883 3.8580165485856144 0.17212350209044633
-1.663788698929912 3.734319085493575 0.17175991945815036
-1.7017623610737838 3.5490075206589458 0.1712377784508618
-1.7589756142137083 3.4092997946750847 0.1708617987230909
-6.621559253599982 -9.37112925858857 0.13107940217282277
-6.523805797387017 -9.404303999367741 0.13113807020242396
-6.422184320943618 -9.417295943742442 0.1312486694626337
-3.7607888992568475 -2.824449668196241 0.15239396234561997
-6.3560759092295624 -9.43559172036722 0.13135383364132303
-3.6950835917917364 -2.8351033096005533 0.15240898572794737
-6.288397713058234 -9.456086299301312 0.13135191784315814
-6.224508550939059 -9.487777909683377 0.13140818620291905
-3.3102568231639466 -2.0936889043801425 0.1546887313728424
-3.6074079005847186 -2.843687816687872 0.15241660345306618
-6.160329327549543 -9.51510334623146 0.13137529320980612
-6.057193056769694 -9.529539996513506 0.13149497507291374
-4.37028684530126 -5.451089505255091 0.14451115522272526
-5.954516895568337 -9.545417601227562 0.1316017926969666
-5.855689539334826 -9.575146775633144 0.13160680711349995
-5.794257660371904 -10.049938586444686 0.1303753721536479
-5.725579813339593 -10.066085764707726 0.13034292082581173
-5.623381194488391 -10.100948928833262 0.13035178356142946
-5.5220181721203225 -10.14124827210086 0.13033387634491939
7.357316943558741 46.692494656825765 0.2863964083534949
9.928824269344895 52.420021386191515 0.3009138813924203
5.317890805988733 38.24849294054856 0.26482818580180684
8.519462937106484 46.43609724186664 0.2856682686442823
3.7232666873604403 32.27975342519684 0.2495930815577741
3.8033350942189994 32.266528942907826 0.2495489530942166
3.885468378800023 32.26284539917484 0.24946027752944064
6.408871299062734 37.98289877615582 0.2639748679756859
6.511113270828329 37.967937495950565 0.2640091885581346
2.100016027602019 26.104178779885014 0.23396190955504884
2.186246926411239 26.09315071135383 0.23384557407776638
2.300987593039727 26.067599137900974 0.2336905758362021
4.978952360826496 31.976122416625728 0.24862839598268488
5.057282186855483 31.962857401913343 0.24865965092225156
0.7964145975598527 20.666969270739543 0.22015253371647975
5.137772454998632 31.957062086604292 0.24863821030472147
0.8946212576525099 20.663613299025187 0.22002045140360282
0.8369582451975344 20.6760929803199 0.2201115340429253
0.9704341451341505 20.649444880734105 0.21990195875607757
3.4659868148185984 25.78511474759202 0.2328522961905327
-1.58445675332756 12.642614481518645 0.310923560458706
-1.6051545470585757 12.567194624888415 0.30834864127034556
-1.6300951725305795 12.464886146192358 0.304842948930277
-1.6517594011501928 12.359522783672578 0.3012106291448279
-1.6722341307191706 12.262475947229246 0.29789828817487135
-1.6918687928674476 12.172188292458413 0.29485177930061646
-1.7092406549169996 12.101685060030826 0.2925228928729382
3.5501684586741815 25.758862913631994 0.23281823041842944
-1.7178660675497328 12.040877013773937 0.2904305582004604
-1.7367453108365232 11.972137222237526 0.2882323436151344
-1.7643179888701255 11.878146169216869 0.285297627062858
-1.7871787086145576 11.779886508386717 0.28217745821679097
-1.805744408885116 11.704939210350197 0.2798550066416474
-1.8373346296643667 11.583654952907112 0.275123370209583
-1.8607948720104934 11.485407789394753 0.27215171460843923
-1.8913276028829147 11.381958884524972 0.2692670856005731
-1.9151201273283456 11.299349896779415 0.26703978757363445
3.667233161921092 25.74012858675368 0.23284562156967645
-1.9145584042674013 11.253895407606088 0.2654633685214204
-1.9284377205275005 11.178111120459777 0.26330281388839494
-1.9511779544758094 11.088383983088509 0.2610201889505924
-1.97311390255202 10.991135182971894 0.2586031129974702
-2.002687193992637 10.893848948920306 0.2815086953192848
-2.0274751863145353 10.801248992626672 0.2825245971135621
-2.049601721284568 10.700847300722439 0.27627564239197455
-2.0770756467733236 10.60456864563559 0.2754321320971838
-2.1042343569863378 10.515139510132023 0.2808256240135364
-2.1337451381083015 10.43109113334129 0.2869930554208473
-2.1585919389413397 10.354845766373476 0.2939765736281406
-2.101139138500808 10.485503593791776 0.2542820129059381
-2.126650334825894 10.403162637939305 0.2654943665340419
-2.151114166370043 10.311476048041408 0.2688100470963739
-2.178335452248046 10.215709377741673 0.27013017964363095
-2.206932019489974 10.119013999362895 0.2697589622502126
-2.2329918872379406 10.022963350335738 0.27022102114838836
-2.258253916135712 9.92592226530691 0.27117731514461696
-2.2861099292705056 9.838731328475054 0.26972558545056924
-2.3087273369231247 9.722364464643046 0.26288297262760896
-2.3291704104359514 9.643642336762916 0.2673051606312259
-2.4035327155426365 9.532891251373666 0.26735189001234966
-2.4203540978844993 9.45567774726837 0.2624631221788362
-2.4438962456656794 9.353856485818987 0.2470450695252219
-2.4702262702540354 9.268888209496026 0.24190595825126623
-2.4989482905366147 9.19037352953675 0.22506955183064736
-2.30295759670889 9.683741863506143 0.2132599578997867
-2.325886695596868 9.609643186059882 0.24116780283422268
-2.339800699769928 9.566079124945816 0.24578668814269214
-2.442527207921519 9.320681926683548 0.2215543050526984
-2.4705382249708925 9.236498090413733 0.2548439738781664
-2.492615854381794 9.15885299097486 0.25217392349280515
-2.513970739901991 9.098166521273225 0.24660923678648464
-2.6532174815401914 8.351181497233885 0.24671152475725333
-2.6736553423227885 8.268888916493095 0.24913386196179282
-2.7012704887260583 8.165874087358798 0.2522285296307387
-2.7246922333492156 8.06480707301812 0.25523237343761523
-2.7476773152351917 7.987148835251979 0.2576356389988791
-2.7649946086403756 7.9228228718602765 0.2596125994258858
-2.7485956190247305 7.9571174368695194 0.25844435192821413
-2.7744201030958155 7.871013103937656 0.2611377642637597
-2.797593325972552 7.776845589184369 0.26401809480230154
-2.823649226404653 7.674770900757009 0.2671740495256978
-2.8493417165423285 7.574643924926139 0.2702861362872959
-2.869753899983185 7.4901611100263015 0.27290444340911346
-2.894104427124108 7.3986109664700015 0.2757845374321872
-2.9192120780051534 7.293136764852431 0.27907376836386144
-2.94903631780486 7.185146624578162 0.2825081826216009
-2.9704216725697083 7.10224355069057 0.2851345992937746
2.155327046586175 20.454727850913294 0.21925821184050673
2.1703395052574446 20.368587158665783 0.2190872821715069
-2.992627539235542 7.005795934750198 0.28815775256425413
-3.0199490513667246 6.897602148600204 0.2915909819136167
-3.0419911910996467 6.803509325598947 0.2945640621574568
-3.0695328698833566 6.698322850089375 0.2979286291461436
-3.075048756894199 6.622135457583832 0.30018358187617716
-3.1824263609770407 6.420164290941985 0.30736833308466155
-3.2001548161585873 6.342521232622648 0.30983119789913244
-3.2227725805476064 6.268136442378376 0.3122687875865388
2.2485930134739496 20.361723710474617 0.2191251863571424
2.3410932378376703 20.333646698067195 0.21915401275068316
2.395158592203347 20.30548066397373 0.21915975099959137
2.3060199204952765 19.91154667435128 0.21816123746891655
2.2035152950165378 19.4923675240291 0.21713059431498996
0.058468628941995116 12.56801868703767 0.3115081619862283
0.1240531839303709 12.538298478672496 0.31152438537869487
0.19891296625828403 12.508264253217398 0.3117699428878489
0.45481543371527255 12.313775947362492 0.31053040907462387
0.4314805385738003 12.210732320746084 0.30683443796444854
0.4051248802529013 12.107551428494324 0.30308698095068554
0.3845068088192021 12.016912236892626 0.2998650044563625
0.36443957186360354 11.930252099501793 0.29679560254557646
0.35054521378007264 11.873435242452992 0.29476832427199007
0.3372190424646391 11.819214567884739 0.29284811267465993
0.31825522969640296 11.734113787133062 0.28988788799390625
0.2935849338602712 11.628774540101531 0.2862229292002736
0.26736103204219974 11.519818984510133 0.2824501798254804
0.24620355042188158 11.430243193986714 0.2793865108854087
0.2207838181546644 11.332478212830644 0.27601575118836713
0.19650708819915663 11.230096181335519 0.2725918379459167
0.17501838677885284 11.148077877441043 0.26982451612703084
0.16577049178070036 11.10481142474139 0.2684397786636431
0.14784664036533335 11.04353428523653 0.26635526765937634
0.12081261287907741 10.940950871159881 0.26300263517818323
0.09682505086463244 10.843782722202832 0.2599415856188373
0.07577194223391026 10.751794930672022 0.2571713968246737
0.04590725669055318 10.649369123566872 0.28172111865604765
0.02898612587134175 10.554342593895624 0.275314578344
0.10081662304337558 10.510614405026091 0.28041886692734497
-0.5239140186784002 8.773317240147772 0.29006531607453634
0.18228800077653395 10.48127863379005 0.2735004530478054
-0.36488006986370536 8.953627342609185 0.2554571901261745
-0.3854777731424218 8.893844244673355 0.26169802709411305
-0.41288782456190254 8.79709620169286 0.23465063013376658
-0.44951315720141083 8.692522237137332 0.24838521207231434
-0.4654135225541456 8.637034258664261 0.24824550059418607
0.2587872424647739 10.441444096629098 0.25839805495194745
0.2573647971765729 10.336840480898868 0.2984087558283979
0.20860663917951916 10.124270092223474 0.25337888106559425
0.19227242580436332 10.072406090871711 0.2524492873844993
0.078670260768821 9.765814290512157 0.24765421274054664
-0.21336909855829767 9.098015460413496 0.2575187849386356
-0.3592246495214717 8.883956008690364 0.2827472842085376
-0.38882468268495396 8.812101027640857 0.255780239475075
-0.4412378215967595 8.67475911546418 0.2211017895819416
-0.45314369865642656 8.633948265274915 0.24980594827718802
0.23149621398198184 10.149856936439372 0.2545218498648979
0.19673128900356374 10.042261993996396 0.2760927725442688
0.17526808850499953 9.959556185716766 0.27552558024469986
0.14032776104786637 9.864832649548044 0.2736880880583608
0.10693350869448337 9.770025324565054 0.27166939749018504
0.08761612875873959 9.669768365010468 0.2701668837530981
0.07690923845586317 9.568899791881474 0.2703118450103507
0.051392943734907215 9.47110648028393 0.2718026793273359
0.02748073344038593 9.376457406848358 0.2716436549429657
0.001661633729925338 9.291902549436738 0.2675261602707892
-0.04317753389594792 9.181431513628675 0.24906565764342864
-0.09644454511433787 9.091051959885451 0.2472305449216829
-0.7130191646276403 7.601577787234339 0.25268606287682877
-0.7333562458686047 7.519667123779255 0.2552407175390695
-0.7555747433120323 7.431125203124214 0.25801662568203354
-0.7792147833339189 7.334910373430326 0.26104263463696187
-0.8050455686537588 7.228932179174201 0.2643909813395295
-0.8299619266706777 7.125344691740624 0.2676728218198283
-0.8484370193623261 7.056781483526267 0.2698526749828847
0.03316394947800738 9.348553136355122 0.277474653382775
0.005317816373679118 9.265625198459384 0.27751446908659694
-0.030208604763904745 9.17531448619341 0.27939559762375604
-0.056593809117087224 9.09747178040449 0.26707436705505394
-0.8566088518103099 7.0076576174856715 0.27140788372472624
-0.8737738030341182 6.948679362951895 0.27329496512735657
-0.901083805973442 6.829832510829885 0.27708700909421197
-0.9234615144626387 6.7388726657356 0.27999786845718655
-0.9431403430782156 6.656739614572867 0.28263143255047146
-0.9680911434753251 6.549841567784636 0.28605871224270174
-0.995694636477953 6.446450691296361 0.2893917998274641
-1.0190135300885659 6.3455406734952975 0.2926373990271011
-1.0393025381347794 6.274925671100666 0.29492216283065054
-1.054979199269238 6.202562933064968 0.2972479309303521
-1.0717084624761586 6.141254602966718 0.2992372968220066
-1.0950074451917038 6.066978443770417 0.30165391306988665
-1.119248187667505 5.968874088919533 0.30482965293891473
-1.1448541502085907 5.866946066490837 0.3081331700073134
-1.1723156223281899 5.77419854322992 0.3111563284605502
-1.4954682923623444 12.93383988912072 0.32092760663065567
-1.5246385544814656 12.881272443883569 0.31923650306956336
-1.4434440659766379 12.935054621186854 0.32049750954735584
-1.5554396213219592 12.760119865247843 0.31500576550773746
-1.5738035797151104 12.687541310185162 0.3124873702473207
-1.613920947958119 12.53203698210304 0.4116447058557211
-1.6294295960412424 12.469797319629365 0.4074573556083973
-1.652021680763759 12.3690424536425 0.40067243292500593
-1.6723725315466096 12.270180212763439 0.3940250865260612
