ply
format ascii 1.0
element vertex 821
property float x
property float y
property float z
end_header
-1.7758905941990448 1.361576129147947 0.06244513644396165
-1.797270259264994 1.3044595622388462 0.0681516858450886
0.7752744319256084 7.80685963212182 0.07674372804646455
0.14816736730772218 6.053557563772559 0.10886159486509814
0.11080391120607658 6.003618341245642 0.10967507927841862
-1.3949992200173122 2.188024158852529 0.09473439255011759
-1.4483333005218935 2.1008669474321238 0.09095259690137224
-1.4780433803990158 2.0100228901118644 0.058411323025489514
-1.4976930008199079 1.915433649939938 0.06616874932189792
-1.5130360421369544 1.813394888174543 0.07490202327891828
-1.544612028410034 1.716660675084128 0.08220859952597807
-1.5765577450630506 1.6164541071345684 0.07365938758589914
-1.603241010944064 1.5246877552096738 0.07387944965755458
-1.6237396881507584 1.4666592847291602 0.06777498053359292
-1.7356691062181138 1.3388656010295101 0.07330224130855223
-1.7559810065986605 1.3046515222696045 0.08630726020756815
0.8715465694867772 7.783199388860959 0.0776056102171049
-0.0815775892158197 5.172791103658169 0.1253530169640089
-0.09676667365774183 5.175459889010314 0.12521807100668647
-1.3104300653902148 2.165351051130063 0.06469746355138163
-1.8657677919669986 0.6588278860542023 0.07422802650939675
-1.8925095889649595 0.5680638106454647 0.07417009178643735
-1.9235721199648546 0.4726484233983347 0.08167622632030408
-1.9446431766513155 0.3752331119603003 0.0786914650373816
-1.9724063072904485 0.27670500643291607 0.07340119593636647
-1.9956697403950683 0.18621814319414454 0.06621001551722433
0.9675365538600309 7.754065185039919 0.07855070001627974
-0.6147875888998758 3.4968996573912037 0.062285839108801394
-1.1556916996233024 2.1446370558276167 0.08384843296889763
-1.9877363527386978 0.13922074630898296 0.06990264249542986
-1.9965637363080984 0.058605629645208324 0.05861209316956023
-1.9798593535169606 -0.027967502617621265 0.055512175342727156
-2.0259418723679206 -0.14234933656886994 0.09751795498141973
-2.047636708896449 -0.23035199769726922 0.09376190919208914
-2.0748517823993646 -0.3238221459937025 0.08064006733616011
1.0654023556473222 7.7348433585541825 0.07928240488353398
1.0646607513476998 7.730990292607263 0.07935726803365094
-0.4527579423242999 3.719666546186793 0.05040853587889316
-0.4740037198645589 3.6379068643128614 0.05486767992595455
-0.5723535824188849 3.4590747735553986 0.0644897801592528
-0.567134179477871 3.4259580240674987 0.06633084794911617
-0.8516309314104245 2.613174856500449 0.07840890536865136
-0.874320252459064 2.5431413149918205 0.08311886556955049
-0.9305997153089943 2.397063183476269 0.0657147875575295
-0.9349408824332762 2.374891350217255 0.06766076063986316
-1.0428521692569435 2.1160672908718143 0.0891387018149599
-1.0843557671642838 2.1188927260487036 0.08794303354929686
-2.0734810980276874 -0.34274738860339427 0.10025953150767622
-2.1003113204758526 -0.4260181078940175 0.08030222829368411
-2.1265433373092537 -0.5232195959606016 0.07180785268005195
-2.152681008251161 -0.6219230479281186 0.0677480622620066
-2.174853895416642 -0.7148430454991066 0.09738659135402439
-2.2059810253016754 -0.8188857143648576 0.09213399360102034
-2.2212864599176534 -0.9158185164565111 0.08769559443725816
1.1610314033932345 7.711803892413004 0.08005893179439269
-0.519648470340372 3.4384394993241285 0.06574219177970506
-0.7909894090265501 2.598432392098934 0.08189815994938994
-0.8749008006295776 2.5153900640159894 0.05563468677280572
-0.8996185524908024 2.4220284620054167 0.08613605332911518
-0.9187377312656475 2.3563323800054943 0.09637827611536069
-0.9462556177062791 2.239749492313196 0.06333489462797762
-0.9820220318832074 2.126534838904078 0.06929798318676156
-1.013338350063252 2.098128767718529 0.06306619906624464
-2.1369528856614624 -0.9169129260358089 0.09066461939871205
-2.353748496396065 -1.4180659369688267 0.062168122051109054
-2.367814723673942 -1.473404405264496 0.05933404110931293
1.2575497974786984 7.686510093132197 0.0808583474957838
-0.7244227296157726 2.581739020604652 0.08148426472130096
1.3538718777490286 7.65982977287369 0.08166038652843877
-1.6432166372060115 -0.31289033212183637 0.08440993377463578
-1.6610238695170025 -0.34565532712535485 0.052618247503902024
1.4511224205119 7.635587764155898 0.08239352273043384
-1.5977082230570736 -0.3381328534110839 0.055621366511397895
-1.6212369435000107 -0.36306356087319425 0.08194182513469683
1.546821707493159 7.6083079429494385 0.08315765200932633
-1.5426448231450864 -0.3600192109576772 0.049895981986377486
-1.5516943395046274 -0.3895485472157052 0.05893681459298203
1.6448751339589125 7.5866834836877866 0.08379422892638431
-1.6205731724405839 -0.915467603007001 0.03985641924593284
-1.6411976848644962 -1.011028054722381 0.10159968016966414
1.7429346136928026 7.562512431813535 0.08445559995848291
-1.8566753056688758 -1.9012975131316836 0.05409144919619133
1.8802862486102534 7.539361052225443 0.08513652165831227
1.8269243738518985 7.539995253549671 0.08503901023768556
-1.7525447107672987 -1.9078152748275434 0.05608367321382564
-1.9255268748066405 -2.3259437884888543 0.03209471714578134
-1.9287327508479528 -2.371225936556982 0.029835700344221755
1.9426199819053 7.5121317423900695 0.08575140241009328
1.9223714248854356 7.506924065270947 0.08581839890115683
2.0327520026449175 7.479566110133925 0.08648835284366242
2.110938042142952 7.467070000068554 0.08681570036577009
3.277914743203122 9.828592690143198 0.04364020384486352
0.587420577853357 2.925926048985259 0.0808602983189596
0.8324601436454189 2.848801967840857 0.07857552943029486
0.12805324378633265 1.071923168108785 0.12718600056958201
0.8943889595370513 2.8151457298280893 0.07841030453777514
0.2619045044317849 1.0909620929611354 0.11643570558281721
0.21259137085514124 1.0871359508102771 0.12032479028691659
0.9832928198720887 2.7756009483943163 0.07765880773523506
0.3499541806052626 1.0933412131239744 0.10957187022418001
0.11143754176334042 0.35298087786602816 0.12258858038478218
-0.40498853596310325 -0.8771618927128242 0.059128963091918806
-0.4238871788941281 -0.9614749374771869 0.11689874078385853
-0.4727460007069684 -1.0580527331302203 0.11231109074533802
-0.5029777313416599 -1.1527888544409979 0.10765501633964938
-0.527535140827019 -1.243210621719636 0.10315558167737368
-0.5503564923525499 -1.3419382979217234 0.09819885946073663
-0.5766791941778471 -1.4356755607322735 0.09346792135428467
1.0858830296157336 2.759263601860507 0.07542506229965978
0.4010816918394591 1.0944538142188662 0.1055883728115021
0.1516831987718581 0.3202495717407815 0.11851114487827058
-0.33783341182115734 -0.9840775948004015 0.11524935707797801
-0.6017819476917925 -1.5363907240493269 0.08835241326524683
-0.626142889109947 -1.6286677204547833 0.08364030970510607
-0.6457984866536113 -1.6985889909905387 0.08005401882973756
-0.7160599567452325 -2.052942889167288 0.06181881555665227
-0.7376017278106366 -2.152383447846554 0.05667255195167201
1.2283835215615422 2.7552646476327483 0.07138315016552275
1.1706654781361896 2.7547927361716456 0.07312527529702988
0.20337118646709218 0.15077213168835613 0.09457320569322225
0.18228120107192747 0.10769268674209154 0.08035654537881133
-0.24591529651832977 -1.0120375414451572 0.11317320936891476
-0.6903214044402997 -2.0621035795251013 0.061439967701840244
-0.6783204623551424 -2.0974200854987437 0.05968520629182312
0.22430733024069394 0.040793004962904944 0.1010343503002652
0.23180579781501431 -0.02519600655283738 0.06465215170736106
0.22696631544370005 -0.15364653756215074 0.0646135291332155
0.19436896260765923 -0.230347584475191 0.056439349701601006
0.17880150133789208 -0.28069136039488174 0.031634997830345776
0.04848261425186995 -0.6522668927145121 0.1259281185825004
-0.0010021867000191698 -0.6641608273871227 0.0949136754450078
-0.14671900505793323 -1.0369158648709242 0.11101671136139665
0.24385563418077538 -0.16682863142088356 0.08849782508898438
0.2171362242731767 -0.2310207836795175 0.08613056874184392
0.10109033191063777 -0.6610242638833419 0.12451739506778059
0.09538599451456098 -0.6860567024801156 0.06087251019585077
-0.05006140726290054 -1.0611601559538568 0.10874386467220551
0.1966368168764705 -0.6939578798602906 0.09782595693435989
0.18529111342763604 -0.713048460039053 0.05537576660883135
0.046569070857927386 -1.0822869893607403 0.10645862068684751
0.04375164222563366 -1.0887980992499173 0.10619636068254391
0.28344415022065284 -0.7280029609126657 0.11778469154429105
0.2816360282600803 -0.7584091914736841 0.048148346561639195
0.13842514162096298 -1.1094679123980653 0.1038288628290107
0.10576260073154264 -1.111796347590343 0.10422821522394107
0.3345822625812702 -0.7622777896550974 0.11520690592178437
0.3638791657220313 -0.8010548116532654 0.07729477657185056
1.1095790404857857 -0.26692573285321775 0.028803522858343797
1.458262188267326 -0.5361424815544911 0.08783953332019742
1.4225255726513992 -0.5530419687204715 0.0887061845096726
1.5307965238188312 -0.5127762845567596 0.08574860189076616
1.8349016018746906 -0.26223140692976155 0.07943789237170712
1.8164245975709779 -0.2873791267713892 0.07969586246220532
1.4812750010068239 -1.6194973552689487 0.05214231963525646
1.468019123222118 -1.6829354408012633 0.05012148298497173
1.4410210317112793 -1.7600869468154732 0.04790466808724601
1.4426098440612092 -1.7940678631573495 0.046556412112608934
1.4201335846247891 -1.874418891281586 0.043994605481556495
1.395183554944339 -1.970582621944162 0.04079264375752564
1.3791946937091824 -2.0420870249134895 0.038300931902110806
-4.441730871781539 0.38992580852059133 0.1293254128678679
-2.279150663692524 1.4152303616359931 0.1902744560641983
-2.3300299668773294 1.3952574189702613 0.1967694566519798
-2.2121056403826094 1.406659361182583 0.19239947966143642
-2.111482221654926 1.3841517634391243 0.1995627657082104
-2.0083061720198483 1.3628707870444579 0.17563221516984243
-1.8542193580103534 1.4225469641760053 0.17486331167243524
-1.9230504443660845 1.3401030959292244 0.17747113711856707
-1.396814811257906 2.30454005796063 0.22745247001084115
-1.4238485302894213 2.221281651957681 0.18952269768985625
-1.5042980502131336 2.0056819527354284 0.16094919106744504
-1.7748063774967155 1.3621382226372278 0.1783797470481906
-1.805647809371559 1.3052801886079473 0.17493149891509657
-1.4032615479119532 2.261368352105179 0.22686000824082483
-1.4225724926020118 2.1906171240902523 0.20753404286103908
-1.4490866210530409 2.1065644123756995 0.20008560890176427
-1.4800104511842784 2.0125128911116574 0.17661424932560532
-1.49955354799936 1.907005846183172 0.17827769733911955
-1.5187315146139255 1.8128286420091406 0.17955681379587346
-1.5505458226401903 1.7178185833068385 0.18056222471583944
-1.5758239428951706 1.6200406864314787 0.18172642558366958
-1.603340718577647 1.52620794165466 0.18168708795084476
-1.6282987981242754 1.4715960754033177 0.17507502067763359
-1.7435078227603673 1.3344217430355614 0.18353221627508015
-1.7563082259860785 1.3034943188942985 0.1933228736901193
-1.8983092998093754 0.6948213414143939 0.1718945317595019
-1.8706430679046502 0.6536328784764298 0.18309805384650096
-1.8914091286078594 0.5719800146246921 0.18482682721692895
-1.9274455085735918 0.4738611506768233 0.18311904266234347
-1.949606652492962 0.3729258104054234 0.1827044303135581
-1.9730158626421805 0.27707643051169206 0.18255398832505448
-1.9976393888563817 0.1898891167291057 0.1794323729734657
-0.3461562030110884 4.314222617348761 0.1411797325261655
-0.33457385480102597 4.227590967148604 0.14298765872966562
-0.6141472010153408 3.504339545245233 0.15590089515962235
-1.9893520542136793 0.14303829808898194 0.18267367708844853
-1.999423088619365 0.06244881027264959 0.18034670997098884
-1.9823490551770582 -0.02651522697084452 0.1559939244451471
-2.030955162521871 -0.1451561929077514 0.1770851447888281
-2.0485364866834317 -0.2279753418325161 0.17592381294923692
-2.0776673801535144 -0.32723090435137947 0.1743597905447795
-2.0979328169845326 -0.3876226258830604 0.17335151254232417
-0.2891949164737272 4.320666731812457 0.14136521811201413
-0.31899272413370094 4.249466940378333 0.1426359917526712
-0.46764520242899155 3.685105550579941 0.1531595540017906
-0.5745033028322926 3.4641945579209743 0.15696734069121498
-0.54951771425475 3.41729202842453 0.15807217088989192
-0.8828687653081034 2.6282272085953977 0.17167825474322873
-0.9473859977548323 2.5624535974745717 0.1724488275008386
-0.9717651625360115 2.4433908133603914 0.17463774426850776
-0.9933920396466464 2.3735520465694955 0.17584557565527265
-1.0242439340870488 2.2682407143849934 0.17766781066683107
-1.0469528471890455 2.2115782438081033 0.1785771394760457
-2.1039324673889324 -0.43670563872614365 0.17269920024317728
-2.1294620909077837 -0.5217628644307273 0.17130254541916934
-2.1524429654343713 -0.6148849307247228 0.16983484115356084
-2.1781606922389165 -0.7226739846750434 0.168129437171414
-2.204163527899909 -0.8151287532104292 0.16658711008489102
-2.225930020498579 -0.9158429995000044 0.16498660387124361
-2.246311004178927 -0.9782119319860034 0.16388296959838927
-0.5180005519197964 3.4517132792225382 0.1575695859656835
-0.7906030719694632 2.6035479494234686 0.17292160249642236
-0.9239306470064768 2.2134689797333897 0.13115091291748704
-0.9523668972221104 2.11952170290421 0.13600272989151807
-0.9867608510498135 2.080306427389881 0.13771910590245728
-2.1462568999017204 -0.9090670754857708 0.16624760317701864
-2.3533482253859006 -1.415262383333631 0.15652775587110596
-2.3723955051257066 -1.4954765533252343 0.15516973092440478
-2.3986722183430995 -1.5996267074528439 0.1533792062917504
-2.4137594949674677 -1.6618189385982627 0.152319914618808
-0.7240683655177489 2.5867280346380843 0.17374843711804144
-2.0706433169282725 -0.9571609680645103 0.1666848561768744
-2.6572202851874236 -2.6498343060160643 0.13516189096212616
-1.6735880158935093 -0.3515418956036118 0.1582405395377206
-2.590510618198959 -2.682191516742437 0.13552071321324938
-1.5828732240465024 -0.3474645574113895 0.14957402064163144
-1.5854385647026235 -0.38667070422353467 0.1551687557414021
-2.317089358742082 -2.2494021876120867 0.14517140878819476
-2.474277622676013 -2.704474182856809 0.13660241451705413
-1.5774149246448241 -0.4518026212290098 0.18037150696582588
-1.5902462874878658 -0.5127856642825959 0.17934010764004032
-2.416232976255907 -2.7245505386118394 0.1369924655642992
-1.6695982693447866 -1.131769599651088 0.16933177367155972
-2.2770319236183902 -2.7735631339437052 0.13785720964708859
-1.870872238112764 -1.8935035771151905 0.15562962981021344
-2.167965655009809 -2.8047556904669184 0.1385877203176406
-2.2411720167627855 -2.7917715021434084 0.13798190245804415
-1.7662634065775995 -1.8817238616935807 0.1569361620937082
-1.783069859566941 -1.9112083841525849 0.1563069729797683
-2.135011919258279 -2.813631802606108 0.13880730492730575
-1.9968785689018662 -2.8176261520672137 0.14019346653415288
-1.903747829684558 -2.828210154999926 0.14096999295230936
0.8476318173178863 4.104114017478013 0.1486059685293289
0.8463555423817037 4.020057903865059 0.15014639485415684
-1.809705867294646 -2.8603572469106826 0.14138674944306756
0.8796025142891875 3.977642230886434 0.15091624925275107
0.9029360313065025 3.904626365871372 0.15223041125174885
-1.6731164618735295 -2.8833607683918085 0.14230179848507152
-1.7132538762624252 -2.889430893645841 0.14183831112377368
1.023381527115452 3.9018619062854105 0.1522017996135505
0.9723190142814873 3.881179004525718 0.15260973481499718
-1.602159588417411 -2.9135009052158063 0.14246105721696467
-1.6264505636511286 -2.914985802586746 0.14222216714416255
1.0731577407943564 3.899305099033687 0.15219821877157794
1.0456036053462652 3.8787890603847144 0.15259160989151377
1.050268330173542 3.771654703048923 0.15447297707784996
1.0069219482513414 3.640358230363219 0.15682879158779806
-1.5151936139289781 -2.9330014952212755 0.14290332308692222
1.0851997645094646 3.67168699097604 0.15616836607125484
1.0977682817579744 3.6306622318830666 0.15685310967802377
0.8439886812985637 2.8341012743560885 0.1708163403109656
-1.4135286730147985 -2.96505243647625 0.1432371116750934
1.2330499510577175 3.6629026541903187 0.15604247920054098
1.1556864146663093 3.6273092828581284 0.1568049465457501
0.8825420289428008 2.7810248414883767 0.17154685314091378
0.2930876424041555 1.104532242227479 0.15511196316249087
-1.3160409879189552 -2.9864206316618596 0.1436684068601311
1.2705506509890745 3.6320886114439617 0.1564818861578026
1.2708437868824236 3.5103313331531947 0.15851345567168662
1.2982183109110117 3.4628521784195163 0.15922513448789585
0.9780044282015987 2.7430400148136256 0.17180553331678367
-1.2256074376181805 -3.017468401669846 0.14385699205903435
1.3190896158127854 3.4508657418877897 0.15936365022621918
1.0735620639594374 2.7205138780793017 0.17177239722797252
0.44119048518796666 1.1249186469620902 0.14843839365426698
0.45884564915086057 1.0614926292098983 0.1484469732475865
0.4581389465571799 0.9962298761817738 0.14914720951289206
0.17190622954732615 0.29853979057028823 0.15673250253024124
-1.1264969192077647 -3.042811981881818 0.1441652707213516
1.163152112174066 2.7143310099050613 0.17147889774810035
0.47409057985572134 1.0052211704601923 0.1483678192739626
0.512237015582153 0.9662395899969659 0.14698164919184145
0.4983842044114526 0.8640935461678423 0.14814513855785064
0.38550809975176037 0.6622072816272666 0.15296191283364652
0.3949182562379894 0.5693859998820554 0.15189903843967587
0.2430337316141684 0.2538726328152424 0.1899182231151063
0.2327605212184436 0.1828165087854896 0.17325848648985767
0.22054399298545624 0.10901098062605674 0.14998764121390976
-0.24562674808926932 -1.1294038969297338 0.17908140427697672
-1.0270836601788316 -3.0754083225083013 0.14432286063878183
1.2453473268248858 2.744316063902783 0.17066351074721092
0.6075485095335031 0.9380666136842585 0.14295356518057176
0.5447793791091957 0.8008590110521778 0.14619892550209312
0.5310187095668812 0.7356005450373058 0.14678543195176072
0.4981058348419902 0.5895800178737827 0.1475724564754582
0.4739141972979657 0.5193970031546145 0.14799946500441952
0.43936562441329174 0.38979379495362576 0.14781230733058395
0.4166496678218239 0.3470490195133026 0.14805239467356418
0.3421274114459054 0.23683617102086763 0.17190403045261465
0.25656366698492095 0.1293220344687911 0.14928692926279857
0.25607722969093616 0.0546700042620516 0.1851093230821429
0.2712492113407523 -0.030975409893910344 0.15930933299181071
0.038474479774882164 -0.6314418874217131 0.1868278516740193
-0.2136775779911405 -1.1359694947158634 0.17905517282973965
-0.9327505755726768 -3.096103676794635 0.14460276640554431
1.4299452850660048 2.89802163154354 0.16755309265338064
0.6623282451101438 0.9294480820568146 0.14057414940992308
0.6626547183895328 0.8666572873025924 0.17939370126527115
0.6491440222303193 0.7715014695571876 0.1941480003239196
0.5479117596163923 0.4691922897544971 0.18253296340286507
0.5087374921966532 0.4034447378650343 0.16768639833083449
0.44183217989727086 0.3533629273003789 0.14713448679876337
0.43353225038693366 0.21367767351786848 0.17173141164499828
0.2916609105297443 -0.0742583629382676 0.18126172541370822
0.2847890153124093 -0.1552970544426906 0.17701763699777334
0.24888617435616722 -0.24144645203563186 0.15389747469848186
0.11309111476158495 -0.6361081206137844 0.18667955771082456
-0.466424495620243 -2.1649461398922565 0.16201350217240318
-0.46427063069771113 -2.184402905084978 0.16170761085446117
-0.8371657796972203 -3.123662308032185 0.1447467642960747
0.6947584725030287 0.710292036563431 0.19377058032155448
0.73009775755001 0.6577113555378434 0.19344347451049326
0.6182433506766143 0.41792450058279756 0.1940843425157935
0.5723281209043816 0.4137367324223256 0.19447678351758546
0.5026748663802456 0.2268404157032864 0.14229125114230434
0.21071337812104018 -0.6623293020931504 0.1861693377964058
-0.37892698834913763 -2.220228978824591 0.16148326229994692
-0.7406298684389172 -3.160305015672999 0.1447191115390853
1.8344100158945895 3.23934878226279 0.16066612451164097
1.777423847848947 3.1635601716703032 0.16203942221186785
0.8289624171997307 0.6766560744705294 0.19250433750892304
0.2957602452856367 -0.7009124782092642 0.1854817341968943
-0.22707585631755745 -2.1127164056829537 0.163711518808167
-0.28049842659003477 -2.234557913119663 0.16161629871057065
-0.30343180081837207 -2.2458537742757585 0.1613559421476241
-0.6143401296891384 -3.1781041697862085 0.14511535863287808
-0.6628745975220849 -3.1803819071904913 0.14482377627477577
0.36361208016890245 -0.7452401338222274 0.1847495560695846
-0.03824054227988727 -1.876338150101683 0.16793390261059088
-0.036729924628589594 -1.9332970646794834 0.16705295171319956
-0.13158663891912536 -2.087583901513611 0.16437359980840918
-0.1641239730189703 -2.2509006832012943 0.16172716197205697
-0.5439690879010455 -3.1958861155921072 0.14518688532058105
1.2345367776843326 1.1071292374351276 0.18761627427315844
0.008797887509456537 -2.1241867335620563 0.16416737106238655
0.004106443257680281 -2.1661501957800873 0.16350337066281312
-0.09862861207872275 -2.2736647672689534 0.1615523949626827
-0.44337431523639437 -3.2181212713783767 0.145309430789124
1.3131895753748213 1.138359934841151 0.1867355490707024
1.3147234249109976 1.0950662599220315 0.1869062562855635
0.383131250953624 -1.2907000556655415 0.17723055269943572
0.38472349261951466 -1.3452197364196 0.17645139584640274
-0.0025983991633378167 -2.2023639512229973 0.16292234612924772
-0.04246682181566008 -2.306357505603086 0.16119071769921753
-0.3850665313908995 -3.228825164623908 0.14540622487509502
1.4312424348487351 1.198492640499747 0.18535438715806635
1.4119163450655001 1.0907509936875832 0.18601123516087956
1.1911569726361042 0.5296612214060885 0.18904583747311843
1.1730964428114528 0.4635080446414648 0.18913762605951623
1.1525697562609982 0.3960013319423691 0.1892132020992911
0.17034030488760132 -2.1503636685280414 0.16417166135789452
1.5183873839936328 1.0737981604355578 0.18506995937342532
0.27855574715821785 -2.098333995224272 0.16517778261007324
0.23495073559845903 -2.168470259166968 0.16402240774571383
1.6091910564477832 1.049064479428263 0.18429962544406367
0.4053944180155806 -2.1703690927121286 0.16425605048442304
0.3563724511160573 -2.174775769750811 0.1641294552879755
1.7336756905575086 1.0240208057098894 0.18320266052137052
1.7006430121519334 0.9151401095471239 0.18383232400289665
0.5463048184815289 -2.0953142041527144 0.165504888787276
0.4793153123321492 -2.1516720858510956 0.1646205937254686
1.7933840915975787 0.9778806381721487 0.18277588632667408
1.7671169927326502 0.9306073678226554 0.18315473731056886
0.9048785836455184 -1.41111513998141 0.1747466925070224
0.926396053796007 -1.4221680712987286 0.17456907368723762
0.6401436399405076 -2.0467361022371398 0.16624064862634996
0.6076293737407925 -2.082940753028156 0.16571159751189973
1.3490304958634376 -0.5942640823480516 0.18187039455301993
1.00359294516045 -1.4447512196739691 0.17406434416708363
0.9715689851205909 -1.4458127673987387 0.17413324099576402
0.72908850053061 -2.1402861085293488 0.1648861905469055
0.275200745372165 -3.4076453969163776 0.14479228743905212
2.270250929760743 1.5201175149878012 0.17586364715459463
2.254605381501678 1.483681792613434 0.17621865031222278
1.8584386608549865 0.5085085059870562 0.18277350339976844
1.4191258621986742 -0.5790436926362721 0.18155543987932066
1.1005156418586155 -1.4724203815126253 0.1734337234776804
1.061916702874872 -1.4752720954397345 0.17351693080063324
0.7960300579497654 -2.100552332334555 0.1654278738138908
0.7908766075467852 -2.150921838493769 0.16471500526087485
0.29103018444347817 -3.407528859334514 0.14481946729548653
2.32154586470621 1.5955222395366608 0.17494120093154203
2.296750320408006 1.5504148816375796 0.17543806630190562
2.2487577764653297 1.4317071848403664 0.17656316640477912
2.238652018029569 1.3683652444918677 0.1769913705984622
1.9466737271956427 0.4884500580315066 0.1819271169629172
1.5357997075145315 -0.5493911840558794 0.18103020506296777
1.4810113432836285 -0.5616539532894989 0.1812874563640295
1.1589000425873646 -1.4843947235009234 0.17310995035110055
2.013555463544944 0.4703830025747869 0.18129244832930613
1.8477690502419966 -0.1556222278486341 0.1812783863247146
1.2237259180625737 -1.5173233374637343 0.17250579746739725
1.8639521029507342 -0.13702615146004038 0.18122712871165092
1.8400392719643233 -0.21691062453580812 0.18104116450806113
1.8165267084858703 -0.31054837548420977 0.18068019875672714
1.7935291095238675 -0.3890345764931604 0.18035785873546278
1.3342314991121402 -1.5988943540640326 0.17112558666540964
1.4808744284016313 -1.4172350348260554 0.17271321346332724
1.474845708890584 -1.4668377442298144 0.1721779681791994
1.4809616743332696 -1.578996625007928 0.1708409168153924
1.4482663562738212 -1.6461427998152358 0.17015379535000336
-4.067170362408152 2.021527436881832 0.23976349846238398
-4.069729061004326 1.93431882020127 0.23949170620912918
-4.092619801641844 1.8309262333151861 0.23938228311124632
-4.115778728255392 1.734128066311623 0.23934532313301296
-4.1416782233637734 1.6383756006534793 0.23938514595308372
-4.166639460351378 1.536254951753551 0.23945713703187615
-4.187876538515345 1.4442517312011176 0.2395572747434552
-4.214471048576923 1.3673872847921922 0.23975731374958026
-4.244741815771372 1.2769409163030079 0.24002458800245072
-4.187696237116516 1.4104857913465583 0.2395320085053853
-4.212990765433586 1.3314797253811073 0.23973418320056175
-4.212219192874831 1.2325682035518608 0.23973061608207488
-4.224883156485373 1.1380527848330653 0.23989822045669007
-4.253107302440426 1.0408846869004496 0.2402620491170012
-4.282437481766046 0.9414275267652312 0.2406878611515204
-4.298542097376507 0.8646185104921867 0.24098874882008345
-4.28020187267222 0.8879891689279933 0.24076486935422128
-4.303547104198246 0.8175689240984729 0.24114157510474624
-4.3171458029613765 0.739542306967568 0.24147202780380506
-4.3409457624868155 0.6424660854671225 0.24198773044592725
-4.368553932870598 0.5494848065182667 0.24256827192398364
-4.396501694507279 0.44896934430328067 0.24447443098954572
-4.416545374116565 0.3910368152609828 0.2436566551179006
0.12004731632602139 7.968628945755535 0.32191051982400354
-2.39599393797892 1.381298172764435 0.2807583699292179
-2.272646680171847 1.4157004059270788 0.27628013854558986
-2.3035550214742155 1.3830189501526309 0.2769887243763417
-2.2004690597543775 1.403235419833685 0.2938711476107006
-2.116112341641565 1.3855266859423787 0.2963959931313922
-2.019119753940045 1.3651559020840316 0.2877225718149107
0.587110921799066 7.833085246840175 0.3251468126644065
-1.8552890982235737 1.4215465494730979 0.2834484344649623
-1.926223328135365 1.3391335529024992 0.27764556173294974
0.6619316278272489 7.825936276152031 0.3259254762802349
0.3237870477613485 6.928255099658187 0.3091949369233217
-1.2299235518201128 2.7221306517957076 0.23382634679341394
-1.2858691954274573 2.711195504520334 0.26502175987528903
-1.3357122312756289 2.6016335973747777 0.2679264147467211
-1.3601095404521193 2.506014278406889 0.2609090340103691
-1.3779708673743425 2.4011802294310494 0.25614496382131013
-1.3983728571396004 2.303881020839685 0.2825097702874584
-1.4246746359419933 2.2166238216434153 0.27879734385369437
-1.4491531454155098 2.1505149120645037 0.32705327280202084
-1.5066503056109624 1.9922154837455248 0.3169533776381013
-1.7715580032336877 1.354917001243363 0.2922758806864626
-1.7995058878995136 1.304063299680104 0.29228089050669737
0.75629989880253 7.794061058703762 0.32660280888981164
0.12135638783601244 6.0242732226405185 0.29396930946551825
-1.1511132227723935 2.692888882490841 0.27782506528480216
-1.187103130062928 2.6941616018987617 0.2695986809562575
-1.394609202419821 2.28430395341761 0.28156038239011577
-1.4222189778334688 2.1970109426807873 0.27787228078167503
-1.4517550047991041 2.102364585677398 0.29772659091753895
-1.483390203497854 2.0144681735243353 0.29199929870308416
-1.502485413241412 1.911595243171257 0.289663275799403
-1.5227529747309072 1.8148409686826361 0.28285643595193516
-1.5529829277949956 1.7181728828009515 0.2812146809579504
-1.5798163286408131 1.6218296182428866 0.27516456844604176
-1.6055060551810059 1.5250702953104638 0.28585096362743934
-1.6228190238996882 1.468210641434879 0.2943324776831423
-1.7414645902168657 1.335442639587873 0.2848293551681023
-1.7604735004986782 1.3040385766369802 0.27637956379152173
0.8532578488996285 7.77505480858392 0.3275178839407829
-0.11870845916317097 5.1956616623403855 0.2794076585535279
-0.09973828273690888 5.170101709609154 0.27924958140149936
-1.082375924179835 2.670745299074245 0.2644547992703443
-1.0992946215609378 2.6664958485840136 0.2690450673226764
-1.8645584054553703 0.6622002997915355 0.2824520823662532
-1.892696785385112 0.5679637315367387 0.27757260884873886
-1.9284747633608517 0.47252273901377856 0.2821931624483619
-1.951496641816893 0.37670931718591627 0.2860700930465335
-1.9774460304830357 0.27635396222417075 0.2913007607551026
-2.000120025414033 0.18433557489675378 0.29601214655029673
0.9134423698117653 7.759012914271461 0.3280399953052797
-0.3352791455341707 4.232943520719704 0.26320044886220706
-0.9922442423824142 2.643785462064817 0.2648777502922516
-1.9900867728546838 0.14004820976948695 0.2898566572617961
-2.0023416291013865 0.06795585467451448 0.29960153637565456
-1.9810540901479627 -0.020537832390281063 0.275065649300813
-2.022394901323109 -0.1411754636282494 0.2536528039284587
-2.0448383637271785 -0.22783908556386612 0.2590978036389725
-2.0694284911926686 -0.3122585680859804 0.26655577337322545
-2.095654430768345 -0.39303641307691906 0.29473208001219436
-0.2781754071078928 4.322104361010298 0.26510279586959323
-0.38923847443799886 3.9892777810924276 0.259112529810652
-0.42609192045553623 3.810745473375291 0.25614349767637246
-0.45306716353446896 3.691358503669984 0.25413792428742665
-0.5384533365410802 3.4433331530622686 0.24966401016807388
-0.8927590428888847 2.6182253567727436 0.26572150175650705
-2.078754490778281 -0.35811236636303345 0.25573610548427445
-2.1011498327617977 -0.4338273476153882 0.27001546384766045
-2.1230607489466387 -0.5212781849908328 0.261845340848769
-2.1492956410930564 -0.6205200618823494 0.276317108773668
-2.1661560414965173 -0.7263690781105401 0.26575897814147764
-2.194202515902444 -0.8134423070317063 0.2926130190771975
-2.221946276359631 -0.9309433763193455 0.29419756119038637
-2.2437023026734897 -0.9929835232835962 0.32354901985360124
-0.5185793299505776 3.421719843214225 0.24955528721292342
-0.528605654753974 3.4129129899587367 0.24932616175431882
-0.6019810912008146 3.232140758564798 0.24596352054559284
-0.5930876202641592 3.1592948295309577 0.2859405911984809
-0.6196960663813906 3.08419120058878 0.2702640934479908
-0.6251010852956305 2.975224364052499 0.29858869600615956
-0.6552935081500456 2.8945433521004915 0.2768737777286804
-0.7945951656166278 2.5945739425744367 0.2638656597251822
-2.113987521674165 -0.7768178772346672 0.2395722777534908
-2.1355106274133924 -0.8392855777312167 0.2771243972356393
-2.1435399214064046 -0.9094423169987371 0.27532934781554597
-2.2091616629353896 -0.9731778321199807 0.3217515856672904
-2.344535122315275 -1.4188950872892827 0.25064372358869247
-2.367471189901873 -1.4964657251026565 0.251969093280612
-2.3884335033755906 -1.5834209034679747 0.2534377551889194
-0.6505273899076973 2.832740979129716 0.31019372337944573
-0.6679502509500839 2.7601913131172893 0.30638665192895964
-0.6886698061219874 2.6798639918854947 0.30215568271535925
-0.7291092139565736 2.5773702894217205 0.27101797405966804
-2.079145082931575 -0.9639201039747092 0.28545545767700675
-1.673251047536867 -0.3203578605795967 0.23001216597333254
-1.6845639124909757 -0.33555344544238985 0.26151345734006914
-1.58078948796413 -0.33888522286716793 0.2683453319524587
-1.5835633138256178 -0.39816964089502704 0.2621676684640903
-1.593882125899748 -0.47959558113996015 0.28455732041502485
-1.5806866759526355 -0.4523301937278281 0.23163388054009607
-1.5938584937665414 -0.5197691501602322 0.25522230314776884
-1.6050145220464995 -0.6136391153667258 0.2606308319135718
-1.6183583147554108 -0.7187844578263682 0.26633046497478535
-1.6330358596795582 -0.816222488760769 0.27777742331795663
-1.6514271445191024 -0.8960336936174433 0.30559657352799163
-1.6256620874964718 -0.8575229352755949 0.23855566097324288
-1.6451164850542477 -0.9381941324228187 0.26919339963285704
-1.6552500460118897 -1.0300534592798867 0.268130531240272
-1.6708174564711165 -1.1239386061808438 0.2798785994760524
-1.68626526720145 -1.2100421227638305 0.29606102527468214
-1.7050882766834952 -1.29771997491868 0.3262877431704181
-1.677013097821621 -1.2612338390132882 0.2456388392132076
-1.6875725595251176 -1.343429479819364 0.24709485960782376
-1.701712894851057 -1.4508226641584134 0.2490007734241669
-1.7115765544910024 -1.5394656254591121 0.2505764929760738
-1.7226256120596841 -1.6377737611623322 0.2523267242284065
-1.6963669043915783 -1.737400111185009 0.2540891108775116
-1.7450783751182177 -1.8487740050327284 0.2560961221373083
-1.6511300193469256 -1.7570147108729206 0.25442646991938167
-1.9050567367836049 -2.83235711626431 0.27379560302949
0.9217675452169616 4.164379899527909 0.279517084272511
0.8635896309812932 4.124355765587563 0.2780655909841845
-1.8021352202285978 -2.8566318531052 0.27429746986672954
0.9666521690504697 4.152963541246911 0.28011693508955604
0.9957018379907157 4.096446174739856 0.27990165330263483
0.8998383558847685 3.8656355890273746 0.27545157711408585
-1.6928355931691723 -2.880996810848493 0.27486896321829435
-1.709628633008351 -2.8839057811411957 0.2749011515093436
1.0062496011805802 3.9376421661773664 0.2781421255846942
0.9519325665073368 3.8659752129303966 0.2763432614257303
-1.6073906799418909 -2.90765035114135 0.2755086333271576
-1.6191461809747014 -2.9123592115787025 0.2755727686864854
-1.5154173601477516 -2.9335449129101843 0.2761900338261451
-1.4191312986578728 -2.956569597729616 0.2768812160897726
-1.3157882102257514 -2.98254831143499 0.27770446629759027
-1.2182698022307283 -3.009432103659927 0.27858113288769976
-1.1262495188021526 -3.036161359990216 0.2794823534227675
-0.2675399150189336 -1.0710531882287757 0.24930688583514737
-0.2480936753695756 -1.0992443776890501 0.2737919882773359
-1.0266791108813018 -3.0605780913751515 0.2804274452635409
-0.21457781068142634 -1.0805296551554424 0.32056208321873264
-0.22701140178431367 -1.1329594671169596 0.3229241012212182
-0.9258367994677846 -3.0849086576395415 0.2814302263485774
0.6540827653023598 0.8425150226202895 0.25548237401049634
0.6426608370384508 0.7776339056287812 0.2681507345082705
0.5560484439450419 0.46741426538813197 0.26256340642946374
0.5333416982333248 0.40710900889248536 0.2674459796259592
-0.3236873127541917 -1.7496154394508496 0.2609893976690616
-0.8444016700546131 -3.0958720464615848 0.2821116346985496
-0.8284373714014147 -3.113682346471987 0.28254983741212414
0.7500383012224296 0.6985918148492299 0.2703913953850874
0.7421284604575367 0.6256987694215621 0.2495130812815337
0.7140473766517115 0.5310238843630312 0.24922316701640554
0.6296798211979802 0.464467339531031 0.27419322688209147
0.5728887075453872 0.3959249845923343 0.24648064962660657
-0.7323664360863502 -3.1348201808972016 0.2835671707209033
-0.7482025151337177 -3.136387839149333 0.28349183406887224
0.8655208288967129 0.7102232616542148 0.31265680800090134
0.7976500526033177 0.5974272396555846 0.3049983316711865
0.7422823474560196 0.5308282937100193 0.26922243539522317
-0.6361046549755527 -3.164825715261946 0.28479859949323805
0.9046276597559224 0.6545104142423993 0.3153511859142792
0.8559238391721058 0.46241241870932365 0.3143200260264447
0.8428388869112342 0.42451773257481784 0.31403130165861703
-0.5379126103267229 -3.1865522908636423 0.28593752592671695
0.991825866641433 0.48246534382036776 0.3221315607885645
0.9275672043517222 0.45594105901367715 0.31863015012617724
-0.437946854656461 -3.204064558456209 0.2870573781622603
1.0791447658427071 0.4661903455212738 0.3275024160907432
1.0141814818382409 0.4313034699334389 0.3240620362038738
0.42222069384821515 -1.2738999289052082 0.2632908300125183
-0.34199355064334547 -3.2319354169754426 0.28838513727317683
2.938142788678002 5.039676990555338 0.32653676444821117
0.5463478485564934 -1.2441355684951867 0.2650336715343562
-0.24588605402797714 -3.2557329652420854 0.28968188336834066
-0.1456095992179266 -3.2874418868385913 0.291204901656239
0.6662480432482025 -1.404402768805005 0.26962059973683805
-0.054081518523460104 -3.3079238978311674 0.29247734517017665
3.016680360230432 4.568103285029367 0.3235922943830203
2.9954642969431946 4.48376806283494 0.3223785073247207
2.971672321176408 4.3854925769257 0.320993287444257
2.9511425952103263 4.275217253465139 0.31958210126104436
0.7046211084819869 -1.6788324493751727 0.2745534895900994
0.07253443815247418 -3.337369923580856 0.2943160322124672
0.049243737741250015 -3.334312673141996 0.29401608687980896
0.7959172467877305 -1.686156281773109 0.27626818460063907
0.7442132409429478 -1.6834355811646373 0.2753052167597972
0.15323472337880695 -3.3572886979862453 0.2955441193958376
1.3411205784025546 -0.610701153191147 0.2734240750379048
1.3366799150525177 -0.6354931142157327 0.27356808161299506
0.8939113753173391 -1.7073748236384925 0.2783524457348628
0.24467400898831038 -3.3820895317817534 0.29700824805594295
2.268972391648692 1.5341163321736055 0.28759898410272133
2.243728691047102 1.4599086657253353 0.2868553637836876
2.2254833440136954 1.4003221605932024 0.2863284628746595
1.41223714661051 -0.6072008499057013 0.27502077487612675
0.9853930718668671 -1.7254955124433902 0.2803010405836923
0.3364135627969296 -3.404113947251937 0.29847428165740303
2.3113922147254486 1.5999646009679673 0.28877963342151514
2.2471450865095113 1.4407377542759536 0.28691424793520326
2.2216530968440296 1.3499375979680652 0.2861811176700453
2.192197111257533 1.2528313167116523 0.28538098286726743
2.167356043871713 1.153175859555799 0.28474393446430607
2.1492292545905984 1.056788694967067 0.2843214572166135
2.129896936367442 0.9717509991688822 0.2839063700181885
1.5629048074868745 -0.5647078360705944 0.27812092194589155
1.500579641481025 -0.5897977780296371 0.2768990326333989
1.0808189328759517 -1.7425083046801617 0.28233045401322754
0.41893327475748454 -3.4231755958490666 0.29985281611885206
1.8502084104559835 -0.132116262294957 0.28156629994607385
1.82292341246994 -0.20296838874085998 0.2814196714770272
1.6657894202180985 -0.5036864086699739 0.2799958455165142
1.620910280306887 -0.5363321565295356 0.27922909452683375
1.1532556455381247 -1.7542515379009591 0.2838744612756888
1.8636502313623107 -0.1293165314408029 0.2818736189780582
1.8298464547132702 -0.2286630140486532 0.28177682602199283
1.8027106204863463 -0.30979186970817896 0.2817079295406132
1.7795425174479151 -0.41020414040712305 0.2819348971564498
1.7552568129564599 -0.48282145803051724 0.2819508728817944
1.6422601935464323 -0.9091624398703813 0.28339856392749385
1.6327493337917842 -0.9741073532793336 0.28387873291431676
0.6221138438669809 -3.4856037418630574 0.30361600799206506
1.636362827716887 -1.0289207404635279 0.2845579909337953
1.618618880484804 -1.0905849605377311 0.28485435024763806
1.5936432425531837 -1.189768529454881 0.28544943096067155
1.5645768693679274 -1.2888609371853879 0.28600376057585675
1.5362350251840609 -1.3839834369808288 0.2865669136429131
1.5112974690545593 -1.4783921037219534 0.2872416378597269
1.4810191303706637 -1.578867600097779 0.2879239817254946
1.4565209903391934 -1.6812833209232603 0.2887958923285223
1.4293082508819792 -1.7764161505674465 0.2895504836291022
1.4041606183423083 -1.8450013389536812 0.29000633651145885
0.7237166197480887 -3.51001198778732 0.30542537217820287
1.404665475761216 -1.8898091249990168 0.2906555551009314
1.3898426896710563 -1.9461614160397944 0.29116552474525215
1.213331891208519 -2.6530296280846306 0.2986437787630136
1.185575728718763 -2.717916323376918 0.2992059630730526
0.8170649679139286 -3.531458220377412 0.3071090716414222
1.2088146954140726 -2.6882079719363547 0.29913968146406367
1.1877673716033985 -2.7419767681887297 0.2996470487714371
1.1702281297920891 -2.837171341607572 0.3008827708996419
1.1409126703026302 -2.938087664919367 0.30203528188444995
1.115619684218532 -3.033320295706469 0.3031880404384628
1.0908847595790976 -3.136474519326109 0.30450267608530845
1.0643263005911796 -3.241154180716568 0.3058270961519367
1.041123045166574 -3.342263276049282 0.3071677188468987
1.0190289373912023 -3.4295788920631782 0.30830235596769306
0.9231723232964264 -3.556254687724887 0.30905099384018697
0.911300781436214 -3.5631242298848766 0.3089940147588301
0.9981142629708188 -3.5234282344803622 0.3095876759040592
0.9789251039297036 -3.5830749921032883 0.3103358253696062
-4.0696343591539605 1.9165174922042398 0.35810803805629643
-4.091645101747051 1.8316934497462587 0.35786819769344913
-4.114643742744271 1.7348708323089408 0.3576424207872982
-4.139245669986595 1.6388437105112614 0.3576474257306748
-4.164203090718545 1.5368563986987838 0.35776569637064964
-4.188733291144577 1.4413163674158078 0.3580780038526047
-4.22279340726425 1.3398220423040783 0.3589265392140987
-4.244224674400868 1.3014335172862266 0.3596596830562624
-4.203404646315162 1.361110417306519 0.3581931803549857
-4.20638614047755 1.2375283290553865 0.35771799261162274
-4.22846036907687 1.133803695929889 0.358358870767281
-4.2603822947146375 1.036703436426401 0.3596093842414503
-4.285673704116961 0.9428012985407704 0.3607146964944711
-4.307323945251497 0.8543323666838802 0.3617825853772515
-4.301451244179846 0.818733085700368 0.36159945866084175
-4.319163562667269 0.740834971576177 0.3626206001319298
-4.342713629496024 0.6437123252738426 0.3640844959813697
-4.378206346496963 0.5440386659183973 0.36622931038016615
-4.399043297089909 0.4499759231849686 0.3678202976726156
-4.430186270215877 0.3884436008824762 0.3752513118902614
-2.283924518332622 1.419844886340064 0.35304853692569316
-2.3084422784170373 1.3850146342282204 0.35576247103817676
-2.2204971726332623 1.4086204071206603 0.37828920893441936
-2.1200447592620453 1.386557774014244 0.39174436586698136
-2.0205035221424343 1.3665373194335801 0.37871573221326776
-1.2473690571135996 2.9617977186862126 0.38925094167743907
-1.8599594492559204 1.4236880989456084 0.3724054971401935
-1.9252784860523442 1.338613764602862 0.378253683146774
-1.2352963250710562 2.9376574971637783 0.38715286185674497
-1.2630564118845393 2.8903291863488105 0.3834542883003502
-1.287201864036008 2.7959530308945824 0.37588089801819646
-1.3130081395473823 2.696090197366301 0.3679697045593325
-1.3450595255374382 2.593359820803408 0.3897258893049661
-1.3631536931371913 2.5026111795559087 0.38170594678431197
-1.3835859967016435 2.404633546334015 0.3748616792746036
-1.4044547490339923 2.299959016021345 0.3640420164744842
-1.4320378646125764 2.2080869570496713 0.36092110784627485
-1.4521149519418384 2.1392654279378007 0.37719008918662295
-1.7844616544104457 1.364601939908548 0.3768436780900012
-1.8104541864765737 1.3038928422763725 0.37250850880621184
-1.1602526746618136 2.7285834217535756 0.3692330870041723
-1.4286905198718305 2.185541163742879 0.3292054793586427
-1.451903396981246 2.103339860608738 0.3996598221575451
-1.4821597714747403 2.0178529983157194 0.39159174386499346
-1.5024996010314626 1.913927959151254 0.3748065922366455
-1.5207417851024645 1.8128730683604886 0.36998722010646556
-1.5528866714231833 1.7182218888795293 0.3802196634776167
-1.5813756755832142 1.6221837650723239 0.3715760308485268
-1.6052691765951397 1.530361340672717 0.37501357346033787
-1.6199695779082766 1.464346822228194 0.38649127380624393
-1.7391725725487968 1.33678914720022 0.3813264173584486
-1.7596669534809892 1.3005133699884035 0.38874098201555807
-1.9061750046666117 0.6893384178593918 0.3619844806818978
-1.0738972266737334 2.706188179079945 0.3670262689553292
-1.8587060038038996 0.6580847376785626 0.372212396501519
-1.8926016494060542 0.567662037136855 0.3727845825661693
-1.9281211136146421 0.47353510671986787 0.3798870976474272
-1.9507182944165826 0.376346969748829 0.37364601472610437
-1.9789000633755705 0.27552883157692787 0.38008498630514964
-2.001391324365228 0.1839143825619165 0.3860893222536262
0.9624681025553328 7.747674014262556 0.32849204217546435
-0.33072673306001343 4.3456411001686135 0.3892525887134983
-0.9379345563106365 2.7309420153035235 0.36925382176076704
-0.9939594343671636 2.690782241553348 0.3656968485852326
-1.992796972676873 0.13764868845161649 0.3926229279706747
-1.9986721398456755 0.06298294920464254 0.3958287092784505
-1.9851134802144137 -0.02833471531929077 0.3820354817086624
-2.0309697947913286 -0.14312951091940151 0.363610263603401
-2.053589253429813 -0.2301260160675207 0.3714344280127692
-2.0820726588404437 -0.327048204049355 0.38226151618150583
-2.1027354225361536 -0.4003254920614552 0.3689019648565011
1.047978384177173 7.730002691321172 0.32933174403906207
-0.28350870939917805 4.327895754187545 0.38914744624937325
-0.6329596629013547 3.168610431431426 0.4095243947355455
-0.6518492480779137 3.14031700945885 0.4068364523912913
-0.8558299740643733 2.711985769037966 0.3681737772780364
-2.0866387337370336 -0.3733589221243441 0.4145192988696635
-2.105324955187357 -0.43051110262224523 0.39261578964933763
-2.1267886185142655 -0.5062509261458192 0.38393807033081023
-2.154007084687667 -0.6139817206045848 0.37319587062264103
-2.179614284136817 -0.716158040281401 0.3813967613089061
-2.1996633783445714 -0.8191446860306442 0.3894738998964523
-2.2247442214115347 -0.8906625036304809 0.3956856777041054
-2.252980888558823 -1.0101721058455915 0.4054496210679593
-2.26969194806181 -1.0655507932450803 0.4101807900369252
1.1555168676601995 7.705227800692652 0.3303753012870143
1.1055571062826377 7.707180840386228 0.3297563880521294
-0.5536761248256894 3.213723572964537 0.3303078954681143
-0.6658331072718784 3.0715097412290415 0.40081973093852774
-0.7178367458369133 2.77572112468358 0.3750933920936595
-0.7673620988343157 2.6982611373954146 0.36790508135704547
-2.1561939454588446 -0.8515384944159987 0.3895423455148757
-2.3195783343457967 -1.3053483637096328 0.3837444639016138
-2.348817567266469 -1.414688516671897 0.34470009206761154
-2.368662504079098 -1.4960192640908072 0.3488268737408875
-2.396401408766362 -1.5838753549779059 0.3534476691863071
1.2519919655766663 7.679595668297939 0.33129393300042703
1.3605763634251222 7.650885332161532 0.3323551422536581
-1.7028515431541336 -0.33850059630610696 0.3516042187674939
1.4576967865075228 7.626521766049123 0.33334933808994677
-1.6034509483485573 -0.3337406180333873 0.3751518517897524
-1.6060511640748052 -0.3853907411953783 0.36858651447530516
-1.616652625540792 -0.49694353831333515 0.36638879069714103
-1.6300258499102305 -0.563856432190952 0.3872716254682438
1.554673345260386 7.603396828641876 0.3343824159992763
-1.6347098112139298 -0.6121880344302768 0.36844204349699616
-1.6482466701222847 -0.7029936826141143 0.39216850545769116
-1.6596634177113068 -0.8033460091553368 0.3831207575023686
-1.6703695325269559 -0.9120701549671313 0.3740551322337668
-1.6751669369060571 -0.9699862378190747 0.37887787200521683
1.6521172690128305 7.579693658281598 0.3354388544722388
-1.688297441037583 -1.0339786568673028 0.38446855469912256
-1.6951441062196952 -1.102785842447947 0.39027116977504644
-1.710357600154543 -1.204576013202238 0.39903614770613594
-1.723942177473349 -1.3264924558252462 0.38889406601649434
-1.7322614830650742 -1.3849549975508293 0.4144902024552934
1.7485491604045562 7.55170160488229 0.3364473539064957
-1.7133197838173513 -1.3728255900326343 0.33016156221044396
-1.7289779665299871 -1.4353102176289971 0.3620526800355839
-1.745371439526072 -1.526422215924695 0.373611210154899
-1.7477445688642828 -1.6222922526974506 0.3431775441644688
-1.761775858337899 -1.716988106624102 0.34814714102461713
1.8443571310877689 7.525690941597911 0.33749711654794035
-1.770916257842729 -1.8306664974013935 0.3540289424567945
-1.9353312422991755 -2.39864444547701 0.38489031379103505
-2.0499910775172325 -2.783581804559528 0.4058451658473783
