ply
format ascii 1.0
element vertex 814
property float x
property float y
property float z
end_header
-1.8653185809399364 -1.1366237446189802 0.35316023694215615
-1.8400723515994402 -1.0618790154344928 0.3419212335418842
-1.8271820521545825 -0.9514659285640878 0.2909608090380458
-1.8039867821700275 -0.8355792203044157 0.2952270760486936
-1.7997949929573696 -0.8101331314589346 0.29776184106034237
-1.8169442863099396 -0.8317376620034242 0.28793760308974536
-1.7964906892849979 -0.7788094022489356 0.2954146709858424
-2.477855885230721 -1.1277139001545675 0.3113176351521816
-2.1444803827363605 0.015250195405516087 0.28913241322178906
-2.1521920996747275 0.09550861068335353 0.29471290967774616
-2.1422251136520325 0.333732714445017 0.2966502927787762
-2.0410802923531697 0.6497374002749025 0.28900149372002903
-2.0102775122406755 0.7306563410458963 0.2999197719876098
-1.99908402561316 0.7562731210170835 0.3029176204874502
-0.8236455501346227 3.010002045328458 0.24994274247077572
-0.784611614798161 3.0906741238211786 0.29458657843719716
-0.7579137145119501 3.151331997386215 0.3194137295677273
-2.022575694515561 0.731010751067922 0.3139913766029674
-2.0051104360565164 0.7645325994876644 0.30224279092154793
-0.8323494476770965 3.0609649421414598 0.2843786224455621
-0.817149118198257 3.0964874073305633 0.2788160554350577
-0.7706183761467675 3.2117574571737753 0.29249117265373015
-0.746061282628412 3.3299630006132634 0.28564999961926885
-0.7163804972565055 3.4019668134355205 0.2915598390408219
-1.8526179098732025 1.4580630310777065 0.33344478259655586
-1.8052667923448595 1.5137602430538437 0.3035366212588999
-1.7987985870066534 1.5656650444997906 0.282197187630687
-1.3284364150943835 2.3826314369146098 0.25261279311811397
-1.3413173153910432 2.453630682887073 0.25755535952009
-0.7085882768149945 3.526290519052757 0.288859296174154
-0.7030896771209976 3.650639271788065 0.27362234660946955
-0.652645020482515 3.749727942959096 0.3112461489431859
-0.6296230553931339 3.808573170405811 0.3071344659453764
-0.6093097794815828 3.890885132353783 0.29416230985740294
-1.865146990665068 1.4780256090696202 0.3062881737533819
-1.5335428783396883 2.30371548146455 0.24596206263038103
-1.5052322038439692 2.344054937797014 0.25810348918936166
-1.4595717128052088 2.434790169564908 0.26979516118551744
-1.3015774133417497 2.752083003739429 0.28231099875963783
-0.7133078831337466 3.7544783048474097 0.24679053216525615
-0.7069558088663835 3.8299664506226354 0.2372237353989779
-0.6147087931672529 3.924686075348298 0.2596138582925942
-0.614198746032125 4.066848900891703 0.22867363730153914
-1.5270602412948895 2.3663289727135015 0.2661365128408876
-1.49933197808399 2.4444499929771775 0.27912000922577734
-1.4776600455312812 2.556374277746114 0.29205896756278416
-1.3949658531053986 2.78216886474164 0.3052191870040749
-1.3396633208277022 2.7792309630604612 0.29223943829789734
-0.7123739084859697 4.010117774276088 0.2283607896926554
-0.7126780892230569 4.098502852627037 0.21903132177269957
-1.4508692527355236 2.7844570797997514 0.32125780999603115
-2.7653319527329154 1.4258950439392297 0.2770994137890811
0.9528372428789822 -2.1209935506572766 0.4311291066288643
0.8164574878858271 -1.9620048412561926 0.4601419196610327
0.7419100148668025 -1.8637598447863017 0.4540907551445498
1.363437258685636 -0.6039244906434246 0.40846581926135095
1.2667041904910687 -0.6073573641991247 0.3745749973702537
1.3168299518530457 -0.5888129204590129 0.39117214813121537
0.5777859029245058 -1.6703512434950787 0.42935320628770157
0.5699387480168387 -1.6604547285589317 0.43650540353699363
-2.1198746345092774 -2.5731056859303876 0.42456667826641714
-2.110111441412999 -2.516628202554875 0.4174296915529554
-2.1199785692204225 -2.511453626580035 0.41749723798478977
-2.122066529954789 -2.3430749762392065 0.4568312837872953
-2.091920296584912 -2.294941987437368 0.4316470430282989
-2.0784557706263027 -2.2410457789310567 0.416318263317656
-2.0834002515169914 -2.226851902340532 0.42872372587021124
-2.0115984084835796 -2.0036366586245578 0.4335149907754239
-1.9727632632396541 -1.8822651963032029 0.4550596749097475
-1.9452084998702541 -1.7876023389575004 0.47381593673096334
-1.932885285647588 -1.737913665814235 0.4371730825186727
-1.920163081104703 -1.6802573825475715 0.4088037474235693
-0.8472224585003405 2.9514478939026416 0.3625243557934993
-0.8370626807685498 2.986873138587685 0.34486079840101813
-0.8474668518168532 3.021666008242613 0.3639900545293008
-0.8194489043993358 3.1168257760699083 0.3304395809253108
-0.779551492280351 3.2252283249120137 0.38729579208617726
-0.7619213660011472 3.273825608781246 0.3773430987138251
-1.860023028076926 1.4713978986139002 0.35860811294398776
-1.12208225099792 2.8497049615327126 0.39634474421578236
-0.6506307180930364 3.7190040202095913 0.3260059831364017
-0.6352374615605171 3.7699186697212816 0.3269807657426773
-1.195576633339467 2.8738532945344306 0.39950365769968155
-1.149846330369799 2.9070985227296475 0.40466789672966874
-1.499344388356394 2.537190190701972 0.440302313740058
-1.3508969363360053 2.856623629289373 0.41645446161024546
-1.2825840780835762 2.8978669879287122 0.3981441113767984
-1.4516621708534043 2.8119829371401237 0.3802844405920478
-1.4399115119581687 2.883022074964935 0.40961378269123383
-1.3878746010915153 2.915964757677415 0.4261443911481453
-1.4739973757036746 2.939745567358457 0.380505141476849
-2.544790051685901 1.439624811556973 0.4357189508142527
-2.6738233222093735 1.425182517734337 0.4350507726969187
-2.6055499081036846 1.4473821531813116 0.4343142152690225
-2.7325774873330806 1.455623444711035 0.45112187214661503
-2.710747201278548 1.4706678727981157 0.4274540533959825
0.837048409823012 -1.9794167906491822 0.49501067423881107
0.5155063435520797 -1.5899719791056095 0.5746201289371311
1.565366471381869 0.3811736146357407 0.5359752976273602
0.49593332994986894 -1.5561299182537076 0.5711631879497311
1.0685828734495841 1.0091248589346202 0.5149088972335557
1.0230590027245217 0.9978154041572371 0.4986417719685017
-1.96114113951861 -1.826320991547428 0.5028966055253591
-0.8108172314479021 3.2206976883841953 0.4262949064185243
-1.1289143109148996 2.83219102967135 0.46778548482132787
-1.1104011002782626 2.9043184797602466 0.4678342599689175
-0.7795311129997637 3.4321601079223436 0.4536956334172272
-1.2246435858666527 2.861999499116599 0.5032931367261996
-1.6020538846368453 2.323865806455709 0.51047671319424
-1.575473536100044 2.38741735872668 0.5163462574691576
-1.5538538865946798 2.4773796465284557 0.5138534373363757
-1.50377162181592 2.5761022953111343 0.4560187518011214
-1.2473947267090406 2.9023863227488302 0.516468511823063
-0.6087131910115043 4.129274482231303 0.45879927958236233
-0.5733302785934112 4.268912874141423 0.4582102759914598
-0.5770867041599909 4.37263767779829 0.4944710571635672
-0.5204669887654015 4.414202128660524 0.451017730814808
-1.5511371026110994 2.5253863446477287 0.5069629822274033
-1.5357473558952832 2.5930167924103524 0.508280256115084
-1.5058559527103197 2.6829265528042625 0.4972215513238969
-1.4964534024891947 2.7926200210868637 0.49915416607773333
-1.4566039583209673 2.896223105788341 0.4577881066167009
-1.381608678520485 2.954864428643434 0.5041374142773689
-0.5183160829047754 4.597987754181931 0.4937649941682838
-0.4847306876870632 4.672266458750414 0.47215843528111157
-1.5051170929633662 2.835014911697565 0.48442563284946794
-1.4853103800584597 2.942195354207529 0.4933541361350613
-1.4517968033585207 3.0017687709980394 0.5044184996009017
-1.427523238127923 3.0580822556044645 0.526863893999285
-2.60882991024498 1.4658785720448404 0.4814497917437718
-2.7395638137693927 1.4300179277014338 0.49670707497295175
-2.676305349323839 1.4924724395452065 0.5263376073027415
-2.7844826376730367 1.4650579005808262 0.4797852158200754
0.9263813214721599 -2.0666519509050465 0.6736414828693729
0.8938048395196476 -2.0513847176350923 0.6402916267602137
0.8227489498831007 -1.9604789642656981 0.6038745664306887
0.5352151792872442 -1.6097145345207413 0.588811029601317
1.5968067454548638 0.38398585733279833 0.5497668679731094
1.2150300519420434 1.0429607117516746 0.5609565775500749
-1.2552631310863216 2.83827962021507 0.5873664580843895
-1.258665236183839 2.8492063593950747 0.5722937086380679
-0.7869541613306642 3.7671288073028726 0.5441065935372348
-1.5798083915296464 2.3296442652239806 0.5592482838482745
-1.5876596936932534 2.3880923576430755 0.5645980499066697
-1.5452839802301535 2.5208712200576207 0.6155229697433043
-1.2761417137392586 2.8987205359579207 0.5893133863903182
-1.2890348721350797 3.001790347611493 0.5449365016568727
-0.7651335990429822 3.9014438541783085 0.5647239852789386
-0.7250509434464809 3.9979834556684866 0.594163038867332
-0.7285088281545105 4.076276560317777 0.5821792952488103
-0.5533802675825312 4.421443353997291 0.5230322437664358
-1.5491676184534136 2.529680749006946 0.6169564326837078
-1.5303417516998923 2.5987827145400595 0.6198366780395455
-1.498887023320148 2.695385601769605 0.6196870173448858
-1.469319733092195 2.7669194998604545 0.6140134858556026
-1.3692455070573941 2.992760996038173 0.5449739451393326
-1.330863904797521 3.059657236669362 0.5787053458411513
-0.5413416988337638 4.47736719446787 0.5699448391007791
-0.5420804022503043 4.5333014414784945 0.5744599980913886
-1.4987209855886034 2.9276249229037723 0.5524528148762623
-1.4589917429525656 3.0061964835464505 0.589733190653345
-1.39870687200663 3.0897778449817337 0.6105247466393408
-1.3868264870137712 3.1587138885803223 0.6137226165212566
1.3427309336030187 -1.8179200126787691 0.7194331527363335
1.2606215214913858 -1.738703435237026 0.7207504388499264
1.2790374962283526 -1.6668944502477858 0.7452916468428051
0.9649820879335553 -2.124189221429213 0.692028530744568
0.9265459490147243 -2.079352661848193 0.696111951159916
1.2347558014850508 -1.620594235970295 0.7367787293850627
1.2253697782707704 -1.5559565797838553 0.7530592086704238
0.8894221987702542 -2.029990925206993 0.6889975713859441
1.1988805429549545 -1.5032137904266312 0.7635053845730905
2.27682031660619 1.3613054109098663 0.6361681364851195
2.0180495154809943 1.274193503368698 0.7165256797157072
2.3774651928828368 2.651694094766246 0.6765251007453534
2.4118559467961482 2.677122876590928 0.6962577776036196
2.511938324851111 2.7866008444562205 0.6809887423199186
2.328476792754306 2.630297843796757 0.6575624467349391
2.4197473279978228 2.861716619533425 0.6642669267733174
2.399052997322383 2.9379563989860977 0.6796052622387
2.4695923089621292 2.9717111033151236 0.6843016239411841
2.315068163120931 2.887338498226088 0.6493767408855753
2.3525726914909555 2.9381263105142987 0.6724127380301519
-0.8788709369684389 3.0962045669381646 0.6739990915258449
-0.8778639565748085 3.1136388615982415 0.696718436153793
-0.8906562113014985 3.151038157013561 0.687223672466747
-1.2490739080001128 2.830555140404078 0.7034970033766463
-1.2570161840264913 2.8568092007615618 0.713986820376503
-1.2766660937272032 2.9090919020869523 0.6883143193674304
-0.7921647978307427 3.827977341159406 0.6975066822071304
-0.7811802916681699 3.895596026525202 0.6692425050174206
-0.7501720297213579 3.9786921856015574 0.640082577586695
-0.7248669460432172 4.081498845424556 0.6402150503889268
-0.5609351632325827 4.577963789616486 0.6127798577049053
-0.5421405084236324 4.6503741032114725 0.6312770562282823
-1.4794968925791925 2.93790086868043 0.6393606775334552
-1.463468635999999 3.013357900276528 0.6513556024618206
-1.4184976773632192 3.1214283453063594 0.6382762133145773
-0.6963668076556669 4.428869057450562 0.6684583143655469
-0.5659379738870283 4.694581565707456 0.6509034172743849
-0.5570036195782915 4.769017320291455 0.6826480350444641
1.2664207991054643 -1.601170887194708 0.7793836071710832
1.230781305361688 -1.546487410411742 0.7756534590508739
1.194296432360854 -1.4841091514602076 0.7743292638993807
2.4969986836831524 2.697828824127075 0.7297274438871477
2.534658333042671 2.7251224845094333 0.7507820030018628
2.4371207716246888 2.6730672210375874 0.7170053760479681
2.582505572883644 3.0623370004020187 0.7210522153959954
2.654396775379773 3.239293711973249 0.7498270379978563
2.6959681376808513 3.3015265674131364 0.7650437598529067
2.5745898986482345 3.1891497726119895 0.7409892249720851
2.60821862502028 3.2744804142222983 0.7289906855649316
2.688194313202499 3.376453612409065 0.7516054545302239
2.6919309591543126 3.4415726607595283 0.7501643322177383
2.4604773679150966 3.1418882467328304 0.7036773520334199
2.532049611533367 3.3696501734770137 0.7149570959868551
2.5797660240379923 3.3860211774352114 0.7259671168447734
-1.0023594804932188 2.7866617043557596 0.8285377269432527
-0.887667778331103 3.152580880944964 0.7380592576740668
-1.2167892468655908 2.8109446844096304 0.811061936198289
-1.2201995291716472 2.8427279887696604 0.8116003881231958
-1.260213576519036 2.8734629277381387 0.8051980878979783
-0.7865601716577315 3.8994944055148206 0.7328279430810793
-0.7594285463817888 4.0069329774856275 0.7771093540902613
-0.7364617502231809 4.105479935159124 0.7981068084754023
-0.5586446122937117 4.57710339738493 0.7791796469045205
-0.5511138619215532 4.702859454479047 0.7398138388977541
-0.542313966211533 4.790862702300449 0.7493024266238391
-0.8727931760975406 2.9220741394312384 0.8445712543732748
-0.9924688451104832 2.8186489420586973 0.8478702120151888
-0.9751779450043354 2.850816456837791 0.8565461802083674
-0.8945592738099601 2.9769501146232225 0.8694184236496814
-0.8619532516550436 3.0569483309627623 0.8569532842139035
-0.8407515844123297 3.1124344258322987 0.8628344070504154
-0.8254176269055372 3.24799623395395 0.8504919750384289
-1.0557939477213316 2.916443621572026 0.8744937354666701
-0.8179388556637218 3.3483482238569913 0.868850943902357
-1.164436435343436 2.8706211194082303 0.8530266920131703
-1.1256453057229416 2.9572940182164693 0.8839103424051767
-0.7398099202204872 4.141475505493707 0.8185420968268645
-0.7280801848120376 4.241945676812214 0.8495348659692393
-0.712379263499177 4.308713735634291 0.8602299550729013
-0.669418807506204 4.436929419859636 0.8907983660638179
-0.595106142938483 4.4870586206265815 0.8699375147008217
-0.5598183813967389 4.586441190706517 0.8474941372082516
-0.6898152584781633 4.490599130582672 0.9073754980143399
-0.5798929496322297 4.64125574738865 0.9006782170180017
-0.5480946044340229 4.72177368197662 0.8112311787848006
-0.8284414122335536 3.461753295856333 0.9492300029822354
-0.8263663499203112 3.484432342374627 0.9646663957111035
-0.5953249432905168 4.536372517105849 0.9084366020144212
-0.6731092004164212 4.461028016888341 0.9100491940580087
-0.675670117037614 4.534753694488045 0.927015576201057
-0.6984323459910458 4.611686231502044 0.9495543638593269
-0.28244582061947443 5.099770813944364 1.2769037495562154
-0.2505478516324615 5.283702727331929 1.2859237553074898
-0.2495926516204684 5.245711324134058 1.3044927574145166
-0.24336593963299602 5.297390522994229 1.3180789804096014
-0.22679472384518273 5.411439764862329 1.3626653088841847
-0.20082310652549595 5.511962178239968 1.3627079052179563
-0.24579661407945652 5.358293410510989 1.4708320669469157
-0.23662634146660166 5.459730814570926 1.4860117484372122
-0.7739626118750658 4.590601719468934 1.4853138322294124
-0.23234050973328524 5.533040821033478 1.4851230810717726
-0.27830689288732025 5.127116158624095 1.5497573334948729
-0.22928094535967414 5.473730190846257 1.5188995104577774
-0.7521427265015903 4.661775301646732 1.5174677588644385
-0.21516554056442483 5.544060282970093 1.5687125278400222
-0.7315946513662177 4.826195826172652 1.5838364748439138
-0.7461563762118484 4.867701086223616 1.6022369687053333
-0.2750677209209812 5.239307653053486 1.6232364953549008
-0.71039422381027 4.959365514044273 1.639668396847676
-0.6858273818570695 5.061073325397066 1.6972092700535268
-0.7008564231412827 5.096089306849974 1.6914159348246103
-0.6343931533072804 5.154942302515339 1.7194912117133214
-0.6862240670714612 5.1037106831158745 1.7063260613753326
-0.6455930121940242 5.209465390492175 1.755913032543777
-0.619884505913783 5.277517573677094 1.779629762798016
-0.7172783300497724 5.243469333277309 1.7581296632245536
-0.6027420294071419 5.367231039887002 1.818335383257301
-4.304919948709654 1.8753766158324767 -0.23840269548298568
-4.3257054199006255 1.8079237543663584 -0.23558484519783937
-4.352290024510679 1.7360489991027261 -0.23319564573181237
-2.740015276152921 1.3797124258052327 -0.19839105832060486
-2.7786221922878616 1.2846364639933232 -0.19175349294289099
-2.8088075576259306 1.2803949302897133 -0.19580161298873486
-2.734951821908777 1.3141790768948591 -0.18904482726538882
-2.576712401973066 1.3145860555010482 -0.22127185841439004
-2.5936374461673766 1.2986412484407859 -0.2357462424579446
-2.4854123126692347 1.2951874102011913 -0.21684347817943053
-2.3879346375778727 1.2765589680610747 -0.19765150535847506
-2.285935514206244 1.2566664779973544 -0.19785795634992784
-2.1865666203394967 1.2372591647073063 -0.21672711088528399
-1.6768351653904676 2.190478097510528 -0.23576674371010783
-1.6947659151535222 2.121625645382184 -0.22265540040150947
-2.087803610209946 1.217515499044884 -0.19531474748408548
-0.1505102108221621 5.975885708098114 -0.19350204809331276
-1.6037566856106977 2.1303964686917527 -0.2205022309364286
-1.6963194152967032 2.0903831374143573 -0.2164393568085721
-1.706708428374188 1.986576513548518 -0.19611131386461075
-1.7284879477921535 1.897013816603015 -0.18784628523476374
-1.7532488873073138 1.7980708873849445 -0.22693884388141508
-1.7807016272618315 1.705769343652019 -0.20798192209080865
-1.8043088417829027 1.6038098420933153 -0.19200883456277953
-1.8278224173972655 1.5162725831595905 -0.21336566888741046
-1.8510412518223789 1.438875244979679 -0.21151814531180355
-1.9823252082544993 1.2418086628449156 -0.18338142139480956
-2.0296056620473513 1.2018641839734736 -0.1820872834920976
-0.09224921851419443 5.955980286432959 -0.19319401438340453
-0.12071316909741137 5.906213449657346 -0.18942843064305534
-1.5354904442548079 2.1038352628188433 -0.21259820252827058
-1.8542650715547175 1.4046199734272304 -0.20348462666871722
-1.8679663222739369 1.2983658693311337 -0.17952094680671624
-1.9074766523951356 1.2570200574377013 -0.17535196402664305
-0.6115809363893047 4.240226778624785 -0.2178693849312672
-1.440258538972506 2.0686865223801454 -0.202529057097771
-0.533057565360561 4.224099374508782 -0.2178112045351646
-0.571965245470269 4.152068241501918 -0.2097421673129546
-0.8121667334111298 3.336472544984234 -0.23769294821657663
-1.1241779799852833 2.526157899935 -0.2087677505685924
-1.1478583987431683 2.445057931244108 -0.1945813747224798
-1.3444739897211035 2.048568789880958 -0.19632492603435334
-2.3969620710681934 -0.6529480065697099 -0.17378387722948244
-2.4202642931925293 -0.7540440738985144 -0.1916688620084014
-2.44008528872409 -0.8295777210984525 -0.20612728264024507
-2.4636259731144423 -0.9232741580574144 -0.224374874118871
-2.487632928740666 -0.9878643785892534 -0.20594749411748617
-0.7726103951128283 3.3326263085652608 -0.2379828470895541
-1.06104936006732 2.51381866688509 -0.20727740136808262
-1.1546236710471829 2.375950046621595 -0.18259965120339114
-1.169409124796566 2.336123796156435 -0.17564211416178213
-1.2213680558735576 2.1284010725751945 -0.21300303680364932
-1.2515261688253276 2.052618868553202 -0.19703041224991277
-2.385406127354825 -1.0055123473615921 -0.22151480949845578
-2.3785696210693636 -1.0273889219947125 -0.2237638025341626
-2.5650196391560565 -1.3292751232293751 -0.23317133463966275
-2.6062122340958727 -1.4542810166878397 -0.17899857356437876
-2.61667183938409 -1.5161485972248114 -0.1881335930851661
-2.6407101653595815 -1.613133762521517 -0.20355283493860324
-2.665545164629429 -1.711072457913501 -0.21938787612106989
-2.6894528094083525 -1.799198324043426 -0.2339488254024333
-0.9646148574504979 2.5161829611303714 -0.20910130941974284
-0.9848555383972895 2.5040839715057075 -0.20666920389672558
-2.3674195388081367 -1.0704937208555712 -0.2288001815964262
-2.742926622251816 -2.039378531082831 -0.175666934509196
-2.75745314593118 -2.0985021177333056 -0.1835414120958943
-2.851772237567221 -2.4708189970261176 -0.23399243585285287
-2.553406865699853 -2.2596117199939725 -0.18616020314588996
-2.3204815937269476 -1.9542739887818676 -0.21856820875451813
-2.165721999759762 -2.352776595254515 -0.1733812045650735
-2.174957946483815 -2.3983625690983557 -0.17986261563428496
-1.9610571189277537 -1.990051154502913 -0.1966668379012458
0.6101180940544688 4.053861591213522 -0.23800526703219407
0.6298852701827424 4.025666293807629 -0.23619995784014577
0.35771147163894756 1.3750505731197802 -0.19777356854355918
0.35094801716920876 1.358188241932479 -0.194326744274023
-0.9822637541767437 -2.157036844228141 -0.20418345418787517
0.39903946420854064 1.35676436935422 -0.2016428487857612
0.3904415154180656 1.2964157310536057 -0.19197856401887928
0.37511779699654 1.1799076860224413 -0.20344530398746832
0.3807730473670561 1.134563597337632 -0.23542104437288222
-0.9499982847597513 -2.1644582057761537 -0.20620787134425014
0.4158060543799047 1.1371226821960094 -0.17531977515486755
0.43678170355321666 1.1044119154484604 -0.17486534710744076
-0.6957179806313718 -1.9378404890731762 -0.17453204895508814
-0.7324998618676014 -2.0244588409591273 -0.1882320503684127
-0.7583304881374645 -2.105710040783297 -0.20161710522049928
0.5043205206090429 1.0248490678951336 -0.1773260698030459
-0.0773279401368856 -0.9168574703753003 -0.17666350903276867
-0.05636416684385692 -0.9231873918118869 -0.18192944587568396
0.08779256521118595 -1.0104215123660605 -0.22597513339649508
0.14100589989712797 -1.0082510016288373 -0.2364612656022664
0.12340654232614834 -1.0198106040748671 -0.23480689495172238
-0.6808566902667135 -3.3115499926381107 -0.17319071517822654
1.3066367881855265 1.6585254238703844 -0.1844409564460782
1.3074485974064676 1.6201658580743905 -0.18144116447761355
-0.6238817478921752 -3.32805757581706 -0.1764579937752939
1.4323590938376454 1.7782220898569128 -0.2081883935773957
1.3769493804730237 1.6494017089181299 -0.19153915577886324
1.3236122658281702 1.573432981113237 -0.1795269114077615
0.7332880061066434 -0.8799736967010394 -0.19916594381656175
0.7046713443483612 -0.9598963853639135 -0.20089231120554032
0.6793936052318461 -1.0435022163447534 -0.20413313995714596
0.08219634967812572 -3.330496187178166 -0.2038797028340857
0.08658183066042158 -3.505101634289632 -0.2220395853108563
1.9093216777182034 0.907483730757272 -0.20829664740699208
1.874770990140959 0.850518230311427 -0.20132528550108011
1.8401791956458606 0.7373207787565118 -0.19202457642363954
1.8040818291391691 0.640127530012779 -0.18356381097991237
0.9846570468185154 -1.5024633918974266 -0.2061315714213243
0.11717907811980188 -3.5138134116497297 -0.2244166010917252
1.882627073211703 0.83024911186848 -0.2013960865907429
1.8658766671710538 0.7864241457723341 -0.19735061313097804
1.8264705990156476 0.6761948395719982 -0.18781601638679932
1.0024539169195334 -1.4987532531266343 -0.20816098471863656
0.5111229164000097 -2.937351616602319 -0.1899927813830015
0.42215385241661685 -3.0469266801842982 -0.1947136979024793
1.0551566750523282 -2.378612977360106 -0.18322074597675916
1.024229151860008 -2.4767296609003764 -0.18861876407812792
0.9979186088742964 -2.575812008080585 -0.1947411109503808
0.9211110313239197 -2.651378103876319 -0.19478689680587133
1.0994863543653046 -2.341890748421932 -0.18419230055076766
0.9877377917883889 -2.6509333262165855 -0.20027554607717565
0.9500069543337015 -2.795184587747248 -0.20953283644946671
0.9338033552879157 -2.870391984154959 -0.21481359202464947
0.9186443204717003 -2.972847889494667 -0.22270665553238309
0.8980046654659204 -3.0733758816217986 -0.23016510980327468
0.8706193306272179 -3.1546460995972136 -0.23553359000197346
-4.198985113252441 2.174110922157825 -0.12034951339359762
-4.21941494103915 2.095388019999608 -0.11678324184174593
-4.248073694721345 1.9962503558507219 -0.112680057097827
-4.313000673102903 1.9199599917983048 -0.11256419559461883
-4.332923451737508 1.8224454609111134 -0.10842834719163988
-4.351178082682804 1.7391768913492263 -0.10514817909213153
-2.7648762406815415 1.2816366083862165 -0.11628876174421127
-2.7965686263955414 1.2772760236424265 -0.11969219913499807
-2.70923941587107 1.3631502444981247 -0.11859046175639401
-2.7171865957438017 1.3121034058934016 -0.11390387417654993
-2.570614993527343 1.316783229193497 -0.1314900997913739
-2.5939826595264828 1.297854318011888 -0.12521515526549687
-2.494841017909317 1.3081151546097427 -0.11489354190875631
-2.3975081690671516 1.286753260604647 -0.1147195015035489
-2.276305307800154 1.2609207629069268 -0.1215821328797827
-2.1883342107842854 1.2666250261428855 -0.1069902112613155
-2.1886102917097547 1.246037659795717 -0.13514363013407155
-1.6720029930287619 2.1933132931729893 -0.1205724266794648
-1.6875098268815458 2.145637175247909 -0.07656751519326283
-2.065528488134037 1.2199984929432885 -0.08455597093040498
-2.0887368940306885 1.2191251490402808 -0.12128148682107023
-1.6282063542684706 2.1550786305899847 -0.13229523990892547
-1.6840173297075318 2.079437536422033 -0.14022099010880737
-1.699533858449385 1.9909063012507728 -0.12607274406840507
-1.722491084359688 1.8867021582010004 -0.11640701425538127
-1.7503674198926054 1.7964201313888422 -0.1286512509117876
-1.7765713767191655 1.6932303387227992 -0.11460696159134062
-1.8054492759994956 1.5962260309198162 -0.1258867894227108
-1.8307318279508054 1.5003403118931569 -0.13552985635588502
-1.8508097619671724 1.4363738851575603 -0.12324367104214731
-1.9837843985947612 1.2445703257674796 -0.10337029066513456
-2.0261716304222217 1.2027953049440483 -0.11158667396762775
-0.36403882835965007 5.101005025217743 -0.1322089290814982
-1.541210653779733 2.0968436397397654 -0.1386464654301611
-1.5291596852049572 2.082682476698303 -0.13591348230664094
-1.8538136559878666 1.4037005325702294 -0.12098680210918528
-1.8690125372875805 1.2984384477745223 -0.10350429343155232
-1.903366462307343 1.249510779652344 -0.14090692340137848
-2.081043417502415 0.5941339092145289 -0.08283172273530179
-2.112752690966289 0.5643017770156616 -0.08656107109436623
-2.1627705305556475 0.4448440265782614 -0.08597265432668574
-2.1870501527002513 0.3588035361209021 -0.08505569006489705
-2.21811531991162 0.2590367530549245 -0.08706603667186738
-2.236743722615616 0.16295543179861385 -0.08839355946538255
-2.260985830086777 0.08950489960152139 -0.09341632555544077
-0.3304111356244759 5.09123089926376 -0.13212739360961862
-0.8707643217117962 3.440685733997463 -0.1324051423754134
-0.8835580161392318 3.425589875566479 -0.13067756259926672
-1.4451086126159642 2.064290327282075 -0.13087950075681135
-2.23770204384999 0.12638211029645946 -0.08784995969092504
-2.2493369287769185 0.044331546947334904 -0.0903497887387911
-2.2590734670267723 -0.04770779473153733 -0.09410153291728648
-2.2524857402728857 -0.14269382380868814 -0.09557472759561372
-2.286626748549205 -0.24216466328345468 -0.10935293891750666
-2.3163902709806403 -0.34229758563199475 -0.10843097277136413
-2.340456829143962 -0.4110992213242204 -0.11876235828315498
-0.722915906237553 3.5581413414803826 -0.1467784555792116
-0.8286997116851882 3.3920920505451138 -0.12813650258037498
-1.1269913855183489 2.529366996261002 -0.12259660960414676
-1.1985677640459582 2.3075353424014904 -0.13122235098243348
-1.348757957253736 2.0392365417787905 -0.12503014132476925
-2.2329553760468555 -0.15076320029181425 -0.09094440101005277
-2.312206418302259 -0.3556164908132775 -0.10437237027672167
-2.3413986018847788 -0.4413378573580016 -0.11143099594847239
-2.3656195075254542 -0.5369183463759866 -0.12630139164174037
-2.3876565018665903 -0.629771758314814 -0.13770305540705322
-2.4207787303291535 -0.7336613469382882 -0.11197696951730074
-2.444641648813037 -0.8373074539873044 -0.12707458471047176
-2.4688970981199563 -0.9224875923983207 -0.13381825975990136
-2.4989876855621778 -0.9874306636141967 -0.11037456520582717
-0.7790794986967788 3.346306971478568 -0.12432180083094699
-1.0639019208364933 2.5116774893271017 -0.12078819555811024
-1.1458924543834055 2.4102145273705906 -0.10611806857115272
-1.174776714588018 2.3167403587638713 -0.11948763446615304
-1.2104015801514618 2.2201751901038227 -0.1554962194629179
-1.2187133737923113 2.103269688492481 -0.13530646833624166
-1.2587558981561684 2.036273381892132 -0.12382255651267454
-2.281917722933822 -0.6287367881781438 -0.0938986394125553
-2.378686328146767 -1.0070926817916641 -0.1343875991750548
-2.379231159964059 -1.0249602524825603 -0.1185549386541856
-2.5690840194606612 -1.3315212906746545 -0.12200271808400351
-2.5889624241122995 -1.4067881572206669 -0.12904035651911724
-2.617430667776228 -1.5099304500733917 -0.10756575329777252
-2.6419716052766082 -1.6011871199623178 -0.11928713029068222
-2.6679752644189616 -1.6997006619088046 -0.1320403777391415
-2.692446102297416 -1.8015266963974663 -0.14513933390269357
-2.711410479520097 -1.8944705942053637 -0.15691719652912858
-2.7349949581956245 -1.9957446127446592 -0.1383324768617423
-0.9549701868354334 2.514895147896019 -0.12270197987501796
-0.984917224475841 2.5046177684045676 -0.1208265920058405
-2.361023218487504 -1.064613525886952 -0.12920819332634054
-2.743300768718963 -2.0463239847304213 -0.07997619778006204
-2.760207518978805 -2.116975947080493 -0.08699022862589212
-2.782874435478739 -2.2068899837631113 -0.09603677799393612
-2.7981160230053286 -2.2629068449030223 -0.10177337446321807
-2.87763283092102 -2.5977394706085777 -0.13570415463119864
-2.9063051487486895 -2.694932632193344 -0.1459797540782162
-2.8691392501359116 -2.74553561740588 -0.14847503816294344
-2.8879437697144716 -2.764613516119762 -0.15119801327004556
-2.5602816127515142 -2.281992535986024 -0.08961808172848723
-2.7617634715652093 -2.7820033014451813 -0.1460708254584504
-2.6928974570502486 -2.80188884511887 -0.14444670942130425
-1.824004044141363 -0.7916709522037997 -0.0841823759910987
-1.8356284499557716 -0.8115616254288431 -0.08987818631720298
-2.2609387007548483 -1.9666740092450703 -0.129713891563089
-2.543766556561689 -2.838832201118676 -0.14099323967866145
-2.471067778327721 -2.859159557830228 -0.1398581268816164
-1.9476286798677644 -1.7653670862794373 -0.15886413675539418
-2.1713757899145625 -2.357331525776817 -0.1103232956746964
-2.369550088832881 -2.8825389618417807 -0.13813412497040062
-1.979411963132624 -2.0016164495608835 -0.11745225170217813
-2.270165323567535 -2.90817480935334 -0.13707076272064936
-0.5819678031279445 1.1345774210416464 -0.08385453646333937
-2.1783965440484296 -2.936563498942192 -0.1369394030753099
0.6077787221914506 4.0266102642413335 -0.08483325283682158
-0.5429834683529677 1.1899041540878015 -0.1391755160640981
-0.5243677372814504 1.116508435389854 -0.10172234304377434
-2.0491034920076494 -2.95677411391751 -0.13530455167396765
-2.090773145222366 -2.9632966970838672 -0.1371136755398065
-0.461522243746627 1.1078089939237532 -0.11268768762910708
-0.4701592345405087 0.9781211267465432 -0.09843907771592977
-1.973980952516401 -2.9796681116003874 -0.1358410056126437
-2.0038882675736076 -2.9816883099870997 -0.1367610562334721
3.2384003671959274 10.46972345313573 -0.17012176703678736
-0.4061818038884788 0.9611748105329588 -0.10546647703932743
-1.8755983805097582 -3.0016549650039037 -0.13603700090125564
-1.7770158220187826 -3.020533719274996 -0.13628589408135655
-1.679192891065091 -3.043703469830088 -0.13738787406589262
-1.5872261416760929 -3.0705998370312444 -0.13932072303399634
-0.6639988233750886 -0.9714544699724239 -0.09516297398177817
-1.4954407671457308 -3.1038454394278387 -0.14228832290892093
0.39564755563846554 1.4351950979084316 -0.1397043335610135
0.033137592378245984 0.6612426328081842 -0.14763747844432873
0.01028737913278066 0.5895351400392064 -0.13276516017330658
0.0039026169977589564 0.5207556962902542 -0.1230827374598614
-0.07444025885381633 0.2905596859612927 -0.0821236234347188
-0.6172775792105777 -0.9925826155909931 -0.10533534375235257
-0.9864932285912132 -2.1481387042542384 -0.12109935282716322
-1.3955351404066891 -3.131443921607885 -0.1449729024273559
0.4958268602057776 1.460436577179212 -0.08052645395445424
0.39001653339397246 1.4073052192607833 -0.13565526511020393
0.37663627093084795 1.1703946548071567 -0.17297612586263678
0.14211348249502187 0.6054397853118253 -0.11817704317897348
0.14665173627068895 0.5601911814704589 -0.11476503364421187
0.10267937028924634 0.3759971426384398 -0.13592492360433447
-0.00689583401235172 0.2416336840541424 -0.09787475538325172
-0.07282377762173242 0.0555533080771099 -0.07516895948218383
-0.07510170726829479 -0.0425660055078175 -0.076032023624196
-0.9504309113736545 -2.1549673973666232 -0.12277089372551503
-1.300675371150247 -3.1572802868821075 -0.14783967095384062
0.6211532813525229 1.4859667829798873 -0.09575878660034845
0.5667089756532098 1.4806239510471035 -0.08965574017371364
0.4808678382041218 1.3435361711297407 -0.14008436605719743
0.4707695432958654 1.2707924689664822 -0.13067827548050956
0.4759717875645182 1.192879442029384 -0.12305198550372279
0.4395724702620125 1.0523051633769656 -0.16916094847747726
0.1135843897996931 0.3676710485003236 -0.13826047036753666
0.08419165207544954 0.19161187245419162 -0.11166178356954187
0.10998844038609001 0.17343425167311988 -0.08196149921166146
-0.06201073146231528 -0.06767044434216415 -0.08031761185296524
-0.12234700202815396 -0.25307141275772693 -0.07498489681853829
-0.07653020239007435 -0.3245409580494537 -0.09305511754477663
-0.2679220287119136 -0.8115922473214665 -0.10038315824744279
-0.30680087253619415 -0.8951891888300016 -0.13013350311224514
-0.4090752963060017 -1.0909993397305375 -0.15467654147531518
-0.41003271282636233 -1.133824135921367 -0.16393243384179826
-1.185563963017477 -3.1795754740727062 -0.15079629433655328
-1.2268724607502242 -3.175971365001812 -0.15015185129548006
0.6685314940536042 1.4750771566229386 -0.09972272883026795
0.5701207853164978 1.1938499232247803 -0.13624512227921853
0.5500667292238768 1.120867157707245 -0.1261728825526752
0.4880029849972589 1.0391603185002494 -0.15318118408586218
0.1650562238341826 0.16304001534622314 -0.0947981927884328
-0.062302181107469545 -0.3499078089213089 -0.0990174826168469
-0.19041773605475898 -0.8299726925576016 -0.10629759651111695
-0.25769472151714756 -0.8805742405651338 -0.12901841649131865
-0.24711412004688704 -1.0594832467331838 -0.11941920620407057
-0.2879158681090529 -1.0795986074957438 -0.11711250066617482
-0.571660594202666 -1.893717914249541 -0.09874188639107359
-0.6314053597741809 -1.9413632349444314 -0.10259758949740763
-0.6826805403900148 -2.042743313010306 -0.11472593716977289
-0.6988091779858507 -2.1464135205405115 -0.12880932899957634
-0.7074170130277867 -2.1920921192412113 -0.13498984855763102
-1.0948459846524892 -3.2062239629917584 -0.1544724697577577
-1.1473260193766937 -3.2034929311632845 -0.15368138634585385
0.7456246391575212 1.4637988892336247 -0.10686693823871543
0.6317222037929475 1.065735703251007 -0.13269649576877526
0.3174414200466509 0.15504472423105814 -0.07881651413851656
-0.12327135412515944 -0.8613408865515793 -0.13689505746177627
-0.14942141395825503 -0.9953861197003306 -0.12336527658054672
-0.18120665510441336 -1.0327836516020492 -0.12469802960200782
-0.49389650602484836 -1.8880015214711148 -0.10208164352855992
-1.0072802800787553 -3.2311877523293684 -0.15821898408912616
0.7350842207552202 1.057033126271858 -0.1471468093822427
0.006896360923158706 -0.8922807247887017 -0.1158209921864573
-0.0927519911444632 -1.2217909758027314 -0.10894047103733617
-0.36668477284246936 -1.8873825631393286 -0.10958849775933904
-0.405325213231549 -1.8884710930498887 -0.1073206650320476
0.06420587745431172 -0.9418617673543763 -0.15112339739070224
-0.04399614152350295 -1.1986517406415762 -0.11189448349662026
-0.08863930995734981 -1.2667424383135877 -0.11585700221909517
-0.3937875743191558 -2.29278884222429 -0.07419716507670704
-0.7980685444095116 -3.2818875401081598 -0.1673098739260647
-0.35737853793853813 -2.292465630567696 -0.07581030070992004
-0.7243813942767925 -3.30019160839598 -0.17092214300074143
1.292977051361705 1.4845182331218825 -0.16916882197331845
0.7773995054242386 -0.9008735540675064 -0.1317499829664056
0.7231706931009132 -0.9699772568118648 -0.12849628221269577
0.6999925511231284 -1.0694751387867292 -0.13242756093152885
0.6704885505519866 -1.1538894228147045 -0.13495933511477037
1.823133705403533 1.643497191470021 -0.12500272959491435
0.8377021300550687 -0.842200573540774 -0.1370652762079242
0.8354215384426751 -0.8870110485922447 -0.13940560405693908
0.18430429917153135 -2.701292275179756 -0.14625965070750238
0.038124337084879834 -3.006667973653564 -0.16857635856512776
0.003695707285716221 -3.0070445390985343 -0.16685186477404368
2.067052690260746 1.8922828796933981 -0.15974198207236906
0.9492387629281267 -0.8883402796042905 -0.1563986487724401
0.23413353168043338 -2.7183310917147003 -0.15098631257586348
2.136965738466559 1.8945931436948864 -0.16574464779201314
2.106793914175472 1.813500045937168 -0.1585975677891316
2.08861127891186 1.7195393496859597 -0.15184150382103523
2.0728475271622138 1.6563068333238078 -0.1470690746963486
2.084635124587411 1.6281557571551255 -0.14658747084327767
1.8008707393543226 0.5830352387093521 -0.07691393972391283
1.6982423875089874 0.1302404550282035 -0.15606270990432786
1.6560148947520388 0.06769949616641069 -0.14985333327957828
1.6540824239412542 0.010731791705818394 -0.14905678418112622
1.1535621662460953 -1.2834511546747056 -0.11748516199615794
1.1433065768789066 -1.3098498619537602 -0.11777769183240691
1.2155865896588922 -1.2885137271600648 -0.12470327732400696
1.2246177419932247 -1.3842116638602102 -0.13082325140458445
1.1970745355139598 -1.45817041339237 -0.1320160489363452
1.365547232960665 -1.1434710644392645 -0.13485132684802478
1.341883859919445 -1.202121017542596 -0.13480364615181134
1.3114775219514978 -1.2848721714877436 -0.1353379338392868
1.2823587625089743 -1.4393224451103988 -0.14025841417114687
1.2736385457167885 -1.4942348790145568 -0.14243638210511397
1.2615085297420705 -1.6006190501830928 -0.14741217027296388
1.2330183528689644 -1.6917448596227773 -0.15007483002596134
1.2033508796374253 -1.764962358203249 -0.15175353401684574
1.2731732268493465 -1.6088594235172624 -0.14912235119048178
1.2415341353903255 -1.70488764783774 -0.1518214811214433
1.2225067082098178 -1.7634366954694558 -0.15364038314143927
1.0136685605839262 -2.5461694469267777 -0.0735772747711052
0.9343683557230791 -2.638030966371075 -0.07390343269420357
0.9314251866849232 -2.714199286698259 -0.07808338898695719
1.0052516950794994 -2.6030267431307474 -0.07630502154294785
0.9851760707470112 -2.656014914474797 -0.07808052553782063
0.9572927311693593 -2.7928529458366755 -0.08419715971890851
0.9438676066792142 -2.861346592779566 -0.08738838462351614
0.9288013393947601 -2.96320103543909 -0.0925272690530809
0.9010603351200426 -3.0641221005007453 -0.09700214645292346
0.8759506201016625 -3.1616946300919535 -0.1015523660943714
0.84666365106844 -3.2564646818992014 -0.1058248174598487
0.8183241207733964 -3.3449325304498854 -0.10986267867110006
0.6745538705238034 -3.6509912768778006 -0.12241470417173733
0.8067706839156206 -3.396248717971015 -0.11250029603212788
0.7921350465614987 -3.457445507171031 -0.11564813757824371
0.7645001280872616 -3.5580558946313805 -0.12071525840426228
0.7325021065294923 -3.6554578994354645 -0.12546884078535372
-4.201523619871109 2.1641739004593323 0.010371579336203002
-4.212636328520225 2.0874239235505416 0.013280284843607076
-4.250446281473017 1.998213268445876 0.01567758676377886
-4.308801260327438 1.9140703241466492 0.01698531065203504
-4.332633463567979 1.8187539795575982 0.019874227157303304
-4.360851550429425 1.7445464812286446 0.02166641958905191
-2.7900502586015525 1.289136299019971 -0.010747776714023771
-0.1626052152259726 7.919716377973138 -0.046235178654089173
-2.701235313794743 1.3068900758563027 -0.04055486841382561
-2.5688357665561288 1.3159409530672415 -0.029750452836957625
-2.5869578141877403 1.2928952764674821 -0.02919159905845961
-2.486754583095722 1.3150857925178938 -0.02270851936704231
-2.373045633747269 1.2931010672005836 -0.026452407734028502
-2.285871133739796 1.2761587022785197 -0.038488258827197155
0.3219974077027776 7.687385898916051 -0.04444227509539901
-2.151052059293366 1.2532186370162715 -0.04472361570480511
-2.186916076235592 1.2538796987915881 -0.013879883523028005
0.4008523758027318 7.740861554449538 -0.047068457117428214
0.08743214084759288 6.834137157002241 -0.014976596760512842
-1.6917254566679159 2.1522924414168743 -0.003140315585467332
-1.6955943511937557 2.1272333387337485 -0.0007225122895560959
-2.0231356352028484 1.314895462686335 -0.019612656053644373
-2.031156738858125 1.3100271494499272 -0.014259919590336137
-2.078322283679864 1.2137830574382225 -0.009659154775936152
0.5027866400248375 7.712410963923736 -0.04742226464717676
0.11045306706325886 6.823910950598063 -0.014913654008487723
-0.15044849733838428 5.95810945072917 0.015242473741303414
-1.6367096695702448 2.143110250270697 -0.02781091354103779
-1.6721144192140667 2.090492478565751 -0.023014410530645887
-1.7019865472296969 1.9847786834089929 -0.026214462521274046
-1.7276652159429136 1.895136000754872 -0.007873163240886702
-1.7479240032100596 1.7956918621151057 -0.03237401409795604
-1.773901876240972 1.7000918909461666 -0.021030295776405306
-1.798536071437625 1.5995123300870586 -0.03824030270038657
-1.822607352702989 1.5163770732093136 -0.013881550569193865
-1.8464396908110063 1.4406673886778607 0.008166684832774954
-1.9850889565543524 1.2343788130224083 -0.001989471068176568
-2.029588357909534 1.2003631712454956 0.004366291618560392
0.6269184831906165 7.7098161345987615 -0.048888065555806326
0.5816238387581125 7.6943669889394055 -0.04783353556302969
-0.08974755383613875 5.9539762029267465 0.014678143436837682
-0.11689660323520656 5.912004418354826 0.01629867423647663
-1.5402953186879476 2.096604531074136 -0.06674276641736354
-1.5430796431796607 2.0831560393025534 -0.016628610805002858
-1.822035493698767 1.484001017865356 -0.03702770030873441
-1.8453691023395686 1.4033443105516261 -0.01355038603647031
-1.861237434085001 1.2957449739501081 -0.005374299013293629
-1.9011796317162453 1.2480352380558086 -0.04105077486144644
-2.081824400660492 0.595126043938157 -0.02459298208235121
-2.113878000775358 0.5514614157758791 -0.03600059390416596
-2.1613753416474095 0.4494847836696539 -0.026727069282480295
-2.1862489029776206 0.35715855918025663 -0.023581615132621483
-2.2176162417160263 0.2604141689439515 -0.023863896146327016
-2.236295911293164 0.16357259078949737 -0.023527013020540305
-2.257422593735347 0.09341223713647426 -0.026632177349792327
0.7125254262823264 7.658978357843539 -0.048375699896068367
0.6599136044665939 7.671432350926718 -0.048099372982260594
-0.5964357740940303 4.2277758442941265 -0.07081161242774497
-0.8817333027213303 3.4253426755433156 -0.013642890440591346
-1.4376441572276248 2.058134595204333 -0.043976169842948346
-1.4587721856994207 2.053511184546327 -0.011846169488676991
-2.230503442197442 0.14281709107989488 -0.04439865037881269
-2.2506383188343917 0.05254096161349514 -0.02689896792103691
-2.25692346230277 -0.04914067008599163 -0.029289356435204097
-2.251059744058828 -0.14750062368592062 -0.02943645731001314
-2.2919919778171405 -0.2496225850757647 -0.022795307566371853
-2.313770825870427 -0.3321218807182984 -0.029150595901727278
-2.3481973028657883 -0.4128407979171772 -0.03759871631621317
0.7896946873240644 7.64203640041025 -0.04883346330867795
-0.5303788074842178 4.228176704296765 -0.07187090595076709
-0.5689670163520644 4.158898195266152 -0.06668219862896368
-0.6916423866727566 3.660380460017044 -0.03182182925159048
-0.7126810134818155 3.5804524621234033 -0.02622471255410648
-0.8329250082827546 3.3895847928838236 -0.011897665653289938
-1.1212541685304893 2.518305182333285 -0.03563962651734627
-1.3498720423798556 2.0363544351562615 -0.02219901759956025
-1.4027465078244248 2.032637843064062 0.011965886986952758
-2.2320537780242775 -0.14934751408886707 -0.03161894392652778
-2.291300942965845 -0.2960936786249704 0.023975740431227945
-2.306346754345722 -0.35570075738037266 0.009110339668500458
-2.337724257082602 -0.44654957502791237 -0.013612135738075862
-2.3656796670411078 -0.5433138452973371 -0.024620167196794246
-2.3876214037080876 -0.6376938370726837 -0.03461967694643915
-2.4071458784977597 -0.7195387957320629 -0.0332392371275146
-2.437710946784102 -0.863735910322355 -0.02913867025199815
-2.4631716917216067 -0.927101762576207 -0.02041278908089182
-2.494226060803441 -0.9825067080281844 -0.04535542857006952
0.8947906715467506 7.616413994641835 -0.04939613628469859
-0.7332674284526817 3.5024100290559987 -0.020747526443957873
-0.7729756934386369 3.3520945753735596 -0.010221822604222788
-1.0580690731163513 2.5237258819256567 -0.03680072749220695
-1.1402339931706504 2.391082115070851 -0.02254830371002986
-1.16955938006159 2.2991644475485744 -0.012999877142773453
-1.2081364567993924 2.118435881855804 -0.026106223349344385
-1.2572442743122718 2.0304498380200333 -0.014692412437918356
-2.384625631666942 -0.9966193069874949 -0.005929106255170111
-2.3927190991828082 -1.0218138472084752 -0.006493197827547897
-2.49811043926319 -1.2367109063744284 -0.06855402973000349
-2.5649179720552233 -1.3306939434048939 -0.011292329931345602
-2.5864965690347548 -1.409811495588662 -0.018705235353309757
-2.6128710044860965 -1.5153205219770036 -0.02855597686801295
-2.6397793760075516 -1.6218917158640171 -0.03867470993197669
-2.6658835741859823 -1.7152386847025038 -0.04783307887422045
-2.6922945448222833 -1.8136212002998087 -0.057506432379804504
-2.714714026594649 -1.9096971594485188 -0.021141396320476347
-2.7320229139151744 -1.9887373660375767 -0.0038314943273890234
0.9863303591349839 7.5975524080031835 -0.05001149008039206
-0.9784004506554254 2.522374582362282 -0.037601810302151026
-0.9844316703493541 2.505114436095449 -0.03577433647741707
-2.3537852764668328 -1.0583683413785643 -0.005951039871659028
-2.74438066154939 -2.0384971101784353 0.016206393578111197
-2.754504075814719 -2.099815258662691 0.012349492661004227
-2.783608962507595 -2.2150206429941313 0.004626640733400043
-2.8059615123353456 -2.3075453836640385 -0.001578445570154574
-2.8222422555357767 -2.376492660635463 -0.006213061975495815
-2.9054091310987307 -2.7353614982366987 -0.030575388267390743
1.077027528946777 7.569217646430678 -0.05034360954828686
-1.9301396330185971 -0.4250546442377906 -0.006575928483707333
-1.985103142131393 -0.43841843521737267 -0.03765927403405049
-2.854036887247339 -2.7415732132772885 -0.029061429766735647
-2.8907947195784804 -2.75635597739078 -0.03129135574912713
1.1801190273072908 7.543044960049361 -0.05092821025250392
-2.5631339944879095 -2.3044305215694325 0.00792992765319496
-2.77370522736812 -2.7801655370778655 -0.028595796846178176
-2.7868733934543 -2.788753147457394 -0.029568312345048503
1.2736218836323367 7.523357110658014 -0.051603414467337336
-2.628965198186484 -2.815139147214776 -0.026077388106504534
-2.664875616224821 -2.8337893184290435 -0.02837955335311125
1.4060499780007316 7.495858267771507 -0.05260429641581428
1.3517654850726608 7.499975757004529 -0.051963899372450176
-1.8460626110826537 -0.8673920242803501 -0.029420485331106902
-1.864055279469095 -0.9367435463043359 0.0077680477226972355
-2.1909813600432457 -1.9568598292327612 -0.04062449242546634
-2.6064827743603742 -2.8361228089550177 -0.026732559735902828
1.5058649697504973 7.45698026356579 -0.05282459481875251
1.4528929636790864 7.469865423990026 -0.052461002918861105
-1.927368092658047 -1.4961641213203987 0.015461572856828455
-1.9399582212520259 -1.6088524278201848 -0.06411801370242975
-2.0588790179322904 -1.7206922161537024 -0.012017839250478599
-2.4717974835762817 -2.859493548416349 -0.02441870442849721
1.5734387921570747 7.443761023392487 -0.05338296737405429
-1.9261336848947317 -1.5957789610463333 -0.06161319622571301
-1.9319165551195732 -1.6237457318705495 -0.06555377261529768
-1.9871718843233057 -1.987573750681428 -0.03486096346201974
-2.335855587950007 -2.8902441607142033 -0.023024668664421696
