ply
format ascii 1.0
element vertex 825
property float x
property float y
property float z
end_header
-2.1855951668148275 0.8059290005055018 0.09214700798406336
-3.601504632718631 -2.8583495820631426 0.09649599862267146
-1.9488105840743932 1.2427770515629388 0.0924965327438782
-2.059617421507638 1.0925805477633441 0.05146135597058911
-2.095627851272257 0.9434099313924076 0.09060873176746631
-2.1090934237591674 0.8910105448276213 0.09317840844475363
-2.1744715743876695 0.7619317410638302 0.09897245557377686
-2.410671293480462 0.002330056340787756 0.09116591553178593
-2.4448047212421815 -0.052871475431110815 0.09112156877927616
-2.442251237349742 -0.15093213967642827 0.07519735509611704
-3.2022702547554474 -2.135024757979232 0.11769164563273915
-3.5318467914096274 -2.8802203157924233 0.09648645789261785
-1.8703540694273677 1.2176099136302938 0.08546843377217671
-2.3286106502367168 -0.017581613404381802 0.09332623073965422
-2.438434872061918 -0.1917856373152329 0.08106197737117568
-2.4624596629641387 -0.26754850403992547 0.08122625095709654
-2.491764502408221 -0.3715270753452793 0.10034598793647503
-2.521455832931016 -0.4638399859692972 0.09581269758471102
-2.5482858139383375 -0.5608786830678729 0.09079374616663063
-2.57302592693535 -0.6587108257755927 0.08556498771768735
-2.5974999434709183 -0.7620299872892091 0.07990731752156045
-2.621522207407085 -0.8525620917406065 0.07490601139578114
-2.643390994226367 -0.9539438981094595 0.0691598868441686
-2.669654266141805 -1.0444741583252357 0.08051218499631653
-3.143064915902618 -2.1491176384277866 0.11752595075713299
-3.333801089246578 -2.7310432258742847 0.10161795302085327
-3.4312926254734815 -2.904792677933194 0.09654964679980427
-1.9807112665844921 0.5982164747978682 0.09506955308816997
-2.0032148727946284 0.5158262005058057 0.09442582300581236
-2.0172546969856837 0.41596850923004647 0.09009423339129448
-2.0440584800038994 0.3269102473420311 0.08355441447812094
-2.078222060188514 0.22353646437711716 0.0619911214453441
-2.095787223193576 0.1727464389661857 0.06019821696096406
-2.2301061776333966 -0.0453853409910705 0.07713594271825447
-2.680294703821015 -1.0872132648203086 0.10304274356030346
-2.6941184420674666 -1.1464089387146479 0.10539450518865812
-2.7172935714286814 -1.246377587041422 0.0917519539567373
-2.7410568073963595 -1.3385845173245476 0.09933914705821678
-2.7683957274041964 -1.437952320460508 0.13599457408270327
-2.7912568992724336 -1.535370494657795 0.1335603210133477
-2.811324261524496 -1.6351451054282973 0.1310399967606994
-2.8544379132428555 -1.734127636802731 0.1285625900222252
-2.8956287502097524 -1.831500313527798 0.12609043110020612
-2.9242582128850216 -1.9046606944644777 0.12420573108182356
-2.9643047494845036 -2.0059568429058916 0.12157167703425256
-2.9885584597069283 -2.1537753451677295 0.11771597799340422
-3.0418707414488533 -2.1789890332103865 0.1169888013815697
-3.3142858943756144 -2.8434976380800765 0.09879817612611408
-1.922198030509535 0.6051908404622564 0.08941831963875488
-2.017099892534529 0.3713350079449754 0.11386051601382358
-2.0396260865590854 0.2998632271737727 0.10155382377461962
-2.066866219310806 0.21743495103965693 0.09401765074464616
-2.0885519633628977 0.11055692314430798 0.08214440720443435
-2.1300308816638798 0.027360252824995213 0.08164324978398775
-2.1609397186964525 -0.048654017544566885 0.08089008743854639
-3.2649485360148858 -2.9238976679199404 0.09694590371198196
-2.6998865269099803 7.449725187297741 0.1452975677090358
-2.727815872409683 7.3371535309155735 0.14628843513007195
-2.7535852239854215 7.246451525985556 0.1470961913844527
-2.780510292592009 7.1336759221364865 0.14809874294092892
-2.806217742686589 7.026809851362778 0.1490800724214822
-2.831065208073826 6.925801465753487 0.14997509254484004
-2.8549659769890106 6.826717915789903 0.15088751655474497
-2.878099672303074 6.733507191288062 0.15171364960797884
-2.9408462185181077 6.536482858713615 0.15342262678507498
-3.01652823601436 6.378712767775335 0.1546480933222853
-3.0354302083675893 6.288876500398089 0.15547493804128915
-3.0623639405492886 6.1610139306123255 0.15667918853016974
-3.0881236107598715 6.047034442138822 0.15774515184480506
-3.1047106099340898 5.978939004232412 0.1583600325124137
-3.140857304557475 5.634549498869852 0.1618068671219931
-3.162043362190941 5.5581689013293705 0.1624961352860957
-3.182305537932378 5.466683844357405 0.16336349673988249
-3.67096917250721 3.563872388117149 0.1820431251547069
-3.673383394699939 3.505777579735178 0.1826935281538966
-3.713556222465533 3.4107889321839413 0.1837258700155559
-3.739069784729402 3.3210300616011352 0.18473462619152103
-3.7596368119669794 3.2171426034145245 0.18592957862749354
-3.7852834288721313 3.1182885751776612 0.18709234910921624
-3.8098863151643263 3.0207837870827907 0.18826966523531768
-3.833800322123643 2.9218850693828227 0.1894977604638991
-3.858881401509909 2.8439857763948164 0.19049983166787146
-3.4366695064514645 3.7198296711433625 0.1808393546977384
-3.4857517570101724 3.636839774592384 0.18160037510207883
-3.524957295026357 3.5790946510034147 0.1821318099941356
-3.576969338363549 3.4677188185480166 0.1832499938299466
-3.834801786834836 2.9039875486769366 0.18971590982577285
-3.8583584203854153 2.8193942056053585 0.1908095370587296
-3.88170357129308 2.728138200944483 0.19202117568963717
-3.906031874102242 2.629646739664807 0.19337611417439127
-3.9324502146464284 2.5359173940309456 0.19473175231161388
-3.9558174778530213 2.4313469631941294 0.1902471011838654
-3.9812860569048603 2.339255897839079 0.17423396159719973
-4.007099420192268 2.2420619934590205 0.17395883093505218
-4.031699518563967 2.1436496692216425 0.1773415138259599
-4.059216081305944 2.058897485976416 0.16677504184218755
-4.117993904913082 1.9639817673052242 0.18205909669648423
-4.145251427447609 1.8773995594488533 0.18611912197382385
-4.179651131924 1.7346697080206894 0.18879369946597963
-4.202216235978332 1.67698883403839 0.19247202574707362
-4.236568899891651 1.6033503479722988 0.18475679623222935
-3.3725461686725717 3.698429692637874 0.1812759010154925
-4.031456541834764 2.106389132175854 0.201732449587953
-4.050329590179893 2.0308325475899798 0.1868637025603929
-4.06110568113953 1.9901295592164718 0.2039766768661627
-4.17147337468573 1.7225458559723072 0.18227462557725257
-4.189191172148709 1.6653751928869234 0.194474742466204
-4.216127139135082 1.5774902623980438 0.20202498434694507
-4.242025888363852 1.4764132849557086 0.20269446844118313
-4.269727134840758 1.3785678834149748 0.20323114283366647
-4.291099544774519 1.2787809591876547 0.18930679007361728
-4.308071608713693 1.203727887842988 0.19150023710614344
-4.309318515966668 1.1184070829260744 0.1909490214851442
-3.2785371142423125 3.6611621713640417 0.1820235823407183
-4.27135790753546 1.151994316759445 0.1888943232588729
-4.302369715289583 1.068980154615012 0.19344716215494503
-4.330585347741185 0.9722048619119142 0.19440107461780795
-4.356917137906035 0.8754659445734455 0.1926072145884949
-4.38066305912364 0.7833952609131316 0.19315891688099635
-4.407512160994423 0.6878950781904508 0.1727483805363487
-4.436100421408047 0.5883139027137845 0.17366009553085335
-4.4566227688458415 0.48913354934844533 0.173994834360437
-4.482917548820869 0.3956102778235915 0.20127540238542077
-4.513550767850466 0.3047346714014343 0.20217471843247464
-3.1572765431591243 3.7077761240637925 0.1820669719063484
-3.1972777720834222 3.6464640094238123 0.182527131096425
-4.517177410116491 0.26764836831409244 0.20263581868817293
-4.535120289487557 0.20158511856313122 0.20330672601527444
-4.561285988007407 0.10576279069619687 0.20425110694954784
-4.592794017425247 0.007287802288501233 0.2051387355520012
-4.62263062124746 -0.09668801858623555 0.206084071385038
-4.646065456545227 -0.19688825324763526 0.20703201767385737
-4.666635679811617 -0.2957073337142986 0.20796066316081924
-4.684783378906383 -0.3919763741625544 0.2088652242272903
-4.712288170220978 -0.492677272967464 0.20971423227140945
-4.735061100032773 -0.5609600280092166 0.21022158269551347
-4.737465339841242 -0.5892688002442787 0.21053128734518378
-4.763870116785939 -0.6733062383042419 0.2111774046463658
-4.77982041088706 -0.7762606025165057 0.21212082951885794
-4.787798485925969 -0.8448485240813617 0.21273380097398575
-4.8753208181432575 -0.9772115603500979 0.21336895002412914
-4.903795442126539 -1.0541710205493668 0.21392065238282118
-4.926042105571645 -1.1425962445087188 0.2146189757734889
-4.948221315958044 -1.242405865921382 0.21543079595444864
-4.977251868975601 -1.3563169650971254 0.21631770870095984
-5.000855260179916 -1.4588741477944054 0.21712428169323852
-5.020296790024412 -1.5477164788564064 0.21784907112608995
-5.045448874813519 -1.637523320676829 0.21850877588322065
-5.028548808976409 -1.6788908518051118 0.21907478731017024
-5.013613968704968 -1.7471176584764612 0.22001463281296668
-5.061866033194617 -1.870515614386298 0.2209244377723458
-5.081076849606447 -1.9505203192486884 0.22163539781571825
-5.1011166200837135 -2.0333445964484036 0.2223663903801329
-5.131906201784827 -2.151083991175533 0.22338039179021196
-5.149523119854271 -2.2352900497734227 0.22413617413080725
-5.177146443883984 -2.325746380964125 0.22487503591006996
-5.17511661364871 -2.4386817408249923 0.22613627436218073
-5.082571927948126 -2.4695474306181 0.22734338782843536
-4.985827818648833 -2.5082712705594803 0.22863585975186515
-4.897262720307837 -2.5449107225179763 0.22980006201611422
-4.802186624674236 -2.5654244928204486 0.23081739405642038
-4.743345144823945 -2.5764957904417316 0.2314089163324457
-0.251533873409429 8.845225850735014 0.1522120102858871
-0.2965739214332306 8.604795088344158 0.15445862030566337
-0.3471574073257293 8.395102044260748 0.15630113323590217
-0.39324458212097957 8.200747982244922 0.1580155945491133
-0.44359803337680015 8.001485000797574 0.15974461535600182
-0.48554519161082643 7.8267908053943955 0.16128216251810135
-0.5179586017813085 7.678309445773753 0.16262924412456575
-0.5587100161566219 7.511553525531728 0.16409145561949562
-0.5957729007711574 7.360448861921739 0.1654196825795881
-0.6373916888390792 7.200353017445542 0.16679847487419908
-0.6708376529082631 7.060566306911513 0.16803894867166747
-0.7027644274873994 6.926590261122453 0.16922675721447145
-2.031147769643062 3.4583517693165406 0.1944254481793265
-0.73109038934727 6.8040028066932745 0.17032849262814068
-0.7561560381519561 6.690840935646026 0.17135489085068908
-0.7872198638647472 6.5649096506617965 0.172466861550641
-0.8190751640289946 6.439268056913262 0.17356311997627805
-0.8403644091727793 6.343818240922298 0.1744340621309668
-0.8669648683710967 6.2375540683979445 0.17536675116014405
-0.892340818355613 6.13502793807811 0.1762753649511562
-2.005430417555269 3.367301626015113 0.19581877389591085
-0.9231734443017525 6.0217597873972615 0.17724262898956863
-0.9478693204668334 5.923171780743548 0.17811476593415987
-0.9794025204585877 5.790253777261642 0.17930901170011565
-1.0036660042677261 5.67586671213596 0.18037187781325895
-1.907192751821085 3.339285427498144 0.19738589828396
-1.8089772564688957 3.315009441140511 0.19897234320033233
-1.7156261346103059 3.293998373445863 0.2005125253444918
-1.6029901799242299 3.3501098924922754 0.20136129759016513
-1.9286788526348166 1.8461193404944831 0.18324745650691657
-1.9605830786847573 1.7802556068474442 0.19897831932402466
-1.9767557535505875 1.6827102278908275 0.20011891869341142
-2.0027771919713167 1.5817985384161533 0.2038356223748784
-1.946592119138553 1.6739268186573462 0.17926921142236496
-1.978739396752486 1.5897455085995458 0.18240584408174632
-2.0781737557815507 1.1114087756368183 0.20324338930900035
-2.122754302895741 0.951458895542147 0.1749874487941509
-2.1519358976470846 0.8735564951275145 0.20091547154841866
-2.1764535318498606 0.8132359468083386 0.18911088774979296
-3.597146153340282 -2.8642184197434237 0.2411276222003557
-1.9465693212290125 1.2456169053671085 0.19616975002082626
-2.052960688702426 1.1133624641845112 0.20895947373608026
-2.1034985965559843 0.9333559870906012 0.16550960136194523
-2.1207888011184166 0.8909047987302648 0.18316854450705164
-2.1608117458703395 0.7813885720028751 0.20346607325748697
-2.4060851065832054 0.0015353002903859547 0.19119776841224462
-2.4437027941987286 -0.0490905647360409 0.19022907490959895
-2.4389540408405983 -0.14269327668700282 0.17849315809239003
-3.197717609029645 -2.1362070558998485 0.2359572829520737
-3.526346603894626 -2.879068973628605 0.24153555014434785
-1.8671964463491946 1.218319883026632 0.20222439412531285
-2.0170031388690166 0.6702286781792914 0.16316666499708138
-2.325305448616918 -0.019908579464142262 0.19344820792576747
-2.4389193387215453 -0.19387910610378967 0.195464511702237
-2.458913598242321 -0.273625775285552 0.1925805980455214
-2.4886749600206683 -0.371856825471617 0.19086255883071096
-2.5221262908091697 -0.46789167905933726 0.19206704519241818
-2.5488142296937166 -0.5602197286933832 0.18509616239573606
-2.5741081923708076 -0.6564808441226153 0.19343866636562057
-2.599629333218074 -0.7553378833164808 0.18251409030095064
-2.6215453983964503 -0.8554848487889966 0.18761267025942793
-2.646022367084607 -0.944099939866657 0.18691529723133204
-2.6614887595218937 -1.019053855710402 0.19451536443928488
-3.1375915191663126 -2.148715821069739 0.23622288179274994
-3.331506439429479 -2.6662801493372243 0.24030079084489192
-3.4331941773070653 -2.905634733566846 0.2421075219602559
-1.9798213706833383 0.5954556422744779 0.18258538392167495
-2.002602528784227 0.5154087851957112 0.18531742139199597
-2.0161793605100717 0.41846523279059245 0.18756928692138414
-2.0462251366148596 0.32216379087665903 0.18025245718336882
-2.076267933527066 0.23554199389545283 0.17948522700466552
-2.0972913930224415 0.1723038323704411 0.21367373199611875
-2.2275704384945536 -0.04874975266811088 0.19090976402034515
-2.6735427145632302 -1.07164899180782 0.2067808093686045
-2.6964469759279286 -1.1495787539401259 0.22789540015814544
-2.7199148889758575 -1.2514118904379545 0.22881283680467962
-2.743098510812593 -1.3454487721128294 0.22965254699383097
-2.767746842952469 -1.4492568095729088 0.23057283780977178
-2.791362830993935 -1.542254934039447 0.2313910923182499
-2.812193392325511 -1.6347480938703485 0.2322017163781578
-2.8508596455737587 -1.7246813210486995 0.23296584759156322
-2.892553250267806 -1.810184650661212 0.23367824142973614
-2.9248726126316535 -1.9131392939280776 0.2345498983946437
-2.953846592588551 -2.0075470502149364 0.23534550078481747
-2.9737559145768353 -2.0933200828984226 0.23607554694553753
-3.0432791110791424 -2.1672723033206154 0.23660030288441716
-3.288405709166182 -2.7839134702731196 0.24148024880237723
-3.3040961846672996 -2.852130620209565 0.2420414840066697
-3.3764157439666587 -2.925856972213681 0.2424811290964748
-1.9225147146017212 0.605323916500566 0.18714395212305143
-2.015229855794671 0.3735284951024893 0.1742211835295524
-2.037026429315762 0.3089276385152959 0.2000624197753595
-2.0716750118682676 0.21200224800795442 0.19269957998815082
-2.0885414300452867 0.11222695842409869 0.18611946424396944
-2.1269619664956565 0.022616458504852943 0.18775024765471404
-2.1621718507910295 -0.05071123733220961 0.1872045051359406
-3.258029066982942 -2.89042780226445 0.2425202329755847
0.0955034390241436 1.1474992333654934 0.16702959204521992
0.10382184000690264 1.1582927960494096 0.1666438359556896
0.1285199162727424 1.1189350216332818 0.16733166999622257
0.22067219573410357 1.0575594616621729 0.1676740454644958
0.3011991114898285 0.9933033669345583 0.16823051612084244
0.38809023224770334 0.9444615394799354 0.16829822932897517
0.46357171553090515 0.9128517611364595 0.1680719750768414
0.5812330047433023 0.8827881663500853 0.16724967641493427
0.6986359087343836 0.8509939233693173 0.16647363342223293
0.8125426353217362 0.8252743799608049 0.16557646397271797
-2.8771460445213104 6.746106797923716 0.34424500017560644
-2.949638071772159 6.534211544072393 0.3385813717452204
-3.015765598055015 6.393443290208124 0.3347299317619302
-3.0437826282638443 6.261715016722757 0.3313465463199543
-3.070563213110817 6.1298453272136175 0.3279738702119871
-3.0875027803551043 6.03987701503682 0.32570151067957775
-3.1041207267116455 5.9838014065601275 0.3242347656486513
-3.140304743224805 5.636511049451185 0.3156009104596653
-3.1613598562816296 5.55315549934144 0.3134675425603005
-3.182141160253275 5.485688848589538 0.31174018315265317
-3.6353523523739586 3.7343147124461327 0.2697692205344797
-3.5632909245569184 3.7598331924287605 0.2699959732914784
-3.6363136976276778 3.6909564382092763 0.2687824188390205
-3.666689011197705 3.602869144993392 0.26696423683518644
-3.6933622145905765 3.505305158625929 0.2649631841206953
-3.7173924683683217 3.412644824686306 0.3094997942818627
-3.7406064602669833 3.313119684576406 0.2967556037771789
-3.76720133687161 3.2143376702199307 0.29846671352728293
-3.788555546424539 3.117005851537759 0.2904708963668261
-3.8132806477405743 3.0240756902437287 0.28988939129289193
-3.836172459643892 2.9306910173651444 0.2934518301663198
-3.856296923619963 2.8599113669547718 0.2849858321212626
-3.4611564507285872 3.7399901556519652 0.2691772421147562
-3.8342822072897826 2.9029686384796682 0.25385503196073056
-3.8603857067626994 2.8207476181944653 0.2837534335190779
-3.886458266567594 2.7309897996728427 0.2802141281671766
-3.90876060008046 2.628985421976941 0.2799945227693015
-3.9335149047868034 2.5330899352490395 0.2755878392849999
-3.9609004655407807 2.437328894256497 0.27567033107941386
-3.9851797326410727 2.3391208232094334 0.2739136677770333
-4.010098467249194 2.2374983632920635 0.28974276031211665
-4.0357476196047966 2.1450679139674973 0.2966525993830196
-4.060785482706608 2.058577681242289 0.3036151344055232
-4.124211604936843 1.9678571028189955 0.29561571644890694
-4.152425971757889 1.8736209712792369 0.2951281600877437
-4.179773729438022 1.7786008369066073 0.30677561791262864
-4.205296635708645 1.6746570749918672 0.3120430021027905
-4.2330831561190285 1.6078997299909752 0.3070576561153625
-3.367711993423649 3.699520562030904 0.26806049927992304
-4.018679264217992 2.139775214394128 0.24688510669306737
-4.054029546157581 2.0289045463139948 0.2784064346572734
-4.044995852326317 1.9871665799972207 0.24689750356006973
-4.173615772822946 1.7282304319343824 0.3229732915920396
-4.192670017389671 1.665792278016244 0.28879170018778677
-4.220566539678099 1.5742398624390141 0.29570465907237176
-4.24727487152214 1.4793228336263111 0.2882962654292508
-4.274694567546506 1.3794386919441073 0.2890554017432258
-4.298001213327307 1.2805695384552447 0.2919784093604456
-4.31525329661568 1.2035736665402221 0.29807095777593406
-4.304259266650034 1.1189752153685848 0.3187890677629698
-3.2779347544160244 3.6595522412591857 0.2671201673125576
-4.278819812244407 1.1497789583891316 0.29231673193457297
-4.302428351806428 1.0725017150101046 0.2978644872668026
-4.330534156398325 0.9782772400732329 0.30451541386497194
-4.357123757956897 0.878872498290504 0.31109362672874086
-4.382774875540578 0.7763740753089626 0.30575351931982553
-4.402536692706867 0.6807006227511142 0.2751305571056357
-4.427880140379699 0.5838499580106957 0.2765164868000919
-4.455324207671429 0.48584929302378643 0.2843006229511742
-4.476782656743462 0.3976542770670649 0.2834866515437903
-4.497787802974234 0.33395578972622786 0.2997501376824232
-3.1569740167504827 3.7112007001971854 0.2686579800683488
-3.196600574493237 3.6404281333290136 0.26681166587109717
-4.479516471979336 0.36293431169485946 0.28807669969678606
-4.505399222971991 0.2893217588416106 0.2922146791667053
-4.530670295659348 0.19586509102170346 0.2970653070357272
-4.5544750215096474 0.1034208779785264 0.299940397457337
-4.5826543165253275 0.0054516450872006406 0.31102138510996236
-4.607793313973854 -0.09147304720060512 0.27698165009083114
-4.636628518488348 -0.19656982593429295 0.28114372132260723
-4.6601698091447705 -0.2984771288499841 0.28514557448698097
-4.681511385785163 -0.39257167969162654 0.2888525094562805
-4.7040631517412175 -0.4818767300569611 0.29242401844267896
-4.721941298006508 -0.5382266189928531 0.2947662458961022
-4.731604817921392 -0.587569253273712 0.2966895645763438
-4.760023248826199 -0.6875132621410216 0.3007858449899781
-4.772882635356825 -0.7800839386528127 0.3043950123760797
-4.7889608686640415 -0.8517462398944455 0.3072646182400089
-4.871451108777594 -0.970040344108718 0.3128502989732105
-4.8940476569823135 -1.0479610680671385 0.31604771813476595
-4.921249464166345 -1.159867135815861 0.3206277510512525
-4.946355513305005 -1.2553097432590041 0.3245726196765488
-4.9614552092260125 -1.331779642659595 0.32765131918373247
-4.989584514169121 -1.44039205399694 0.3321598103984571
-5.019773886224676 -1.5547345756957975 0.3369188892977585
-5.018723606781527 -1.6726122426530878 0.3414991541862734
-5.01083908949387 -1.7397818834548446 0.3441582374191804
-5.75844074762168 -5.11567012644673 0.24908716931755892
-5.742558705054941 -5.2024116100947335 0.25010068677578423
-5.784879085642055 -5.37095306420294 0.2514470391188266
-6.133898526480197 -6.380977018694212 0.25890620676394005
-6.0481881830392155 -6.396765170110193 0.25970347787076986
-5.950300117883034 -6.422524800631047 0.26068695501306605
-5.849960186805371 -6.439420888877079 0.2615827014830675
-2.0030773494963974 3.3644642347827487 0.27927170468634843
-5.782805829873756 -6.461822286980656 0.2622733948464863
-1.9034539542187245 3.3389773139391 0.2816721085431845
-6.730666028499823 -9.356996053975912 0.28389105164081196
-1.8060694418233174 3.3132832758391877 0.28421508503501586
-6.653477021465946 -9.36977754586203 0.2845648307270753
-1.7377790246325622 3.3090832029572907 0.2863322419345883
-6.558814320455028 -9.401827739918856 0.2855111232334545
-6.460913157311849 -9.417131920709794 0.2863026754271416
-2.035492934192321 1.7545380678482232 0.34140576320093285
-6.309788608650126 -9.454730733852719 0.2876595200266991
-6.368948469014688 -9.447195967885706 0.28719340128170256
-1.9615852291225746 1.773264118415973 0.2822636449886957
-1.9783918609859916 1.6834408327424217 0.2889398435378942
-2.0006062688121795 1.5860697370926564 0.3009151355353621
-6.251870195027669 -9.466781076483723 0.28812610401753513
-2.055418960185178 1.1256391349507924 0.26895703026302376
-2.0769954251208045 1.1213013835593046 0.31892431697750845
-2.1569806880952624 0.868238400640335 0.3004762098901811
-2.1685650701023214 0.8320616179400937 0.294224396057513
-6.160389124757781 -9.504761983537678 0.28904211959702564
-6.169058376462038 -9.533546187776318 0.28929150219649397
-1.945990820868905 1.2479888389767555 0.2926293794468192
-2.021829634466359 1.1256988203774934 0.3076650024460055
-2.0527948738802166 1.1207996979132067 0.3057714857966086
-2.1446866563105886 0.8512854913544945 0.298885958706823
-2.150527471893609 0.7931182809307304 0.29686369501429466
-2.411481178653359 0.004958298593715993 0.2913533526692237
-2.441474174776612 -0.05445278019464417 0.2953637962877458
-2.4443560838981533 -0.16978461839757153 0.2966341017141956
-2.4686984327662502 -0.24440544828487298 0.2761546572666954
-6.065554723046652 -9.533537547001636 0.28990948971775354
-1.8898694597642147 1.2241671868002324 0.275349278721447
-2.32797959151008 -0.010995626219699073 0.2912410760730689
-2.4430701210477954 -0.1882896626500108 0.30850567500139925
-2.4711548731694575 -0.2720860372219598 0.3088289626621399
-2.4980134972671504 -0.36226652156664985 0.31078281171005895
-2.5238650918084615 -0.4553505661782826 0.29872525930000193
-2.5537859768471334 -0.5651166007504094 0.2888189729593049
-2.577415083650578 -0.6558272689423645 0.292472496143748
-2.606193402745797 -0.7597903897519034 0.29666914558935753
-2.6399685923068583 -0.8418928551019271 0.2999137763345828
-2.6806159312522757 -0.9515790335867504 0.3043159348753997
-2.7107647620603488 -1.0338405348175388 0.30767954622290744
-5.973570056077932 -9.558489033322862 0.29069698020458573
-1.9774534392347138 0.5975040588029109 0.2927905567823271
-2.005261760682134 0.5209638919173532 0.28973522533209634
-2.0187234245446755 0.4120662364831319 0.28145017677715356
-2.0491095730448228 0.31780958956657834 0.28690018630796077
-2.0799294142297184 0.22360409496361466 0.2868188936683746
-2.106029429922457 0.15379826633800375 0.3166409965568337
-2.2296715143132815 -0.040014624368085006 0.301568884598639
-2.71037419485145 -1.195644734997705 0.314726017781637
-2.724198931546118 -1.2491564332531602 0.3169857513931533
-2.7470842248395146 -1.3470553191758552 0.321140421411339
-2.7723225643327707 -1.4477556124007536 0.32541741825302906
-2.7963745159615723 -1.5381457514234356 0.32925905468291716
-2.826495181599528 -1.642004968975343 0.3336748063653139
-2.857308121222185 -1.7187253382743841 0.33691038108115
-2.902495899164833 -1.820436028123464 0.34119907030700725
-2.9252492218217756 -1.9012284296843975 0.3446620939506837
-4.2684966033230785 -5.482675654054274 0.26200092912858963
-5.877707515411902 -9.578519312211823 0.2914410838156327
-1.9169348324913058 0.6138471942092556 0.27512327044722024
-2.006860352405534 0.39324038255389704 0.25803938233259605
-2.0404392710943506 0.3057836211196321 0.27293958951042496
-2.0722920118376456 0.21570826171807078 0.29194226035323295
-2.0950240950597196 0.11628503723965666 0.2923120564019668
-2.131962893068045 0.030290162366298334 0.29592074845725636
-2.1615116721338934 -0.047574244255810916 0.29851808311248024
-4.210198297297335 -5.497181906369557 0.262394804406302
-5.78182404600831 -9.599651551854432 0.29218305235022674
-4.117469766533867 -5.517551167809122 0.2629922880998958
-5.666844806291019 -9.624829032166442 0.29306877724974
-4.0233945889854565 -5.5463796862466666 0.2636536598471252
-5.691971697270386 -10.083857741374091 0.2971865256394314
-5.632092386415977 -10.08922468609235 0.2975698948537285
-5.537605026884393 -10.125682293709742 0.29840745564374804
-5.438001830663457 -10.147401699232438 0.2991153318346617
-5.359668999459313 -10.172460172406529 0.29973927981236465
-5.300331924925752 -10.19127372904896 0.30019250548700616
1.1188718751576805 0.8641134299045472 0.30790093023101484
1.3472260154546096 0.8050817741639626 0.31445434128280714
2.0882137478859897 1.0773159405779114 0.32273153997419834
2.0728206785279633 1.0155751464998415 0.3240900527416043
2.0440360987749595 0.9266929747165318 0.32592636135410546
2.1488962144274057 1.138897566509054 0.3223507993420177
2.0705752603070517 0.9697506950174886 0.3253076593295833
2.0457728449258163 0.8934641217886929 0.32689815405967626
2.023505507989117 0.8197499007221598 0.32848697576839236
-1.9530054524086953 10.540983165327386 0.44517090213373556
-2.0111570138546018 10.326436925800378 0.4393646631253939
-2.0687375561078474 10.111676353991912 0.43351770297047987
-2.2268569930333717 9.479879203814482 0.4165570964050288
-2.4235314799197827 8.59027315400657 0.3930320848481732
-2.459907945216625 8.470994936708818 0.3897636280378518
-2.4977677840732233 8.319680154291417 0.38574867743381513
-2.5353282305159324 8.154181026843856 0.3813598431664391
-2.5701272991301454 8.00646723897178 0.3774690972206639
-2.6041783769957654 7.864596587400198 0.3736963659418331
-2.637798172613115 7.712623106164221 0.36972168595150756
-2.6683350622687967 7.594395498747046 0.36656358931630884
-2.697737400560638 7.478049686563585 0.3634984788588319
-2.7254521031150154 7.371508546833745 0.36065748785706764
-2.753276046307809 7.244908199474441 0.3573637411768038
-2.7799342021309075 7.136159011135691 0.3544860155337538
-2.805352013036707 7.035315214896876 0.35184554273882607
-2.829869446186506 6.942330283700171 0.3493769570454218
-2.853733994714437 6.845278576722276 0.3468475809850279
-3.6203265364445993 3.7747270807146553 0.36158921895028284
-3.6500573318394007 3.7149381441822995 0.38375690839277543
-3.663008404141351 3.6470515445041816 0.4130242451909324
-3.5570348285706883 3.77924903200246 0.36111765182088873
-3.6712924268782863 3.595765724566429 0.38409142399654583
-3.692943276188996 3.508971120068464 0.38908270648294263
-3.718485087446191 3.423273385673233 0.42348771207946656
-3.7418255581768722 3.3142259379054746 0.414501243778043
-3.770027127316233 3.2221366673963607 0.4073377076867465
-3.7919878751286342 3.124456532135592 0.3996489439164477
-3.8149489305060573 3.0231812316226843 0.39188222628326763
-3.843860739440151 2.9318039198084382 0.3854394335725262
-3.862471732571342 2.8449557208782625 0.4004269080146198
-3.8860490990766103 2.7811773639337436 0.3751323641978508
-3.46237862860447 3.7525953565895076 0.3586881653506512
-3.8419091478407807 2.8751666114434817 0.4447856295587541
-3.8620838897782526 2.814462717482466 0.4182777799279458
-3.890308213278947 2.730000994085997 0.40015390833688247
-3.910555914680397 2.6310587251040145 0.39473324047313185
-3.934252723610056 2.5356661508946443 0.38651041782858897
-3.963071184332701 2.4418156630168077 0.3805623638310771
-3.987458579686164 2.343832596725302 0.37596302404144955
-4.0084616231935755 2.243761813285888 0.4045164924175998
-4.034783648213312 2.1439079128973586 0.4104869773867029
-4.0625220535609525 2.058403405764673 0.4098606573778538
-4.123964092324668 1.9667296764254871 0.4087694072185307
-4.158451233943893 1.8712329516191795 0.4068317739056755
-4.184084934050306 1.7825447727518968 0.4145894636561117
-4.205357033632138 1.6760233912610847 0.4135542315333841
-4.234167786046033 1.6088933901267386 0.39133602471978346
-3.3655214708803434 3.7061810729040485 0.3970134801886368
-4.057145443917829 2.0232912916343935 0.39677505070476093
-4.068910145429857 1.9956188973285722 0.4252150482489654
-4.17388046990119 1.7246158771259754 0.3884940627339484
-4.187798245720253 1.6682121376652423 0.39639000677915104
-4.220409317712308 1.5718648175028125 0.4055205000190055
-4.249047192941674 1.474732029088675 0.39072424555563934
-4.271754007907372 1.3804519568379432 0.39368681631709834
-4.293871350842615 1.2853303651318377 0.395551982194992
-4.314420886353195 1.197735734728521 0.3841102677272067
-4.318736821094583 1.0879814393840157 0.36486845946243907
-3.270213870837056 3.678666374049421 0.3965800475758441
-4.277186547228577 1.1531815584316258 0.3983765091825986
-4.308162969348443 1.0669487529511978 0.3904336142554927
-4.339773926047746 0.9738372592077252 0.3949182674547196
-4.359720126989194 0.880104162603166 0.4039922402964343
-4.381861071564772 0.7794427733476579 0.41465527313559236
-4.417747680648054 0.6860725768674485 0.3771265061517849
-4.439851007176369 0.5892920184247432 0.38165455571699214
-4.462204673441059 0.49237432722993346 0.39263921967873183
-4.492724817202817 0.39279145306024077 0.4031007898545328
-4.51402369551561 0.3072669619256865 0.40423278126171136
-4.543339182186175 0.2137082328879074 0.3907213849198714
-3.158318557133869 3.7232932013066855 0.3853004582272578
-3.1926429374550254 3.6580101166344443 0.3949025208478234
-4.522768121470674 0.2582515023684222 0.40628511019799673
-4.5441047717025995 0.1837125341281156 0.3930395200066913
-4.569120879629614 0.09372717874486503 0.4017477690667913
-4.590754964494867 0.006987282888082369 0.41011051642084473
-4.616714696942829 -0.09716528588279782 0.38654904269737556
-4.643937672497886 -0.1971327965097418 0.39014154408103985
-4.66684602874072 -0.28860839709015584 0.40640622852446573
-4.682615395547679 -0.3801055875962336 0.37814909186358103
-4.703753877004631 -0.4721218518083774 0.374752091998929
-4.7122468212391615 -0.5179262368161055 0.37792594012574443
-4.73131283050934 -0.5837120009651571 0.38276536200404265
-4.759740756866086 -0.6834400889115244 0.3901363061421209
-4.773446763452376 -0.7769452875480707 0.39660459779021395
-4.792642605061225 -0.8523582923916551 0.40212421158770517
-4.880428589733272 -0.9852250246041505 0.41385559838217834
-4.900181549870551 -1.059845608251642 0.4194005116548509
-4.921952376715881 -1.1563649946852164 0.426468674894268
-4.948915240379526 -1.2632584395779722 0.4344244488476039
-4.97288149755935 -1.362598709068359 0.4418232931057594
-5.016335144492196 -1.7718594414898203 0.34550363153187813
-5.053527735011278 -1.8665603914397866 0.3496954976097634
-5.074254065276994 -1.9490328629309341 0.3532455528933858
-5.1013700121699355 -2.043798477007687 0.35735470444645323
-5.117411096000181 -2.1240085034615475 0.360781022074669
-5.147226483014546 -2.22836778299956 0.3653135944261382
-5.174223217684321 -2.331834991828526 0.3697913275214909
-5.170441213672467 -2.4421154864526353 0.37431986092405867
-5.085207936303556 -2.4710730620966554 0.37488824904794193
-4.990200705764597 -2.4974808609582317 0.37532216853216327
-4.886453811205539 -2.5189028570617586 0.3755296029177967
-4.756626436261128 -2.549526063602128 0.3760157459273975
-4.7941042296752485 -2.550274188395756 0.3762791985652163
-4.742501281122443 -2.5905205909151623 0.37766679072902776
-0.25100905173683774 8.89197203935054 0.436780578312719
-0.24669122945610322 8.822105105798652 0.4353864994861246
-0.29556360651177327 8.611979425935647 0.42977870401903506
-0.3560536562730614 8.376187285943685 0.4233647339302419
-0.4022176567917697 8.181931767549793 0.4181665137092606
-0.4438862055115247 8.005106037908195 0.41345107994905383
-0.4864686426381688 7.828576216171717 0.4087203381194461
-0.5225413826827605 7.670842851928839 0.4045485340944295
-0.5656052828727796 7.498620432164893 0.39990530649601264
-0.6049328047839353 7.342014458046583 0.39568698648135947
-0.6404283991942252 7.1967552632766765 0.3917971607048868
-0.6715671599837578 7.062559798215515 0.38825237318533545
-0.7057679644278672 6.923085568166847 0.38452183343505686
-2.0224150877638993 3.459718830258187 0.3668335510588646
-0.7348570926195581 6.798695583054231 0.38123808383614477
-0.7630137553967411 6.678199490053219 0.3780561552670857
-0.7877775424550535 6.567016579467346 0.3751593935438
-0.8149332246426564 6.452459758215401 0.37213147348417497
-0.8433800132480407 6.340538628254906 0.36913335948851367
-0.8747784841079604 6.2233217000589445 0.36595046671220743
-0.8977365201716667 6.12632423045647 0.3634015330625707
-1.9988034146175935 3.383554598850669 0.36398205607247935
-0.9178643205038326 6.036780138621051 0.3610738493606195
-0.9433121135064089 5.936376416012354 0.35839854276431327
-0.9709808300760847 5.832549405174712 0.35559404525466765
-0.9996353598129999 5.708148358280296 0.35236227222637984
-1.8982276755999195 3.3585249630222935 0.36728751835169404
-1.7508628435336564 3.3632439205509104 0.3746794298028804
-1.8141029469501824 3.334665455244815 0.3701804758495775
-1.9623994529501323 1.7641225468493928 0.3984247517525813
-1.977678094826346 1.6823314133541567 0.391724005401794
-2.000015062950805 1.5865382503174499 0.40227687617040064
-2.031532056931087 1.538594145353812 0.4164487145751631
-2.0821559155799316 1.1364956193432252 0.4105695729438611
-2.0922000524069135 1.1219876890792846 0.3981288886871538
-2.1459694423133726 0.8973334056981414 0.37922037420897914
-2.1846317431635103 0.8309169556638982 0.41512382575032536
-3.595430836585774 -2.8492432314412643 0.38530648139386714
-1.9465360060582957 1.2467474102398057 0.3859209123712478
-2.0234826105475676 1.1258396959339396 0.37446272578122364
-2.1383957519615038 0.8583655588664945 0.3791624484166092
-2.141355685617367 0.8043293623057225 0.3757184867335496
-2.4062706236926923 -0.006376235316127854 0.391083851410266
-2.4382092232074384 -0.05540882911436107 0.39565816002987664
-2.4509994881791695 -0.16873150490279287 0.4225272018293722
-2.5072315053230962 -0.22151830734874323 0.44188845975650204
-3.1968964700479443 -2.113116498586205 0.35330118024536983
-3.525553601285571 -2.869490794431257 0.3861852996406817
-1.86632148468648 1.2210727441349054 0.39153374711761413
-2.0784518982531983 0.7607258069490521 0.40155066136731976
-2.3302665310223403 -0.02403372861208375 0.40276994776802133
-2.4432581758647434 -0.20133255692963203 0.4095281630658383
-2.463114825415322 -0.2735985493000457 0.39301505279042825
-2.491260016980578 -0.36366782776114803 0.4016827418270493
-2.524077308971924 -0.4681842410215835 0.38573445311729593
-2.549952711894424 -0.5622187026209831 0.38603463636789714
-2.5756642460613692 -0.6568669210820652 0.39872730800649414
-2.604156997374523 -0.7604777030610466 0.40561785487959423
-2.6352202271606524 -0.828540595401877 0.38125289886578695
-2.6758873733698976 -0.9367167030397079 0.38164796426383196
-2.7038434393663926 -1.0289118245580582 0.38845314886590165
-3.1322293441125937 -2.135793657783143 0.35441055096316176
-3.345126465718143 -2.7759461299275148 0.382167230027711
-3.4252018620579907 -2.895888649639676 0.3873685806315098
-1.9741027663962487 0.5954618389957553 0.41116537750231985
-1.9983099848390709 0.5118598040720541 0.4005307303336054
-2.0136211427184505 0.4116502757289323 0.37734809301564387
-2.0402541275482666 0.3310644691159288 0.37579122042632174
-2.2370084244178536 -0.04569519655833654 0.4036127617130316
-2.710185277644743 -1.174109474835952 0.39972460684237765
-2.724189777142803 -1.2537656757024407 0.40581216499115547
-2.7478829677095136 -1.3465219873725465 0.4128478913658462
-2.7700756157861575 -1.432281077044494 0.419373906588286
-2.792699509151045 -1.5338972593997608 0.42716421276741
-2.82715754620742 -1.6438263621668345 0.4355470290401422
-2.8587472636481195 -1.7120434381441143 0.44069924033884333
-2.9341326206943115 -1.9396894042066486 0.3463159997514952
-2.9538191224274897 -2.002510847438615 0.3490089411984164
-2.9925111538364595 -2.1203784051477843 0.3540619749836721
-3.0397936730199473 -2.1542871758177617 0.35542550114200666
-3.2879377272320673 -2.7752402125282916 0.3821951426296759
-3.310045862268035 -2.8530367435933424 0.3855844895495806
-1.9069309775200973 0.6034967263156285 0.3821846603573281
-1.9939282971561085 0.42103486360829634 0.35334530208278936
-2.038978217342268 0.3012614631457904 0.387336873702113
-2.061017144807934 0.21459444301136532 0.39317502048607933
-2.0834777080864004 0.11502677501570124 0.4010092170284826
-2.123815967744638 0.02765070742073683 0.4049161801846455
-2.158999426593401 -0.05144412296876544 0.4141909018795362
-3.2504623299023345 -2.884920700552921 0.38705458360853495
-3.2665161426468385 -2.9222703921339295 0.38866461604802105
-1.3581640856903099 12.9079496846858 0.5092058431709388
-1.4420799462794027 12.746364773961515 0.5042462681929236
-1.257676439763429 12.874461204897322 0.5097563405477386
-1.548450976015165 12.260614448557625 0.49132182937173574
-1.6401199017540469 11.885685160368205 0.4811804547655315
-1.7218814522169734 11.565799328158803 0.47254447810471656
-1.1970791970644974 12.735223092120943 0.5072627274418459
-1.79953424139638 11.23714331617079 0.4636979033263252
-1.0182731905995737 12.82437662971579 0.5119254636397521
-1.0741706205476604 12.742876815530373 0.5092211227557405
-1.1452372626833673 12.683020776003296 0.5067735122546977
-0.9547448878245439 12.827126218441448 0.512943795610133
-2.855195276327211 6.797121831597616 0.5404661196208528
-2.877540666899444 6.722036799676468 0.535804058429746
-2.8996068431410844 6.6349189948930665 0.5304642154777146
-2.9488709974413827 6.544395948201798 0.5246975885335337
-3.0154059302946616 6.375908037192293 0.5142324582911039
-3.034192106335156 6.296219026876873 0.5093718191094664
-3.061154450203716 6.170592505434872 0.5017619721698517
-3.086942656351022 6.068799644059068 0.4955835913991634
-3.1036547099515666 6.012809024576256 0.49216319910350603
-3.1398242727928816 5.643076842847533 0.4700656525716873
-3.1681297236191672 5.556706774689248 0.46482925449279855
-3.1886896322405405 5.468336097475728 0.45951249118703663
-3.61861916304597 3.7730219122467945 0.4985237884284537
-3.6439297095006244 3.7289890786811837 0.4984717631651635
-3.567471158176549 3.7708928863716746 0.48020104772683203
-3.6139577579399944 3.7486722254779377 0.4504213797116944
-3.666918480539699 3.597330423780531 0.5240092896260661
-3.6921424517893446 3.5111765803743284 0.5141418407058713
-3.7172832844867645 3.422635206952127 0.5041229965037345
-3.742458043891194 3.331469011066767 0.4939549356760119
-3.744942708811532 3.1963789562315794 0.47761348689741834
-3.7602959667918334 3.1245298277193605 0.5023804161629507
-3.791092826773638 3.02936829778017 0.4598782559459129
-3.8294320007078237 2.939628819837094 0.451494267098713
-3.4564216478858776 3.7470638633844024 0.4476791050463169
-3.467436238152077 3.601861140301541 0.5192594962060216
-3.5037292876664905 3.5930420690965486 0.5189264092001603
-3.7665225806751277 3.0804166708991207 0.5175345430270106
-3.7876463706207764 3.0096182012888653 0.5013168225659212
-3.817400123189818 2.9116211045703513 0.5030060145022139
-3.8372105958900637 2.810625666844396 0.4997182357875538
-3.8618505364572995 2.7162871091747736 0.4966779123606433
-3.8854788851410733 2.6250861044362557 0.5100229189742291
-3.9090176761795643 2.5227574456727977 0.4905758273849864
-3.9566891666774215 2.4360280393243396 0.48633127049020697
-3.9865093746314666 2.3403550149813057 0.47760157125802394
-4.012639535082889 2.2435024697134764 0.5063257725243047
-4.031961771507081 2.1467017459933544 0.5076275345058642
-4.048568137109978 2.0769885741439174 0.49687460384251647
-4.111223791704033 1.9603774520059394 0.4984276870208725
-4.13941648803488 1.8630952455085863 0.4933879863342928
-4.176180935084967 1.7676387591587437 0.4981561238006691
-4.1945796499835435 1.6954166114458602 0.48126321467304845
-4.22804978645059 1.608624694124697 0.5014169633121605
-3.3664902035551916 3.704113145719155 0.5307036073976673
-3.4317758595656764 3.616474513632052 0.520454940898346
-4.033255829304365 2.1020863460016406 0.4930039037397471
-4.047437404913703 2.0334362424276855 0.49443034196794866
-4.058155164427036 1.98683548620731 0.49048309820298563
-4.174964822921742 1.7200892298051724 0.5104535133697349
-4.193537026184305 1.6610969513013383 0.49195149899528046
-4.2172937763549765 1.57587762654938 0.4895072529980663
-4.243429491421151 1.4762017628445023 0.49449330070510145
-4.269119893162137 1.3787199870636022 0.49930123969144
-4.295097668933008 1.278644908211989 0.5007195967625732
-4.310940381587192 1.205096241902221 0.49019268713598585
-4.315168534071007 1.0970805167759639 0.45231323603891094
-3.2772616300383777 3.6690251290542317 0.5252671605495903
-4.275077884187311 1.1485428679189027 0.5024164179629481
-4.302995124584155 1.0676141987459917 0.4993243811955168
-4.333250953801522 0.9707192488336551 0.48539978020771146
-4.356644768805472 0.8774689132577412 0.49768642485366776
-4.381555174284765 0.7844706407482738 0.5127626015462019
-4.411815848988956 0.6792603938983639 0.48007803919040604
-4.43674398536396 0.5813366684552003 0.491166649317347
-4.426369782322147 0.5217873894845848 0.468291332995472
-4.528241957548264 0.2794080845061644 0.44622520572268987
-4.54443264022036 0.21639575016296098 0.45384508900572385
0.21785497897910222 12.52181568284923 0.5264218447337738
-3.154960135659975 3.727070467065087 0.5027211292061392
-3.1958633158515517 3.6509301092316506 0.5225069863620444
-4.413643082870997 0.5343161545019368 0.5015204584097882
-4.433236921293988 0.47670181324158734 0.5007834944472968
-4.451102019406779 0.39067957145390564 0.4999223384968058
-4.491894219107699 0.2775535382551735 0.49333030656030885
-4.520987031528964 0.1929986644923236 0.49092679347797463
-4.541437240374425 0.0982657217970353 0.49221115137276383
-4.5580946291072335 0.00406156991509965 0.49912005849572705
-4.589232758155178 -0.10470506495726006 0.4907236543145914
-4.612978966596008 -0.19058163912366122 0.502156791931578
-4.667409524328216 -0.3016509504562943 0.5192547259247314
-4.694666532136029 -0.3948602072133862 0.49434619449338957
-4.711365779122127 -0.4772443291756532 0.4901404793834706
-4.742925529512079 -0.5800970592743562 0.469816991534063
-4.76043981291156 -0.6396073081673006 0.47616582930731133
0.31321577672576506 12.487972538072077 0.5276051355916364
-4.766079763626194 -0.6801717401200977 0.48017315584431874
-4.782493956843656 -0.7768897938073303 0.4899197318067158
-4.883933665824011 -0.9772482906176498 0.514195486033269
-4.907501349083283 -1.0564887232663298 0.5228439065420765
-4.933416908621105 -1.1581554565928855 0.5337856266713308
-4.947828040814002 -1.230306830765986 0.541337777043689
-4.995060152953342 -1.4528950937823932 0.44855624811645545
-5.0158026562356754 -1.5437397468536522 0.4553363771220872
-5.039945773370079 -1.6322985641201733 0.46206169081025206
0.39672779033922323 12.473970703987337 0.5290168184566972
-5.017976621024587 -1.6773151279757652 0.4644928480772248
-5.015562566853281 -1.7533151926224213 0.46975834302907116
-5.052252151321957 -1.8587667763940763 0.478186668864259
-5.080876976811082 -1.953773255784757 0.48566848707619836
-5.096994278796243 -2.0304917946297976 0.49153237613233824
-5.123852046216836 -2.12847530881802 0.4991989878207218
-5.141080236980963 -2.1971755145187726 0.5045445523371397
0.4953434493612683 12.449594724617189 0.5305558357720664
-5.157699734020027 -2.2684107268507088 0.51004989783858
-5.182434009003185 -2.353281452708251 0.5167408685052927
-5.173615103140099 -2.4409205993597944 0.5228169533955205
0.5767215748023187 12.430376709795423 0.5318437310025997
0.6098163074881615 12.398475127267346 0.5318347309975053
-5.0812169613524425 -2.4727103937680397 0.5228737101310538
0.5105291167166888 11.972181622166028 0.5203664989180353
0.41490339991991654 11.565624385860136 0.5094145458596201
-4.987324073580654 -2.500808056621976 0.5227413887166157
0.3231952847865416 11.182904335866425 0.49907668299905683
0.1593709435047712 10.598670409902866 0.48278628969708237
-4.893351728958262 -2.5261187184269414 0.5225258515072588
0.19612011961702436 10.494689012679004 0.4813357251603618
-4.7937680566541125 -2.5539137097405495 0.5225010541431785
-5.743332071232192 -5.105667172555821 0.4897557146868745
0.2715128680819623 10.451750520464898 0.4820879573382484
-4.760049277818684 -2.6236008354246905 0.5269938475393297
-5.762886266009124 -5.278511449149727 0.49719959710908856
-6.139353014372781 -6.350600055425778 0.5446937710996257
-2.0346722767584495 3.4158572451664164 0.44913589525136277
-1.9977915357887275 3.374463508479337 0.49203596604608024
-0.9405598702783355 5.94564798319257 0.5397433019457714
-0.9539739525891271 5.872797716319122 0.5354181453433249
-0.9763752085122901 5.782014589942667 0.5298091031720489
-0.9942006540025816 5.702264661213798 0.524957050370598
-1.8989403251135226 3.346637598198584 0.49638140576863177
-1.8285701555952258 3.3295540413458715 0.4895006264009576
-1.9771446448265633 1.7598605096668642 0.49940862740153846
-1.9853907123322523 1.6873447250909086 0.4973248216087409
-2.0154805179903827 1.5906068456896654 0.48239075885336424
-2.042140650196168 1.5379552030919676 0.46718301943329166
-1.9966927141019517 1.2774470069941686 0.5029057287917491
-2.0791081717038002 1.1341893635879898 0.4859792253390983
-2.1001650063933233 1.126211301693734 0.48075140878331013
-2.193445123640175 0.8683000245738566 0.48125517980593546
-2.1943157352054703 0.8293413247483103 0.4864124092527373
-3.598752081590901 -2.8600860637823593 0.5309146872129747
-1.9614007564081153 1.2539307495311178 0.4931859019396042
-1.9976426348430196 1.138904955617415 0.49164545980038454
-2.1460139974480095 0.7922614646042375 0.48245467160267796
-2.409140716396876 -0.0015286350813881189 0.492894068782866
-2.4397611119084233 -0.054318523307013145 0.5010720615268819
-2.4535402588368376 -0.1743355803548654 0.5025297717607652
-2.509642887045782 -0.2363912055298074 0.4956590102056929
-3.1986519803538274 -2.1251527579199982 0.47215570920836725
-3.5278581758894125 -2.872988404396621 0.531638740984429
-1.8818916640425938 1.2244014173625448 0.5132762387319553
-1.9025659364416565 1.1262833915252506 0.5010997184937107
-2.3278888284871666 -0.017289494222344493 0.5063733102106261
-2.4394004897808754 -0.19585132526006066 0.4870854764058089
-2.452972656727127 -0.23064073645003402 0.5036724844175996
-2.5033325757592806 -0.38876072417163776 0.4944824054943192
-2.5241660280734806 -0.4611357433389167 0.5094293454030259
-2.5481435687822387 -0.5632929163014906 0.4887792150853607
-2.5745157812074697 -0.656313096764432 0.5012208396563171
-2.606472809260973 -0.7556007664729552 0.5145591608989508
-2.642688798155711 -0.8426064542554839 0.4827228975969773
-2.6769696769033233 -0.9342621134849738 0.49124469392409165
