ply
format ascii 1.0
element vertex 838
property float x
property float y
property float z
end_header
-3.7707186016263403 3.5383989364145743 0.5994439612238543
-3.7972270386717586 3.43769755292667 0.6049957562327809
-3.8163323044267856 3.3420962462551245 0.5926919448561024
-3.8340354412115785 3.284038092967537 0.5854900630730899
-3.613455561102376 3.560437986179952 0.5951078356365214
-3.824231600117091 3.191082701372072 0.5876741880283192
-3.8388212660063132 3.1369892377315027 0.5763404849035545
-3.864293005063545 3.0550375166126083 0.5598574336983188
-3.4846776284997225 3.7073982789498654 0.550501609331697
-3.4680491641051905 3.6708179067519424 0.6061228033328737
-3.542418102039902 3.5531973122306484 0.5905767124798492
-4.41273842983201 1.180580590178128 0.5488312998649312
-4.404766262502212 1.1571436371065176 0.5504642217600421
-3.390578753299723 3.646672456507103 0.6061921346663641
-4.3888961032492695 1.0905116700810056 0.5574363046674871
-4.416312806942161 1.006223634828582 0.5782914966449607
-4.445106214089785 0.9043118539798352 0.5808044180620937
-4.463747429058373 0.8193044155750977 0.5961259234235927
-4.49313609374685 0.7248793640681459 0.609551241998007
-4.521554525685032 0.6156955569340605 0.5884009011269757
-4.536205350958404 0.5511810178225032 0.5901408987235826
0.09818073907103164 12.55413281883428 0.577166059750333
0.11763423291735942 12.489069109557484 0.574951390870697
-3.2586782769918137 3.648171744505693 0.6050081747263564
-3.309143090714187 3.622994158914296 0.5999422408181745
-4.52123766750905 0.504508345632894 0.6109819973432019
-4.545544003004229 0.4140765464903071 0.5901201543742763
-4.570195631540823 0.3183745446958861 0.6093896133874965
-4.593696479928929 0.2204615460310715 0.5961495100824717
-4.615990363593813 0.13430832733695097 0.5995572431564702
-4.641602375079964 0.02516005299602586 0.5900100065802583
-4.669896027332476 -0.08188284262345302 0.6085808933451657
-4.687078824952761 -0.14964078900761368 0.620315645079194
-4.775542183260109 -0.3685150766639991 0.5694795454534217
-4.80273598618559 -0.45240645606951047 0.5816861012476462
0.19435726863152292 12.47797672489963 0.5747541967675662
-4.698083295326078 -0.19573601118961026 0.6282530522143663
-4.706461308097212 -0.2315725791109764 0.5908485371379868
-4.806792626505495 -0.4850985126476459 0.5859428322775682
-4.82060166439463 -0.5434915094203046 0.594048827710081
-4.848223545100461 -0.6444089416865859 0.6084133171464855
-4.877280306887673 -0.751793564136221 0.6236980702013439
-4.87705599453986 -0.8041090295172513 0.6300834008014367
-4.98371441245623 -1.0425551970781375 0.551735955562459
-5.01655310292785 -1.1371618978184523 0.562342258357006
-5.037426579480991 -1.2235306356440008 0.5715189761117829
-5.055480297347875 -1.3067205732154923 0.5802598823345748
-5.089091196938677 -1.4208764405131036 0.5927544556499043
-5.103843182604769 -1.5032031788692106 0.6012647940328604
0.28877269246030135 12.449120227755463 0.5740064853885378
-5.135241930717805 -1.6215023090664156 0.6140585799143436
-5.126658106231896 -1.7081695801295447 0.6217912243703437
-5.123060421827277 -1.7949347196060668 0.6298061415896559
-5.158217962979788 -1.8995339302880243 0.6415854318891535
0.38642974039765265 12.42946297031798 0.5736285984673428
0.4788790719189224 12.4026800568942 0.5730395151946593
0.527136666401927 12.360750324817287 0.5718123602466061
0.4774534254513534 12.110638603630614 0.5631801636234078
0.40781532464737547 11.812397329571729 0.5528892994180239
-3.4846530684046035 0.553156152976275 0.553215808789347
-3.4435902786074046 0.5434514415691272 0.5543316108433407
-0.5830475678962572 7.730415984436526 0.6432049169114418
-0.6097390868656629 7.619552656153495 0.6355247343995107
-0.6413458246442016 7.499932485054112 0.6271944264920999
-0.6622946335479982 7.406043221661186 0.6207399462856203
-0.6870185752117108 7.3050853151374255 0.6137664317852898
-0.710480037412546 7.207810587808822 0.6070508779541942
-0.735960566866344 7.1070474691289025 0.6000842836198821
-0.7571543804789296 7.015158600314763 0.5937762094040555
-0.7860419422048688 6.888017236616125 0.5850810884650658
-0.8090815797715032 6.777878840033292 0.5776093275634461
-0.8407328119292203 6.675293912495114 0.570395978419876
-0.8570178096735246 6.6029348163877 0.5654735471589695
-0.8757164492523457 6.524955962198463 0.5601363262769941
-0.900097061005372 6.418354792860596 0.5528888683671234
-2.128929783086755 3.4083565891993057 0.5798371250828619
-2.1070452821812147 3.3558106421633944 0.5918453099013363
-2.0152935943700783 3.3296612897546685 0.5950410590298867
-1.1326852878752343 5.50516807640043 0.6439554843146333
-1.1483965040865933 5.435782997537644 0.6369590693338212
-1.166833878954534 5.348121289664659 0.6282079552882123
-1.1974878417880497 5.229538200545532 0.6161248838349919
-1.221318453063522 5.125491644722361 0.6057095620390212
-1.2462517426235236 5.036364691113015 0.5965857515068292
-1.2654067714068837 4.945592207926062 0.5876457970832727
-1.2957169989533073 4.828829395195118 0.5758927284217479
-1.9231517042223092 3.321969500616955 0.5658481552074481
-1.9197013312167273 3.301180873855155 0.6055298522188123
-1.3147024722798255 4.743973775271025 0.5675492700272364
-1.3417468303129012 4.639904469537747 0.5571575639458913
-1.3610678120237374 4.560423508387043 0.5493245238156229
-1.8141145283904794 3.284981663479398 0.5743053405340925
-1.8391696203814996 3.2798522143754814 0.5964880146500197
-6.827968790067857 -9.840677732282028 0.6448032097355167
-1.7168337988106595 3.260727826877405 0.5836351261889926
-1.7042977222918132 3.179918103811293 0.5871630131878468
-1.7307146259612225 3.104471973581188 0.6407340091555989
-5.8570308547644085 -7.47193972734121 0.5492617069927745
-5.808790309161985 -7.553064455179504 0.5510865773528175
-6.740498664971025 -9.856043342923376 0.6437231793907873
-1.6956729838948303 3.178145656971679 0.5770311972630696
-1.7298931587398727 3.0808444244610698 0.5922243783492295
-1.7521518288727422 2.9915093598271403 0.5950353717662297
-1.7808719697715438 2.8855846173022566 0.6049378636863173
-1.8137561594432627 2.784037659044839 0.5874810926689434
-1.8327172453440408 2.693521800468395 0.6098962079797245
-1.8567960462967388 2.5971113803732093 0.5903024840606963
-1.88112596096784 2.5066394878220812 0.5971343962574781
-1.9068915609304158 2.398346043099121 0.5915077293049985
-1.9304298839127283 2.310087291394012 0.5784280723897047
-1.9603394503197153 2.22454161062963 0.5649548029169588
-5.740270083951433 -7.561819192613704 0.5501188319960192
-6.63745432803558 -9.88205526429234 0.6427439862530018
-1.9249881818465513 2.2937894999615835 0.5784116287489698
-1.958888532581671 2.200290014039701 0.5637248175356402
-1.9813175322926437 2.109064207096548 0.5531087625984055
-5.643118437189371 -7.592948312452494 0.5494669955397643
-6.554644321231767 -9.906470303219036 0.6420075150942003
-2.3040029200704817 0.8218756869830623 0.578371572000752
-2.305156512780135 0.7755040647175626 0.587402887971744
-5.555806474803133 -7.662402117585797 0.5502270735059932
-2.279694152791851 0.7945400584117914 0.5881613076170547
-2.2854115164545905 0.7780011019486737 0.5904107866027554
-2.5253767054541116 -0.04615344141243605 0.605380396932938
-2.5450047065887462 -0.11595879750629456 0.61780009459031
-2.5838105134122236 -0.24535431175916766 0.6412561544891494
-5.52834834965011 -7.851954084982587 0.5560823967601893
-2.4474919156506045 -0.03609834416601121 0.6085596736775086
-2.5396876372134702 -0.16978513998939837 0.5850985877346386
-2.559001215180591 -0.23401064185150533 0.5932899287203904
-2.5829849400134393 -0.3501048638246811 0.5802724979880354
-2.609844267930405 -0.43134331212826904 0.5928989133938145
-2.6409878812072405 -0.5371026778742536 0.6097272265051487
-2.6851920880985922 -0.6143024660698537 0.6216224182062982
-2.69414842977796 -0.6964157966927966 0.6353577078233457
-2.1332230453371044 0.3650035022443978 0.6334443519026581
-2.3365017155723358 -0.051828095397425944 0.6195994391367168
-2.3566850025949 -0.053210559233328514 0.6183474503921781
-2.1283298659711747 0.33453050483961677 0.6051943775636515
-2.1462864900067546 0.25294879993619546 0.5877547853669871
-2.167001669434316 0.14377735062438401 0.5989893373219239
-2.2059781129822955 0.05589786844070255 0.6108403998593399
-2.253572159234926 -0.05050857613210846 0.600108687244045
-2.2810648397801874 -0.07905891469894821 0.590339952696509
-5.95972203071263 -10.059474422508364 0.636715094753403
-5.8551629664819025 -10.084700795011681 0.6357473665520967
-5.7519622438690785 -10.116563174833283 0.6350635998021071
-5.670035428040753 -10.131781129699926 0.6341876220352022
-5.526580533216393 -10.171009099953624 0.63312833240432
-5.590159260662805 -10.162279051123551 0.6338626612528514
-5.463710457581595 -10.18528411276499 0.6325144078691396
-5.3607018430609665 -10.219522337141386 0.6319338597873769
-5.276392479299931 -10.234065261684831 0.6310817463762106
-0.3326597582782038 15.788926466636267 0.6910363599917227
-0.28444054082953985 15.786633272892201 0.6907907851755789
-2.3011232227051437 9.478372422716935 0.7459261016491241
-2.3315168481549806 9.458258003831014 0.7445547406549597
-2.271686807584459 9.492425552947546 0.7468514537583064
-2.495414638532951 8.594255645305768 0.6835722645885357
-2.535523878295285 8.460519155048946 0.6741953125135572
-2.9032099422148754 6.914351979088565 0.7478671156942316
-2.9310578475242712 6.798912059600784 0.7356581525940925
-2.980004506351081 6.625218929353563 0.7173466580917509
-3.0055751780092153 6.517447167059007 0.7059814917480384
-3.0389532650342828 6.521022263912316 0.7065463250599583
-3.7011164585973737 3.72540048898542 0.7082417521488684
-3.7472184111931344 3.6395950753666404 0.6900621110719997
-3.7706696986966217 3.5318025783372025 0.6653586023514665
-3.789824201646776 3.476703118618228 0.6534081122063675
1.3080945833458362 16.507011810099183 0.7152769138647916
-3.6112530059961765 3.5566658877278483 0.6612606301833308
-3.468995388822898 3.6722651498162144 0.6842504152247244
-3.540612951754208 3.5509567951174947 0.6565492554651501
-3.395577324125546 3.649494551945822 0.6766627341875808
-4.499912834267612 0.6910612918347478 0.6567793712204995
-4.515770433535814 0.6148194421329698 0.67573747218971
-4.53380837306475 0.5495232102196002 0.6930661672756718
-3.2613068529972953 3.6635062126786124 0.6786275218559105
-3.309282101149616 3.6214956504818043 0.6683509499632341
-4.520445601567589 0.503352710564029 0.7003772913359382
-4.539003344208337 0.413091271159852 0.6897586034311919
-4.5611219480144385 0.3206404726105756 0.6985321709165797
-4.591550698858814 0.20417209402619396 0.7052911295544994
-4.618139742786873 0.1066617845376916 0.6956318210197291
-4.639786320795373 0.033069981518883074 0.6937097060354367
-4.668758911148004 -0.07271351626815181 0.6894951881546368
-4.68438940920014 -0.14497946018371488 0.7042039460580704
-4.7744072872544745 -0.3660492403985236 0.6612619057832583
-4.792511074293127 -0.4271475057787044 0.6722093243301124
-4.698517874661696 -0.1956764000166964 0.7149478052277677
-4.804047744038531 -0.47121853430077953 0.6799517469752528
-4.823563118293137 -0.5474159594588022 0.6933358549300294
-4.849057242203113 -0.6451277559364028 0.7106031000047565
-4.872160030889535 -0.7423884699318988 0.7276073534350036
-4.87758496144469 -0.8146701313820546 0.7391971104192709
-4.992623305477714 -1.057496254421737 0.6698106350174071
-5.015528388710849 -1.1344825702211572 0.6810031800950674
-5.034224779608371 -1.217109115547046 0.6925893698359252
-5.057866930317185 -1.310374732957384 0.7058757248550938
-5.078523500641096 -1.4005824637345459 0.7185860437260763
-5.105748891213489 -1.5061590314118223 0.7337032113481493
-5.121114669434883 -1.578656505444755 0.7438765647090811
-5.190342342102959 -2.0165516341505185 0.6543503690568209
-5.223109722347209 -2.137554011347491 0.6675361094698524
-5.24215723804084 -2.2143709767454314 0.6758693308927575
-5.257491330486943 -2.2840306228399574 0.6832684116916404
-5.275239675494828 -2.361327136360718 0.6915925791121639
-5.284407398389402 -2.47954344892228 0.7033854502936533
-5.160762060477652 -2.5032178680515513 0.699769820485796
-5.211936327020913 -2.498567905873099 0.7017210677820954
-5.082148189480245 -2.526897188945798 0.6984361454402749
-5.133615916350217 -2.5231233213553197 0.7004188025089209
-5.011696661193035 -2.548352235454004 0.6973756128396277
-4.916629210094578 -2.573329001285708 0.6957052918034919
-4.844950025484763 -2.590042477385261 0.6943396144434809
-0.2978926398794246 8.985380048053003 0.7301199596824804
-0.30552751048610016 8.899716786807513 0.724393845297028
-0.33628574990490057 8.760958306041374 0.7147829285779835
-0.3773131626126429 8.600399699484322 0.7035408131292793
-0.40148702372830325 8.480335714563376 0.6952891426598514
-0.42994842227715147 8.353289075391446 0.686488828292246
-0.4714048034885323 8.19921889277191 0.6756956259573177
-0.5046827269736154 8.067574792310367 0.6665122627842557
-0.5344530665874383 7.9452614530068715 0.6580250407433531
-0.5610680157651422 7.832335451282031 0.6502013181317365
-0.8824923885573126 6.506113816209874 0.7471137073022687
-0.8999424751404335 6.432198449114329 0.7394869577659269
-0.9186151949271419 6.35880308046133 0.7318584735936248
-2.1136271639003414 3.356468593865178 0.6971853289521572
-0.9346620701784345 6.290758583458496 0.7248525854741078
-0.9491432863085767 6.226260985855298 0.7182457316581043
-0.9829939721236194 6.108844633044935 0.7059125920677228
-1.0035870844540602 6.018053206188897 0.6966361921697531
-1.0231293782771314 5.9321772117165406 0.6878733498903495
-1.0475822683807259 5.837509847083031 0.6780970429362325
-1.0723175570187187 5.7451511892107785 0.6685376294028799
-1.0930062465461163 5.646834628794613 0.6586427763777184
-1.1177746772888089 5.558775855426967 0.6495041970760246
-2.0199745580828625 3.330961798496804 0.706659119873734
-1.2271403404450938 5.1259208379370875 0.7466130239115546
-1.243372543912197 5.050136300672895 0.7365353120838476
-1.2733660542147391 4.942501050661585 0.7217688828986466
-1.2917369714682612 4.855307933236505 0.7102761533349923
-1.3178655328568567 4.759079605767216 0.6972084561895916
-1.8742229514882989 3.3018808129255257 0.7252240409893751
-1.9242076368483763 3.3069835321817562 0.7177741710750185
-1.3302197662157473 4.707558735285322 0.6903519975755632
-1.3439701130340547 4.644762355961353 0.6821201373952881
-1.3679236928503102 4.548540962762653 0.6693327595783887
-1.391219662802062 4.465656807413383 0.6581554812030688
-1.8133291165596612 3.28182372003001 0.6753087537774276
-1.820519874721783 3.272845536212487 0.7110851065635451
-1.7250680090168447 3.2510371707597105 0.6920933879275445
-1.7177374160947778 3.2056865301212922 0.703770182586233
-1.7262804448521332 3.1171561406428165 0.7211256386312854
-1.7140056828350498 3.141853448152339 0.7273064182726658
-1.7341903838285038 3.077233546509744 0.7134645205292953
-1.757437322350599 2.9869404743516585 0.6954038331173924
-1.7774055526167125 2.8958290501950072 0.6783035008368118
-1.808858592903336 2.7986314623914548 0.658573925034396
-3.708424275135326 -2.895285696625344 0.6900621699116091
-2.524088527768792 -0.02591533120448175 0.6974795376167428
-2.543968610658993 -0.12517344914634054 0.6955979336592749
-2.583620691489332 -0.24295240269477736 0.7201996647619999
-3.67001646193437 -2.898011971270925 0.6895528993805474
-2.4041448336074547 -0.02503069088874854 0.6842599843932233
-2.4542954851255736 -0.020587272813389346 0.678904584552399
-2.54647896790961 -0.17515938371412254 0.7069364477075859
-2.5605423632075235 -0.2356843797233843 0.7200215430574969
-2.586316967449928 -0.33673125559364614 0.693690607107774
-2.613684328039719 -0.4297758718742064 0.6768232063901294
-2.632727588776075 -0.5314844529030465 0.6966074009059208
-2.6842805682305606 -0.6134173861387691 0.7114310817270333
-2.3404299112086777 -0.047511741928526696 0.6950803610343774
-2.341112769514096 -0.0538002374579607 0.6963938091905846
-2.128555037435498 0.34076145175946304 0.7090302266645552
-2.146849257691311 0.24596924058547587 0.6911700490972219
-2.174058030235611 0.15757192394505593 0.701243958955098
-2.215125108620752 0.06487200734222887 0.683793639439693
-2.2481148293102056 -0.04109737108869016 0.7027695643515031
-2.269274973171477 -0.08500761441665161 0.7100697357965101
-4.302672769543596 -5.506883622679204 0.7148398136033456
-4.341069569056317 -5.507803451963168 0.715674756858405
-4.430928362502781 -5.775272125884554 0.7357624890920583
-4.223679732849907 -5.53279016465947 0.7150062386990619
-4.2419081401413266 -5.538678926363183 0.7157424589931224
-4.12716008834302 -5.563735332934405 0.7151988858273435
-4.024886892974354 -5.585852126088248 0.7147518466316538
-3.9489278485296326 -5.614487905652348 0.715296871963301
-1.9751192282768781 10.49526425854782 0.8176176364021511
-2.1934953434039253 9.646522478972575 0.7576606020307198
-2.6884031914927147 7.69853134237616 0.8309068843387248
-2.7236786478089194 7.568356108545023 0.8171019929843821
2.232020514198613 20.326002528840924 0.8484061233947844
-2.7653906202486462 7.370727687137055 0.7961251929736234
-2.796761616497281 7.257995621876271 0.784187804684816
-2.833145393524852 7.1725934950082255 0.7751691247843382
2.3242169710655443 20.27815682469512 0.8468770217898659
2.037167394186019 19.018514448033233 0.8030084610016738
-4.563417027652884 0.30156254821030615 0.7531049995232416
-4.585772340500629 0.22361523442921794 0.7748635659078736
-4.608936791818273 0.12866458456409302 0.8008116263126785
-4.639359533147807 0.011687656834313165 0.8003740812910023
-4.663284707517396 -0.07783629136405201 0.7733782103506904
-4.684257130817919 -0.15136266791224617 0.7916431966229743
-4.769141055136313 -0.3538009631517962 0.7891934951609675
-4.798688814622984 -0.4446416497955501 0.771631824699187
-4.669126865330435 -0.11472617250092876 0.7818718932011852
-4.694926086583723 -0.19724709953819008 0.8027451926307546
-4.80938949258417 -0.48774147405969215 0.7806921664829597
-4.820751433126401 -0.5422257036373592 0.7918928412254026
-4.850058031063615 -0.6460116788333767 0.8142040692655926
-4.866499577960022 -0.7655434045511411 0.8380273199025166
-4.892458915935703 -0.7970307881557148 0.8467169947200794
-4.980813074931973 -1.0362310449294707 0.7828115131386499
-5.009489932398501 -1.123018889062589 0.7988463190648403
-5.035166557660509 -1.2181377604911345 0.8159070743288714
-5.056860448757715 -1.3208601841226257 0.8338311903696671
-5.141769848016423 -1.6482538406059364 0.7540210356889783
-5.120210440142005 -1.7103933600444838 0.7603925097934118
-5.1557899492706465 -1.8939848601012899 0.7860489846169892
-5.1881302908526 -2.0114181643749465 0.8031121158270886
-5.213488780470444 -2.116719081006553 0.8181804068538129
-5.234140929849856 -2.196778051510359 0.8297828378012647
-5.256080709448685 -2.280510560969794 0.8418766108123246
0.08854728314847637 10.526685170757233 0.8382575010179358
0.1536773800438418 10.467516911419262 0.8355499825033382
0.20613736420457096 10.424689828517932 0.8337158955756643
0.26152351245004324 10.430938942885275 0.8351945398693198
-6.04675619734782 -6.429788389676892 0.8209203547415785
-0.6498453167339013 7.474354112041425 0.8478396086643283
-0.6751103151344258 7.371802238961617 0.8370976631859589
-0.7015713983205436 7.267591518867523 0.826169948344549
-0.7189914080234598 7.183179945944053 0.8174738940787801
-5.959401392347329 -6.448147477241514 0.8195713969192775
-0.7417745698284279 7.088067386467847 0.807570939474035
-0.7612044111690572 7.000041361925479 0.798471480331056
-0.7832362859894739 6.90882328164153 0.7889847775891831
-0.8043188627353959 6.823677654092414 0.7801089142912626
-0.8371955644199365 6.6964989154542724 0.7668178031196967
-0.860126117013746 6.590900147288691 0.7559771458359169
-5.902008855713543 -6.468252372142796 0.8192947987075276
-1.0530469593865028 5.8067392245806175 0.840061432942018
-1.083646148822913 5.705557430620526 0.8257809048598965
-1.1031676112965467 5.625299739116851 0.8147785864562161
-1.125435221070739 5.541933222080269 0.8032374284886905
-1.1362579403688744 5.495372600619431 0.7969065153718878
-1.15340053902005 5.4237083022152275 0.7871456603778589
-1.1759195976678933 5.329646465168397 0.7743608976020178
-1.1938884004024195 5.245341790468668 0.7630813473343134
-1.2177683952139806 5.166865670388222 0.7521126544757338
-1.2964795169685983 4.845362654630717 0.8415315284584551
-1.3062314767277945 4.78468688494161 0.8317866362593519
-1.3200296838651933 4.730891464985405 0.8226919310132883
-1.3427471938604074 4.643981187053427 0.8079982054405332
-1.3641833956330394 4.55140887579863 0.7926726703826258
-1.380450479842127 4.478148858431512 0.7806654077012686
-2.5363638586951978 -0.0499510828216887 0.7536824537293416
-2.5398594563852215 -0.12260142843476896 0.7724874607250012
-2.4186854769842805 -0.018228278696674982 0.7569847946355891
-2.452692871427293 -0.017859100558403007 0.7533980327012114
-2.5424234719945664 -0.16333928412052812 0.7830422440498658
-2.5618194697307013 -0.23378851135250533 0.800221529874797
-2.5893611650140045 -0.33258081096911063 0.8140398069465238
-2.6072225606526866 -0.42910581275475357 0.7883707069129116
-2.6406663447689205 -0.5309905330257063 0.7849820136428176
-2.686522948937858 -0.6172979483332539 0.8035042826146507
-2.6980287018514093 -0.6735440286321892 0.8165269901256651
-2.345404737338603 -0.046446251000508365 0.77210578080781
-2.3896732971060963 -0.03465663818948972 0.764266063069945
-2.1843930618150225 0.11700272656017874 0.7520676191496474
-2.2126564162469604 0.06295807421333866 0.7612293189319482
-2.2544174665542416 -0.048903905733475916 0.7832818631253609
-4.636138619465228 -6.803795316400137 0.8100742067320432
-4.687081491449302 -6.9373541992307235 0.820305257004643
-1.627456710799226 12.21157238958544 0.9389707893670964
-1.741666573314556 11.74094825868776 0.9056725359712078
-2.4888780671797073 8.60626002698091 0.9273610196344133
-2.520495180297161 8.542046480702412 0.9205248018043655
-2.5673062678874476 8.353321457947523 0.9004533395749033
-2.6466876690585077 7.873999931210792 0.8495473697264493
-2.8935300978615555 6.978599726215844 0.9405548163534027
-2.9223545151903907 6.855807027774796 0.9231424363610652
-3.0207703269810655 6.562614336595718 0.8817226805454431
-3.011307330632044 6.5051437241851 0.8735170533060286
-4.657220606402543 -0.068440272235889 0.8552919288605774
-4.681993031212558 -0.14009609699170245 0.8764577484609796
-4.769957474719291 -0.36140230387803873 0.9196382658390937
-4.7844228632175305 -0.41315884133983616 0.8606711560376664
-4.691247201296697 -0.19110556558110314 0.8901875635511604
-4.7965357147420615 -0.4668338743225706 0.8736902056372963
-4.822426487548574 -0.5628671133328305 0.8976495859737262
-4.84000470657087 -0.6382359510699804 0.9161306252117484
-4.868455179800907 -0.7241791501522821 0.9383741270847312
-4.979684600956515 -1.0336485315853894 0.9001715888953705
-5.012485899231709 -1.1275100810063963 0.921220893676591
-5.032993472620508 -1.2135774395732555 0.9394947250352547
-5.091192396506878 -1.4366270456804466 0.854917867398455
-5.102699449200776 -1.4996872687412592 0.8658133413733903
-5.127709554416256 -1.6055620802877106 0.8846045350418424
-5.121642056801571 -1.6969936910677994 0.8985169919232882
-5.118993181768373 -1.785544548547267 0.9123054246753463
-5.161350217001628 -1.9215547464119656 0.9374585833387752
-5.284487819539087 -2.3808587700585986 0.856590581887609
-5.280430551125422 -2.470314559522062 0.8677943602996788
-5.166309145511242 -2.474496069222837 0.8612307348012602
-5.226904018885799 -2.491451438706276 0.8671454072360766
0.4705390308960049 12.073341841122373 0.9470589225724572
0.40335712420920267 11.783259431636594 0.9267167867723646
-5.093098611255869 -2.488453867040493 0.8586438899542203
0.3402886248271568 11.517020180397346 0.908005728224285
0.2692153971467879 11.232403476024103 0.8879814381421515
-5.009920379894298 -2.5440078642345765 0.8610757357738107
0.19709847434811456 10.945862470876047 0.8677947525264946
-4.915654080788292 -2.5708593363818344 0.8593546111975553
-4.845516794931266 -2.5923247370647027 0.8584173877590031
-0.4415556005136825 8.317619048261236 0.9364275517491037
-0.47166146307774737 8.18948898734997 0.9229991463638196
-0.5007766827856792 8.067309387886665 0.910176692242723
-0.5462019291726916 7.91098065928718 0.8935003159651045
-0.5753623463081325 7.793015877897584 0.8811011106994227
-0.599887839624341 7.686025417707114 0.869946220704268
-0.6190383067121643 7.591759920972679 0.8602078067382629
-0.8690420878396989 6.567685324280589 0.9452620211929451
-0.8831094761298481 6.4990775451784675 0.9358737028907601
-0.8996286367998714 6.427248457855466 0.925956069545062
-0.9228670390103617 6.34540413098488 0.9144000994199869
-0.9444498930553524 6.267153820698406 0.9034018899053209
-0.9570401155436477 6.206434002840178 0.8951229976101933
-0.9832113894229288 6.103444139534265 0.8808126590326271
-1.0056486010510044 6.009559172707263 0.8678727336789298
-1.0284605889897356 5.917960965326143 0.8552108046087042
-1.1494041487209028 5.426519399614896 0.9408846268908446
-1.1747975643702873 5.327862695282798 0.9238696056717368
-1.1983088032479383 5.234742916248019 0.9078863068368135
-1.2156685261890932 5.153815367721277 0.8942995527536711
-1.2480420799067935 5.039734570555959 0.8745026887384152
-1.2637998615882906 4.954071911716802 0.8604543333532696
-1.329941837978172 4.702728450410398 0.9470954123217848
-1.3438112274416043 4.65042603215409 0.9363937473276879
-1.3675610116572026 4.554637364969911 0.9170494139827177
-1.3844514332337137 4.470382472237939 0.9005787902071662
-5.78887337417175 -7.479698455415619 0.8835846446946684
-5.8309854304406 -7.501534718934467 0.886103506194366
-5.725712111416222 -7.508390757796917 0.8837896483348523
-5.642289472526048 -7.593681075385167 0.8873595373676691
-3.6978502390868866 -2.8770030550726546 0.8534771324413165
-5.573193999472503 -7.662936714871623 0.890233902032444
-3.6417540548226817 -2.9032603419777456 0.8558598667068771
-5.530954212618081 -7.7178116342248035 0.8928181384234806
-5.5086647622902 -7.769965050907089 0.8958405393787666
-2.6173007661534387 -0.4502887751620297 0.8546598570407639
-2.6417055467432777 -0.5141229656668229 0.8705752887733824
2.361602109843221 26.009026383187127 1.0477078485355766
-1.646322119145689 12.938657965836425 0.9904093595728443
-1.4313052744396157 12.908957018517643 0.9883265483104174
-1.4852929056717576 12.829059564983709 0.9826282511356174
3.5007684118440556 25.750835320549257 1.0376990307238858
-1.3768303624320168 12.87614081111675 0.9860619433051048
3.618138692221984 25.6836953754684 1.0354436742354696
-1.2821812656458489 12.84641916075784 0.9841259966259253
-1.1872164612495957 12.82462885342239 0.9828253038089878
3.427898478178296 24.583368340901796 0.9971211943902896
-1.0920492835840783 12.796458151191327 0.9811539316717182
-2.3227452519780876 9.48128716058944 1.0204019967797147
-2.3009877926976428 9.438262341753566 1.0159082416324345
-2.7197374491200192 7.564581897837357 1.0238341827293245
-2.757055607905611 7.409185904450515 1.0017271198022442
-2.803898348597243 7.239765000987051 0.9776396959054781
-3.0320476248668724 6.514916406953539 1.0457716185138453
0.11777576437033321 12.529874127197614 0.9725995121229053
0.20412008254933056 12.48592866606823 0.9707611984658222
-4.775531803395048 -0.39867634104488303 0.9538574828402773
-4.794386627984306 -0.45392663784166976 0.9702640356582212
-4.816504822472426 -0.5433643702365227 0.9955683391086688
-4.837151971647499 -0.6619118542847513 1.0279069665731722
-4.8639771134996295 -0.7689804542353453 0.9748445266068959
-4.971623802160096 -1.0189715734469353 1.0155940969365511
-5.005633657141102 -1.11457703766032 1.0407773004850909
-5.055642615561958 -1.3049683384510642 0.95902881720885
-5.076690942543868 -1.3959248720158262 0.9783440517898384
-5.1024343107972685 -1.4985963550326407 1.0003915898790765
-5.1278745024404255 -1.5902124366597996 1.0203595973336186
0.3029757963441817 12.469578684889626 0.9710125708842239
-5.138192700306825 -1.6399500753078824 1.0308147615767544
-5.118139318077529 -1.7050998714694283 1.041189277836255
-5.188030662389646 -2.027853660844254 0.9566074617721464
0.39751426896696307 12.441092132849544 0.970466102266252
-5.211735840878141 -2.1125211258585352 0.9720269097229278
-5.238893921094026 -2.206429360298602 0.9892765056606277
-5.264764884705653 -2.318214338588533 1.0092512253783328
-5.2949898095151 -2.443045191386734 1.031682597091771
-5.274058610248481 -2.4756370259367473 1.035312767511994
0.4943123638615936 12.425780521159139 0.9709100205779474
-5.19368051004764 -2.475883597809951 1.0291729797742664
0.5341316763363286 12.360400781175239 0.9671854687164513
-5.079569227432243 -2.4550974767047324 1.0173054443547451
-5.006846261096891 -2.536043308748377 1.0254035904771865
-4.914009729892429 -2.566636352381614 1.0241227987291397
-4.843812863044515 -2.5878061646412394 1.0230246917726353
-0.29527868771395394 8.980573235485808 1.0057811055703512
-0.33110992683200724 8.829329410283044 0.9898457603092539
-0.32958032690198635 8.76592046900706 0.9837456014049525
-0.36969553290800006 8.607655405208943 0.9670047521498296
-0.4074248002862215 8.45698094122536 0.951108001211126
-0.6994909483825293 7.264564338812185 1.0425639515114866
-0.7202959540462182 7.17336777942114 1.029864806380625
-0.7472901165367536 7.0697242511276315 1.015270187940741
-0.7622686614534886 6.990950401878223 1.0044866144961284
-0.7790003533324072 6.910791608962191 0.9934505901401329
-0.7999635680065871 6.825980190555375 0.9815951017537595
-0.8250600138206785 6.734355733437933 0.9686641534640771
-0.8457524311349318 6.653703367297409 0.9573664343858073
-1.0029892900402713 6.009573424656997 1.0418568307482987
-1.0236703726589722 5.921857594209273 1.026704376407327
-1.051181637553158 5.822016579413527 1.0091652907261575
-1.0659331976361823 5.74765124328708 0.9965897211295666
-1.0966694824236631 5.632276058987799 0.9764737999320339
-1.1187635626131969 5.54932130833788 0.9620356667295691
-1.1294627588986903 5.502966571232895 0.9541182579487926
-1.2149819273617384 5.191158091364938 1.0464095815171992
-1.2268621775952635 5.132780358689094 1.0346522899313433
-1.243336159684722 5.056287934522726 1.019185589032902
-1.274607620195515 4.946763824956818 0.9962644234150936
-1.2895838477040855 4.8644487819708075 0.9800391156691752
-1.32019476281365 4.761609732364381 0.9585037374975847
-1.3788244458337697 4.526181588699434 1.035791926638763
-1.3898613873564667 4.460736972725153 1.021071926607686
-3.705293953274077 -2.881315641128326 1.021597954870858
-3.6567395547628356 -2.896570308536171 1.023017018693993
-4.316318521258804 -5.5245165669520855 0.9755774574094259
-4.380059583657546 -5.612238617980019 0.9862662813308315
-4.4276959053348275 -5.762158155257167 1.0028830934539996
-4.229246261779375 -5.554535073984148 0.9765182519277087
-4.1134418934422605 -5.571232125049743 0.9754873304794939
-4.16670517670575 -5.580867766923747 0.9777504351446438
-4.024552646831216 -5.5992331704176 0.9763857116136323
-3.9473821759581154 -5.614947051620604 0.9763394408815957
-2.019257341262164 10.370132705810354 1.1154603343265042
-2.5385760178667427 8.357093241324684 1.1366538722092239
-2.6147094645469138 8.10685140209126 1.1009273567858844
-2.6792896078536064 7.739435919050596 1.0487021939106094
-2.8806569736613548 7.07680815951808 1.1457433624149607
-2.9436141474866395 6.763890112294096 1.090037378289338
-2.9724244838050473 6.6258663045539485 1.065477334639084
-2.993263647771884 6.582021480281428 1.0576805655804287
-4.863630117642267 -0.7888012360641583 1.063343592826695
-4.9328759151671395 -0.9507259568889572 1.1139861286406925
-5.030263439330228 -1.2204988771261553 1.06705481518578
-5.056373430406541 -1.331588503478749 1.0947013782184316
-5.07504651881088 -1.4052900145457436 1.1132303448654355
-5.0990049425592066 -1.4914450163160247 1.1352101569071145
-5.13392485918167 -1.8480082703605003 1.0700822728276351
-5.174685958260181 -1.9651516349714901 1.0965281213351064
-5.199314079178482 -2.050985728965812 1.115454762967963
-5.213471360622244 -2.115721232734347 1.1292539610975088
-5.234517090878011 -2.1966507378100384 1.1469117035703154
-0.5432029406209602 7.908942095648042 1.133033232236396
-6.051415674378782 -6.4452243897428865 1.1267349057554374
-0.571395649912096 7.793261937814213 1.1167492524192846
-0.6007794283354646 7.675905004880919 1.1002120560242015
-0.6240770048335018 7.573067829659374 1.0858507072938826
-0.6539943803001957 7.457976003985644 1.0695982010187046
-0.6757601286318637 7.363010107893409 1.0563454094577327
-5.962968571602603 -6.461207559308839 1.1247750556776077
-0.8692010553610943 6.561368429355012 1.1379428468837005
-0.8932201800023774 6.473909676894866 1.1224507851769572
-0.9097556116177392 6.402519759911815 1.1100511782599185
-5.887076646373293 -6.472766543298619 1.1229635486833327
-0.9269159639498343 6.313497027813378 1.0948696798092885
-0.9566189064318178 6.201990113014906 1.0752520631936904
-0.9740652451653018 6.133038694548755 1.063208098948517
-0.9921188291731355 6.064294130256151 1.0511598166382636
-1.1007971028980683 5.636390789586445 1.139189216808515
-1.1235342636107455 5.552178891598583 1.121457174520661
-1.137626126251798 5.485474909242104 1.1078319988019605
-1.154113229616589 5.429239146364719 1.0958857750707276
-1.1738995828708951 5.33978122762376 1.077590460417988
-1.1959511476506979 5.248484889617851 1.0587601674141924
-1.2730951773410082 4.946121339196871 1.1362295550688342
-1.2975173167519811 4.8381440025139675 1.1106196029182347
-1.3278328972800426 4.736421296146462 1.0856042409431685
-1.3432362709879038 4.659438396774064 1.0677595597324865
-1.3618493509417933 4.591115637632651 1.0512948176389036
-6.826396372527753 -9.838011282216161 1.0693018008267665
-6.73932301713516 -9.854352165620236 1.0679461384718343
-6.6354361798879555 -9.878211402166245 1.066682001891565
-6.550944045807411 -9.896213419334403 1.0655180770577461
-6.513404301993375 -9.914728322882388 1.0658318363455772
-5.9562801127371445 -10.050311119000865 1.060508433774008
-4.620586665775429 -6.811388047723138 1.1158739464789407
-4.684863639687384 -6.932451320987482 1.1300632059560105
-5.854048276672032 -10.086964193619457 1.0604593383217777
-5.725316077761384 -10.103947878142918 1.058479448742102
-5.7681437274097735 -10.091254973117396 1.0587307723059083
-5.668138099182601 -10.131500445561885 1.0590340281119686
-5.565616643485315 -10.15638997807097 1.0583425891195475
-5.46274711343394 -10.189922358649486 1.058238688685292
-5.357017694754942 -10.20876055748979 1.0571233335145669
-5.254343389561703 -10.246088167362911 1.0573984949623119
-0.29130700453785385 15.935176587452593 1.2039598848614275
-0.25205834003151795 15.889881999426555 1.2009510688944671
-1.8218812834821636 11.416393820294735 1.2268753071000607
-2.7290946842745307 7.533042968767376 1.2273716647790465
-2.852173081408156 7.181022308356798 1.1643257539769065
-2.6510839285291175 7.585717463497064 1.2372927736104558
-2.6887340633056978 7.528624413574217 1.2268786887586032
-2.8102513706465966 7.230499749457827 1.1732787674761813
-2.9839045245374676 6.654255212383921 1.248603339149473
-3.036902966502106 6.5103141200502375 1.217714797973557
-5.004200153603987 -1.1113186820330472 1.16464383605797
-5.0291218612232225 -1.217790645217562 1.1950131293770987
-5.058085024901336 -1.3341690900608651 1.2285200041286606
-5.074591213005356 -1.4038878238994075 1.2484956593911962
-5.112018678849171 -1.5591646677373596 1.1517992923969593
-5.129128607301332 -1.6366231393853576 1.1710430595747683
-5.108865377063427 -1.7011588418362291 1.1830478434330614
-5.112099433611955 -1.8026863239339015 1.2061897137491506
-5.164375288217944 -1.943306012168978 1.2437687627728864
-5.250226151539154 -2.2670249886196756 1.1619663980990473
-5.275427115997916 -2.438816587770549 1.1976352421646204
-5.191319661571049 -2.4828844435800854 1.1984955128756833
-5.225076006196478 -2.4866450688666686 1.2022934646601555
-5.099635686689539 -2.5045777717998514 1.1946621397885049
0.24894109601317727 11.16308160306189 1.2373361110722607
-5.005174873937303 -2.531748692059661 1.1920414803282866
0.19542989649783982 10.925729095610906 1.2122549822885742
0.08984433219316568 10.51529257021832 1.1685504084790972
-4.910250193111404 -2.5565650969691744 1.1893044852614725
0.15611450757861833 10.459315146091457 1.1651076683935493
-4.8409944602291555 -2.5802174631034256 1.1886530590734736
0.24783172873102988 10.426837994196946 1.164873573989634
-0.3479150626375249 8.713059832395118 1.2464474967731616
-0.382479692218479 8.568233311069685 1.2260098077027919
-0.416174780678106 8.427300458396626 1.206145801303798
-0.4510575926167988 8.286743533590839 1.1862726046005998
-0.48605384185817524 8.148361167945414 1.1666998764640548
-0.5135276945598108 8.030348894151592 1.1501282944161604
-0.7274816517835183 7.151509755968521 1.2413248930728724
-0.7464446772716835 7.064305968760637 1.2261524466726097
-0.7674510727081167 6.973582746194321 1.210285722950442
-0.7939358269613885 6.874542106787658 1.1927308574968942
-0.8139740786881937 6.791978723514898 1.1782522428289524
-0.8291872327095557 6.720206760846185 1.165840646708961
-0.8497702735122799 6.639986882637874 1.1517153027350675
-0.9821988107195345 6.113057076510813 1.2390608629277933
-0.9991943564084482 6.046485243111709 1.2250232639618028
-1.0295912050581877 5.940301998546454 1.202345356579444
-1.0496376961913736 5.837130675240595 1.1812681750214487
-1.083277898626264 5.713268440022135 1.1550798281800414
-1.1787830443713063 5.328134133985051 1.228597701244355
-1.204005894633437 5.2186578163813575 1.2022495119384007
-1.231868378616198 5.121555841291734 1.1782517591803647
-1.246053592205162 5.0488934858459835 1.1611886483084262
-3.704331799725446 -2.8830958393425203 1.1913514924278032
-3.6513580871803164 -2.894638638981927 1.1922932829782995
-4.328457087529573 -5.528458787522142 1.2376762518239113
-4.187756851269495 -5.546563801248807 1.2360569047456171
-4.2391229617871335 -5.53979085289534 1.236609599060556
-4.12448458884957 -5.566471202289959 1.2371017017758026
-4.022360701349354 -5.5920179729499075 1.237973833009797
-3.9460657114674804 -5.619066910513313 1.2398358935855611
5.041865870288437 31.928771457100414 1.2534463015471662
5.145906991669473 31.89968346996995 1.2525022405065074
-1.5730758702382104 12.492461133490114 1.341724844082036
-1.7155586332436745 11.856644505699876 1.2738638025856694
-2.3022806819163515 9.487825493218935 1.2977299890726914
-2.2118173863722026 9.6342466463399 1.319078008595651
-2.874560951936007 7.098763475066198 1.3441109442423687
-2.902887505837099 6.98925886749101 1.3205494758714362
-2.9296923935303445 6.883538099045589 1.2978286392695884
-2.9579242185264896 6.758200114505463 1.270913650253893
1.3154953414077974 16.49892923660847 1.2563423746739777
-5.088655007567651 -1.4574061375462577 1.2640782049799406
-5.097848434991905 -1.5025430328618574 1.2768112029176437
-5.110055627433969 -1.554769315411603 1.291831066816062
-5.121492953823558 -1.654848408196918 1.3189650799650057
-5.109163309351376 -1.7020251189048774 1.3294235737127926
-5.18123973782841 -2.0127166121601956 1.2613521067918068
-5.201113019861269 -2.0891941864542765 1.280819502110278
-5.223605746203252 -2.1729848469113358 1.302310559388062
-5.261584835188758 -2.310453483224562 1.3376470484550682
0.4478413977656688 11.993736384458554 1.3254923482815757
0.38098684416600337 11.706583750385578 1.2950662651531126
0.3206175327747829 11.448684657963101 1.2677191829730976
-0.3042071181439403 8.948605102024404 1.2791108670553435
-0.3321699774555249 8.81623142160793 1.2605776579072412
-0.5841924515039012 7.757278134337451 1.347877997227912
-0.6101140150611903 7.647709382090504 1.328571779753719
-0.6308130109223486 7.550788834578597 1.3116512007353698
-0.6631845757271138 7.431015748009656 1.2903042243773912
-0.6874336868272155 7.331248463301243 1.2727150895671644
-0.7127768628654976 7.2297920741367765 1.254801273506943
-0.8659096227309195 6.602755437993791 1.3419013453056072
-0.8889497358040876 6.496810598426849 1.3197909038777955
-0.9219835650632442 6.37385242587828 1.293584886898124
-0.9422603285734903 6.298206704683709 1.2774844136244918
-0.9515275454338581 6.243294635412878 1.2663178636807764
-0.9732585322601488 6.166068729158027 1.2498121606471042
-1.065450471649675 5.787803352080958 1.3408904474817218
-1.0815090570335073 5.7120138309724275 1.3226131942513248
-1.1041483148118756 5.6264373165401365 1.3014741124596312
-1.129639556292886 5.537854253950057 1.2793821969617085
-1.1467330458774727 5.45205602775372 1.258940186910989
-4.424527129236603 -5.7495910059931035 1.2711139639285507
-1.676963487890488 12.943572765978079 1.3887963355111284
-1.430067456642901 12.869777774806451 1.382375655397647
-1.3703815112058888 12.867403803179641 1.3825449646083796
-1.27565417440431 12.8393640168747 1.3803567648484611
-1.1819937884327114 12.811052805489274 1.3782362573528477
-1.0848900728523692 12.793305922357339 1.3773631172420748
-2.8447084923646377 7.215872374082849 1.3693117800169339
-2.772276652593601 7.372049054206576 1.4032339834991532
-2.809565146645405 7.196851238057832 1.3655200292797944
-3.0022090766448275 6.592486333433401 1.4137868709740384
-3.0298820077091113 6.440763122304032 1.3756413735141704
-3.0497169074370505 6.389524422510419 1.3627272007213258
0.12275178192571845 12.522985192271204 1.370151505108198
0.19332440689137798 12.49267342369993 1.3687747943439148
0.28622722741871875 12.46192858746324 1.36798561792866
-5.114321816622599 -1.80681933734768 1.3571086928158318
-5.160961999560703 -1.93580558721303 1.3965364550604324
-5.184186759238617 -2.01847594705495 1.4209981941967684
0.3880988631015252 12.451801093858466 1.369587418403226
-5.205369312164195 -2.0977853703497047 1.444274542274893
-5.280376008599297 -2.449462899255272 1.3712750289579314
-5.255824079227549 -2.4740537767385056 1.3742405432285718
0.47488224690209124 12.409460788959903 1.3676757474841676
-5.195227839156718 -2.47942494061007 1.369033968420266
0.5363457946073784 12.347028503302104 1.363154786074804
-5.0965522385631035 -2.49703298396378 1.362956169404188
-5.001333845539848 -2.5218391226134638 1.3593569582054228
-4.906048190181223 -2.545168208884617 1.355875142404439
-4.844697659619321 -2.5664735435426302 1.355347203747197
-0.463320931750443 8.249739617710826 1.4351191228713145
-0.4893515341846246 8.131919845947507 1.4144177845595831
-0.5256610615982171 7.994814005214909 1.3899426257868621
-0.5593591689924051 7.865139463316611 1.3668603564279256
-6.047132207499564 -6.433400885812894 1.4318853942248475
-5.96252768300482 -6.461400155096351 1.431297963981446
-0.7610626923075197 7.027551513827561 1.4319615461872934
-0.7899540824930336 6.898794819207627 1.4048805019885906
-0.8257714574804886 6.7623956176812765 1.3757667720290727
-0.8480750274954092 6.677185104337369 1.357605444208649
-5.885452772758355 -6.469254226111678 1.4285179842594646
-0.9856477070840097 6.119897414961283 1.4224000672130912
-1.0089950473843738 6.006524659473039 1.3949670725478747
-1.0418572503100005 5.8970644665600656 1.3673491372243463
-1.051145000452999 5.84665158671711 1.3553176125231532
-3.6941135961634144 -2.870597449281474 1.3599248823741512
-3.6536933297966203 -2.8841686746227837 1.362049650235256
-4.5999463399277225 -6.78477096042389 1.419425632684628
-4.63115789746164 -6.790123962625795 1.4211036339316196
-4.681885881448536 -6.922653750997938 1.4410521237689686
6.571489191888108 37.89540017094993 1.4619247823800652
-1.8840818218972473 11.193311702553336 1.541519570838029
-2.3898023367153973 9.095365178520355 1.5067495797262023
-2.4437538139067065 8.87786083984958 1.4677396050354694
-2.667604134730324 7.951123751142353 1.5277619331905106
-2.705441353585867 7.8056226471501144 1.4963421524317337
2.2451641124212456 20.327736258542743 1.5274700140957753
-2.894921256711447 7.033736946013226 1.5250224862743105
-2.922862333541247 6.917303441953546 1.4956512688033485
-2.950985051346762 6.794937048740797 1.464802220666898
2.3146567067348816 20.32130508233355 1.5278490518360817
2.412027729265513 20.291313130165676 1.5269287774593978
-5.235091303724251 -2.2154993727841545 1.4786945509122489
-5.265219115696352 -2.3371497405175004 1.514219847579553
-5.274327266328331 -2.45551944735579 1.5462795728048957
-5.195978554273953 -2.4810657362626762 1.543453301598891
-5.0950260122903535 -2.493279537069442 1.5348512365557956
-5.00438433281102 -2.530196562693836 1.5345421784299278
0.16210973611457558 10.824201162312445 1.5457568263321193
0.08982782854359916 10.500473416770507 1.5000089829258434
-4.9086508850440715 -2.5531497232496743 1.5304804701813537
0.14467283761470595 10.460590475371294 1.497188988081733
0.18564644206416325 10.431243749865336 1.495191117117981
-4.841416889921389 -2.5575343442798038 1.524756958973988
0.25454929158361983 10.429284306170329 1.4980949941628514
-0.326101917685222 8.819705365194109 1.5361962555635034
-0.3502621541771056 8.697145894174184 1.5147800731238017
-0.40046909137103137 8.517004856239334 1.4823880469975164
-0.43331874552605054 8.378689473692999 1.4579019571978407
-0.6484730654900095 7.505404218549293 1.5332255923099452
-0.6689742448875955 7.4112217507789 1.5133796201032665
-0.693907208695316 7.310347887666547 1.4918837936727318
-0.7181887995220197 7.211303407808725 1.4708161062010259
-0.7439670213266556 7.110670687961965 1.449328904485605
-0.8708410475208992 6.587296822487447 1.5380768708149681
-0.8942916371792151 6.501103298874314 1.5164475807427886
-0.915848821470227 6.399557529336663 1.491652049434803
-0.9409204183096063 6.295319103946417 1.465913246979368
-0.9564424656188746 6.228805542471886 1.44956156048527
-6.822523363463665 -9.827787851106422 1.4948765969039322
-6.741760177220726 -9.86511582836821 1.495548836553768
-6.636695572159148 -9.886256752396653 1.4937659891882022
-6.535894571722265 -9.923171470483485 1.4937730898141572
-6.452605876653695 -9.933209739635034 1.491791364844342
-6.328771254715647 -9.972528366727506 1.4913918282285423
-6.3936800557155875 -9.971285350452908 1.4934941646587003
-6.243308459417772 -9.984670239030606 1.4896647325958263
-6.14489753732748 -10.023433406861585 1.4902755428974606
-4.328016205901521 -5.535600619583343 1.502858755081464
-4.424118672474437 -5.756908470107772 1.5446416566550143
-6.039114050240331 -10.046350926120878 1.489068679374861
-4.199201709312712 -5.545911952485405 1.500302494440585
-4.251737049319653 -5.547503948180138 1.5023084396074085
-5.958974336411554 -10.069412056505067 1.4888074273284468
-4.11893810275624 -5.569992185533009 1.5019775395604904
-4.137198733902227 -5.5766774049663645 1.5036655698498542
-5.8532776280927 -10.090851154629625 1.4875995025996769
-4.0333590077130115 -5.587167402296137 1.5024124658736995
-5.752263642668034 -10.132412393703959 1.4886948515316603
-3.9561820035748196 -5.601912017711575 1.5028038644564823
-5.669451525545844 -10.147845254454168 1.4877397459176966
-5.567204188504694 -10.174705539177097 1.4874440547334427
-5.463141286425174 -10.202371570676188 1.4872175364241595
-5.378297800014901 -10.221112224988497 1.4867112216544265
-5.2757267401819155 -10.253468008975865 1.4871561309512655
-1.7912306964974711 11.563722562729028 1.5945653180096964
-2.2001388705959446 9.872664561780702 1.6462015828217176
-2.2692655223406852 9.584002055010885 1.5944180041603824
-2.3294675005276986 9.347646912221268 1.551970891025147
-2.579588074827666 8.321158857756927 1.6076264022459346
-2.624247970353254 8.137214868504245 1.5678992033125252
-2.8037261576547534 7.397679670409218 1.6169886669008844
-2.835124492701187 7.27196184543331 1.585200276711019
-2.864451391663673 7.163569939811564 1.5577945217183284
0.17799462551329226 11.056383909631476 1.5770993137624862
-0.3157307039104378 8.98006910529603 1.5629601871367433
-0.533970832270418 7.96772612971977 1.6320051989488014
-0.5658359130644355 7.842476087319884 1.605152132274422
-0.5946246969882099 7.726447553714003 1.580345604519118
-0.6228513036011103 7.612283023216001 1.5559687799719917
-0.768546447503696 7.005276800069732 1.6420130627272402
-0.7953599105250819 6.90371151398398 1.6165137533338032
-0.808677737543809 6.83227393056586 1.5991730526239303
-0.841227765501082 6.7051538833661954 1.5674228557464789
