ply
format ascii 1.0
element vertex 837
property float x
property float y
property float z
end_header
15.41443230136487 59.94387307985007 0.5498409762852683
15.480206407989746 59.92973531322234 0.5111959893305029
19.986855024107097 58.81588979880353 0.4533725903298519
20.011252700925656 58.79845474538979 0.465207699090355
14.648154687804631 60.217801938685106 0.5518423697552663
14.694930822856708 60.20769190267838 0.5224024879401087
19.96663079145745 58.84193986761858 0.5095964409419483
22.962575873988136 58.10408626312336 0.3969155963146928
23.0212890508365 58.07732614923205 0.4241749624142618
22.293299054436726 58.430110677528795 0.39066182963345
22.427687468229934 58.36082309785416 0.3930697215817209
22.219155487077835 58.46978583672513 0.40088379002999625
20.178735497449672 59.25879719875901 0.4915644192159273
20.523259721043186 60.50878296683359 0.42895184368246847
20.560871913273292 60.51313390060907 0.47887162564228725
14.082029794087706 62.59727328859434 0.6093254551712519
14.345459779219404 62.55569685720985 0.6183731168774966
14.37934609444541 62.51535804802637 0.6113129899274817
14.163202120789343 62.65709311801137 0.548483628396342
14.209473842519184 62.63022167970034 0.5242944396729288
14.578532263690363 62.58356144224006 0.5371080559457763
14.692001961445095 62.54734863470496 0.5303985232292885
14.810423252382263 62.51297088979399 0.6079970714679256
14.88526052821997 62.47271800794173 0.5653767657211681
15.196481691157274 62.401190526259846 0.546100157994771
15.264773340125839 62.372410837857714 0.5162203806097982
15.431334026788917 62.34988848228692 0.5213130021280445
15.504644387141894 62.34231165337247 0.521471902710495
15.592108305540293 62.32040002715826 0.5156549250311906
15.673372017625152 62.301395758468054 0.5234282699358588
15.812313604849336 62.258715839567806 0.5161636647679124
15.864060630195048 62.249779657887515 0.517259141346562
15.976359380951758 62.20014715953073 0.5148101639673724
16.05233473696849 62.17200207661023 0.5043798621020751
16.121081319720243 62.13164076232001 0.4948348746637593
20.437983746798068 61.03445966822901 0.4599770842627625
20.513758381092032 61.05630352255218 0.48689294960084184
20.64263484596275 60.99451871260203 0.4620317434390738
20.681509654691016 61.007919771112256 0.4403223593409363
22.19756713995485 60.540022632166675 0.4113941075944626
22.235614166267048 60.5417119568493 0.4297691441862915
14.315727770390962 62.70212319446207 0.5466409429475982
14.46099715962399 62.647599794266704 0.540715810100967
14.579385461836308 62.63457062795606 0.5853121123450906
14.609706980895483 62.62914191394346 0.6107582163704847
15.416984754980398 62.396852335046404 0.5379908906015245
15.601949328688717 62.34310495026242 0.5383930704018131
15.665001726046658 62.32804827003279 0.535442799287887
15.812956232869698 62.3076961247969 0.5517832769735802
15.856751943609845 62.286896081642105 0.5471406116487346
20.556660892060286 61.07196305528262 0.48287867327367506
23.34641657809992 60.41402227308079 0.3757773996074775
13.467687274163039 60.356467706431374 0.6762633715232026
13.54451783674568 60.351962147595444 0.6738795881992145
13.59510515725523 60.32514292824431 0.7046530343896386
13.479984754967813 60.42073514311246 0.6944961104225181
13.557469771545616 60.390945721239845 0.6463295761376754
13.771980890449859 60.421435611784744 0.7189690615531757
14.503745689754846 60.23748927466034 0.6286905783128975
14.714616062801637 60.132368761378125 0.6868748545510655
14.80367268651499 60.124992658717524 0.6596458906682952
14.869290180409454 60.11762970654274 0.6457771998125258
19.985092013716972 58.81560996630453 0.5485185960338242
20.017538006887378 58.78853559457986 0.5598662563024233
14.535340438556846 60.24901121465995 0.6421166408689036
14.625204173660915 60.24807231295791 0.6854687305995681
14.706209942539306 60.237014738761225 0.648928623528386
14.861662183623508 60.16270185289513 0.6391426695423204
20.202177294009978 59.246288692262176 0.521980555016952
20.529320247392544 60.51285483447925 0.5374068338447072
20.55848955224907 60.51382952851394 0.553046374175204
14.082350540479013 62.6164525446362 0.627449877005942
14.639547852439037 62.4153122178885 0.6991307855260419
14.082992007348253 62.65481094069334 0.6636989592557078
14.216464756856414 62.59479299359944 0.6402275707956439
14.326262725252436 62.594816392860686 0.6475226833720458
14.419002487860602 62.600363377526975 0.6512131252975065
14.511580658719854 62.61513162150797 0.6726861467986752
14.78898400545135 62.53278706033513 0.648438003590171
14.91628379114606 62.46259613943399 0.702861243703202
14.948385230031025 62.43199662400754 0.6678471023205331
15.192620354301274 62.359484638998254 0.6482182548221588
15.261348420614468 62.33159601294917 0.6121863876096366
20.45431217399275 61.0393684948434 0.5726134175743569
20.491125783728037 61.03980182487071 0.5383925399489595
20.645686009428765 60.99162183785275 0.529488569727269
22.348597886360693 60.561250400496675 0.5137303546861419
14.464363079943823 62.652466169370605 0.688066491258785
14.515872512989521 62.63128879282832 0.6727248479717123
14.66361605402108 62.60365104298816 0.6602504743204273
14.692033105357433 62.582288172320254 0.6687441530469883
13.637705025640821 60.320883554460195 0.7546190904219688
13.734100267656597 60.32568925934066 0.7928595470731061
13.473761376815764 60.45122009131194 0.7488047725066695
13.598659310837334 60.40798088620233 0.7747225690795545
13.684420053606711 60.40915066134678 0.7912085045631381
14.480113508484415 60.24787307895159 0.7812820196168117
14.726194263497398 60.122135116227376 0.7220076586187004
14.487039416665915 60.26050524953491 0.767792244473762
14.555464851983276 60.24974165153919 0.7538838058349254
14.606716280204193 60.25578090878237 0.7146713364818699
14.138947903510132 62.61062313654513 0.7716030209835457
14.291885988413043 62.558307240214646 0.7408874555001154
14.406644853610437 62.49727811075836 0.7245130509895907
14.51162225851591 62.482631605137975 0.7372961825952271
14.753874744614599 62.416364708177255 0.7267497831254905
15.192452559842687 62.3222055004864 0.7394631997396143
15.256387128929356 62.31015918057388 0.7490294655390337
14.282052364506537 62.65893873592973 0.7966060888158364
14.320607166604763 62.60695034608668 0.7621422657854123
14.436730496498258 62.57898235668528 0.7698889035647438
14.504507412060862 62.55981729882088 0.7934868030534582
14.621985888358806 62.53257664107588 0.7921125208501253
14.703754228452437 62.51095690792364 0.7852163802450264
14.84375498588952 62.4750368007739 0.7552533310851757
14.910606597773086 62.47675963505208 0.7386413284629935
14.967879926423215 62.46032879763367 0.7319002360254045
15.193700073138064 62.36172269625172 0.7253311552582016
15.236137258826426 62.3380483908406 0.7141635516897296
14.43633541860147 62.68126925635823 0.7206860496202591
22.474503768114378 60.572905525667274 0.5997073348304703
13.443489645672464 60.36833756439274 0.9040167593151573
13.530405535191914 60.34457825233427 0.8801933374829461
13.703620753697347 60.322588777606825 0.8781678718772044
13.549794618478126 60.39571463593797 0.8583309623730769
14.050098773170802 60.32428589961608 0.8896288754792571
14.175051499490692 60.3186598523624 0.8662269027132992
22.22200150871253 58.26765335367248 0.7442786763289136
22.2619868424673 58.247253203782904 0.7653533871634044
22.66752739907708 58.22894036978474 0.7561914917133757
23.00068615133944 58.07125041424727 0.7581337710792884
14.416026029476724 62.432520518057075 0.8504028475591472
14.146739482213139 62.57541697750498 0.8847286437618918
14.19339244339847 62.56781765197357 0.8744805893908583
14.340808444050236 62.494280190258074 0.8938840248291591
14.337167341573256 62.64932708294056 0.8251543840146583
14.613084975648185 62.583451943488896 0.8312367473761166
22.28926546917834 60.554795437100935 0.7092984737073953
22.376803577896904 60.5557055131582 0.7736615734791342
14.507768277976448 62.63582410517748 0.8577780877849505
13.445677166599781 60.34676279488228 0.9360546012040849
13.661845049605216 60.31819169714667 0.9509627201048997
13.658829345221971 60.40323914179832 0.9651467557869561
13.953643024542021 60.33998453286301 0.9286296514343957
22.23236149090983 58.2490650855131 0.8775213493538242
22.390489666702262 58.18780004271672 0.834135966596355
22.46764980644852 58.15000490875626 0.8540712183102313
22.557755682235324 58.08404300360685 0.8451355576409239
23.051825214709627 58.03049472157349 0.8035360250540168
23.13605266984277 58.01281243025551 0.8580757911820143
22.66800687008907 58.219546211726716 0.8219279558522413
22.781506371110137 58.16455983057201 0.8667961105164466
22.93748975202309 58.087845603919675 0.8488207273897145
23.07899504284795 58.03951561321218 0.8318796500355853
14.208115222341188 62.550443631900535 0.9671936777443698
14.252639930853647 62.52544208617958 0.9393603706115776
22.411945212381372 60.57182774530825 0.8696021279005666
22.282263299870216 58.22094987902893 0.8903892368560088
22.365680291478597 58.18664888641572 0.8814789508004227
22.48369430800002 58.137792622417315 0.9047939063541846
22.559275136487983 58.10258740050676 0.9075055592650215
23.012220132519538 58.0492972860641 0.9320903691608536
23.194408333637206 57.98550227026689 0.8848704161723983
22.885127296678178 58.122074779537115 0.9650301989661557
22.964335634841717 58.07735971933798 0.9492687697787011
22.030690008791847 60.542391664923144 0.9076440144363668
22.170223827620582 60.54584951588583 0.9432702624764326
22.299282736764397 60.556631249452565 0.9275169495075378
22.348604797133397 60.56081145811094 0.9229479148494523
22.8194421899728 58.151318211245574 1.0548783883600268
23.016226831209366 58.06050674671699 1.0312914786438818
22.273695784599784 60.53925653774207 0.9946469602098887
23.24240529068783 60.42296169988098 1.0523110650626732
23.234789672837824 57.95613257217768 1.128912525170342
22.91637266816156 58.10496749071896 1.1005524547358145
22.970976287959548 58.08010961833402 1.135419177498988
23.253170297583548 60.42018862859447 1.075389029217262
22.290786208607404 58.16694038269616 1.2073379038471008
22.378467829275788 58.1430278137798 1.238765301031439
22.96204297961353 60.438868938132366 1.2628641869421795
22.507601631725507 60.56039286370338 1.2279642418487908
22.575496943374397 60.55487258546522 1.2408126271842779
22.88239547524558 60.47354203787091 1.2757827728827724
22.503046537992432 58.084617333881184 1.301757227396154
22.890925956421743 60.51197480830377 1.3273284111966177
22.957784007616418 60.490566259893804 1.3238329979764893
23.068637807552026 60.464639695193505 1.3270257464541013
23.148868516966985 60.4489704792628 1.316697694579086
23.32180395070344 60.43249090609758 1.3492272326920751
22.491423746024196 58.07222990212467 1.3921501579338091
22.546372068285752 58.04082146465992 1.4128444988255426
22.615789403826035 58.00542661422255 1.4624207248789334
23.58610086171816 60.445890332750636 1.4420914158659652
12.348336031783834 63.08296756182123 -0.34754639535923026
12.45504026980642 63.05638472877208 -0.3402446026064571
12.561719820749504 63.0297152287926 -0.33299380406106516
12.679067489389457 62.99728851491268 -0.3248713656939542
12.835484906088436 63.02730465362422 -0.31671604035802786
12.789251420147693 62.97957741687007 -0.317732644096895
11.96199396591017 60.82343939433076 -0.3294497588640302
12.856805536018381 63.01657053925115 -0.3150697594903801
12.012064799406925 60.79788060037447 -0.32594215531407866
12.115916095521008 60.76886224642317 -0.3188248913956218
12.233888615257277 60.7395918212223 -0.3107062717332619
12.334004495198922 60.71233935119284 -0.3038598275284528
12.428325486927516 60.686121971537986 -0.29736986238470403
14.649112663664024 62.180114316059864 -0.3197656983621059
13.91243546710443 60.34243517104262 -0.34638636329284234
14.807001053182631 62.2805592003597 -0.31148090699568554
14.755426708294372 62.18751408079967 -0.31073154859731306
13.99797540577292 60.32064198476724 -0.33761542845314785
14.809374248605026 62.248766377359615 -0.3094302675072652
14.787633487520015 62.21434334141599 -0.30936826044878796
14.12145599860018 60.29323208230972 -0.3249716294775202
14.21727497948779 60.266307775818085 -0.31520767144683104
14.325179407735536 60.24179987610676 -0.3042051160002079
14.401426202589917 60.21740602448302 -0.29649489975646437
15.543945062466197 62.00431907215436 -0.3423976192762317
15.610599466128345 61.9933914779723 -0.3339270614293654
15.83833387242704 62.21958651802676 -0.3294882070976773
15.745971702903152 61.972587333397826 -0.3169638446261511
15.692732987461254 61.983309107243535 -0.32382551644010027
15.014407957022664 60.060324254985716 -0.3472978650084755
15.894372847818758 62.183519307862284 -0.3202292096425427
15.905696580023962 62.10073905009191 -0.3111492835287013
15.825595398180974 61.97313192938131 -0.30819622429867705
15.09544817771327 60.04003803398574 -0.3364622175559685
16.012805195484393 62.14878836771121 -0.3046800235528906
15.90263422370502 62.04677668071121 -0.30644837413354714
15.890433590135473 62.00031316718352 -0.3035215596367662
15.194480064017338 60.01807666709953 -0.32322236860406217
16.11376527099764 62.17108808686227 -0.2967883793808188
16.06953037225096 62.151898336887726 -0.2992602935144559
15.274711279152381 59.990920303227206 -0.3127369585710555
15.379335388501703 59.96386232474121 -0.29896803963208346
16.43366165753938 62.098326139245124 -0.3475453196760846
16.49720820078744 62.082517727666804 -0.3380309764277353
15.694373407618468 59.87810349879667 -0.3484515921010642
16.644131560390917 62.05765970655811 -0.3180605758008227
16.59851177306366 62.05363844831264 -0.32255904186069034
15.75191887549903 59.862019502955484 -0.33924364479699504
16.711406437618933 62.03524136306695 -0.3075637305584157
16.674735180160305 62.041282924578304 -0.3123902806459799
15.85225722519979 59.83606720644286 -0.3232176318128989
16.774939689610104 62.01985821861289 -0.29859678733125894
16.756997639889853 62.011960337661684 -0.2993361329549489
15.947824692408796 59.81190720452022 -0.308085660805812
16.01316050996359 59.799407324511556 -0.2976360273758692
16.9913713369806 61.954586746512895 -0.34018033291566385
16.18577830458204 59.75705631873952 -0.3459575203209129
17.08486960565144 61.9295947750834 -0.32492943614893904
16.241749286185748 59.740677333177565 -0.3358900642523914
17.176643246572116 61.887256804869075 -0.3070036756424366
16.355673793111233 59.712536177432156 -0.3153453018203436
16.31776399656379 59.717878923911 -0.32242966603139334
17.218652631340333 61.86335306875051 -0.2980522612030618
17.25442423664232 61.81561634459337 -0.349713751510342
16.437445187625553 59.69009002195814 -0.30107665919407683
16.565639465953055 59.657389692367275 -0.34326578137506186
16.639844027620715 59.63849269573546 -0.3287193868340698
16.73137835762025 59.61267719863897 -0.3115830454947848
16.800999288122515 59.59214770597052 -0.2990906316969341
19.151108879012266 61.35141175822116 -0.2950005615044289
19.21014676996447 61.33368075941592 -0.3039958584188339
19.3097066454733 61.308582572819326 -0.3211216994730639
19.405245739771825 61.28183962062908 -0.33836795196609837
19.504721881896543 61.25498135855268 -0.30848480648652854
19.600490088828792 61.23440714990978 -0.3156294949121565
18.791147714066803 59.07620606208543 -0.29951769630210423
19.734549996892536 61.20164365552458 -0.34117652516531005
19.686639249393416 61.20978526727348 -0.3315019841936483
18.90749026606541 59.055160234173165 -0.3215654542596139
18.87466247659826 59.05246487309987 -0.31726964532053925
19.787589764105768 61.192877491656034 -0.3383953847536112
18.975067076065727 59.03972722208893 -0.3358467394522494
19.891466462316277 61.16936521601232 -0.30374911660225834
19.083824400514864 59.00477119453588 -0.30121858755359165
19.982117804008887 61.13964196287823 -0.3192394085906887
19.16916932450563 58.98530649853861 -0.318016848830602
20.083986920127504 61.11260803583268 -0.3380880555818141
19.27248002810386 58.959792309270945 -0.3392616248411169
20.1412509315613 61.099408380756365 -0.3482122784825231
19.401139634418552 58.93016773004953 -0.29704053678373227
20.307335651251897 61.05055250815371 -0.299701495053593
19.464823426530625 58.91393271044306 -0.3088580071607977
20.37350768469719 61.00356933950127 -0.3097091186008821
20.362164751048923 60.900902967063026 -0.3038924217571296
20.345905947884425 60.82529809068672 -0.2985175141323473
19.561373318418475 58.886730368639384 -0.3273661915361258
20.345020468462533 60.78217974267095 -0.2970586341389429
20.346127634705553 60.74416512958436 -0.29619246222408807
19.644451927679544 58.868907227298415 -0.3427136854720639
20.391809163478523 60.52552383692734 -0.3001046713029006
19.956194987810466 59.31071421021635 -0.34369501502152416
19.93808128264368 59.24985925810045 -0.3465100087191864
19.92238510840469 59.19537601343046 -0.3493624634922367
20.484639621915804 60.50091594069814 -0.31611353370251255
19.830259477193454 58.83699595128148 -0.2951985302437011
20.580686115012146 60.47319724718635 -0.3327313148428314
20.152443755169525 59.25768137039789 -0.30327304162661384
20.24151643850787 59.2329634289457 -0.3191655603520249
20.314797448860087 59.218060033753176 -0.3318496639181964
23.839446060315083 60.18309472498252 -0.29926265394358015
23.940566558858812 60.16003768462818 -0.3063372550018102
24.027697161223898 60.13676716894543 -0.3124667601877638
24.110686759318668 60.11302469302434 -0.31829967876479454
24.193640272992795 60.08871213314356 -0.3241540454128577
24.306335231908168 60.06245735980535 -0.3320576269160048
24.413012660106858 60.03599138871249 -0.33956829439403263
24.533481828283982 60.00832511382794 -0.3480238100560369
23.978706677109795 57.56931838936411 -0.3488714493768301
12.5466214200198 60.6595065113044 -0.2892996333143216
12.64318116280618 60.635068836917 -0.28267326569041223
12.74375335213773 60.61084193134854 -0.27582350149775614
12.824544553723854 60.58803152651045 -0.2702838370081236
13.78970812116847 62.73055056878246 -0.25016578335277956
13.784706384761325 62.71313269821149 -0.24979960429075898
12.923310549938847 60.56503099727479 -0.26356783322158694
13.868018798574974 62.70735861625461 -0.24479399568573465
13.002291160878933 60.54349881992436 -0.2581643219850823
13.957426218464228 62.68741730323201 -0.23889720072961507
13.09924368424684 60.52188744731989 -0.25158277735755585
14.065183657606969 62.66519880516705 -0.23188865740831954
13.217978011743938 60.491627805641166 -0.24349873185068643
14.15423523958355 62.64200475639628 -0.22590838629947413
13.312935698237975 60.46312081037668 -0.23704497533759372
14.220853594583584 62.62173865602354 -0.221346243660203
13.418187141143344 60.44377175345679 -0.22991600469535436
13.503624048185735 60.4255166731652 -0.22410362445161577
13.646813786546666 60.39907040579875 -0.2144054575963279
13.699293085143484 60.36716713244234 -0.21090882037655181
13.909631732401156 60.33595664321174 -0.1966656919061373
14.97882849297023 62.19607206360957 -0.2916451935598433
15.12899140629292 62.1374009015296 -0.27523244544827513
15.222681579468889 62.11758672425728 -0.26600302735224396
14.5006749834144 60.19510334710505 -0.2864153004478255
15.314376078995565 62.09648127002908 -0.25690187563785366
14.600987292432254 60.16828031253573 -0.2762891683455647
15.38867821136649 62.07782898635518 -0.2494606042805021
14.704163746463703 60.142114809107525 -0.2658957862564306
15.524462480679905 62.00592883335514 -0.23352400432017506
14.795574339679055 60.11770848652005 -0.2567329034412765
15.611564258265819 61.982396304250585 -0.22473708347319035
14.88449168368184 60.09472814789576 -0.24783703307960034
15.829304669180262 62.222760333317346 -0.22379818969349224
15.715093005306738 61.970548513056336 -0.21536676456008721
14.963594788434127 60.07307864863198 -0.2399682645002061
15.896530887784673 62.18392060689638 -0.21581903472599817
15.909551957663155 62.10643317823545 -0.20913712511042765
15.820541318356012 61.96677886745389 -0.20647160381163254
15.075710507886441 60.04416738250363 -0.22884437204102304
16.010812135534117 62.15303430560771 -0.2048937525487705
15.90906664977097 62.050514569589204 -0.2051703163578369
15.89543765563364 61.98673240518515 -0.20178834188238115
15.193632730488256 60.01842421540149 -0.21712943772010737
16.125132135471002 62.169953109151066 -0.19780103172140082
16.074326807853986 62.15032290068892 -0.19998447994733362
15.2682578547192 59.9905508867736 -0.20994946512622348
16.20196894288422 62.155374575816005 -0.2865440229267181
15.37923343338263 59.96417295080165 -0.1990775766445204
16.302402279875203 62.13075176120023 -0.2743217240664956
15.486934564774534 59.93522765265254 -0.2849256693560069
15.428713465933091 59.94598886621404 -0.29262349321603603
16.40035933806122 62.103470355052636 -0.2622076791105486
15.563619278118392 59.91422741877904 -0.2750026883611771
16.5016657745157 62.08031112019214 -0.2504002331516871
15.66352184185537 59.89075995314132 -0.2620544115918532
16.598736259969225 62.05025738541264 -0.23838418556502564
15.760678313495015 59.86391686388411 -0.24969337829045157
16.731749396392946 62.02633216971399 -0.22422117150877013
16.672843905828966 62.03987961339943 -0.23078149156335848
15.852294546606425 59.84040167391276 -0.2380878850432245
16.80169732177928 62.02003243962 -0.23974151340805389
15.957410206848987 59.81439574037671 -0.2248861715664157
16.89710387109192 61.992327191002595 -0.24181884389037628
16.060630574374898 59.787928226363434 -0.24341224509380074
16.984658214565247 61.970365368599474 -0.23584789521159005
16.148194617448315 59.76536104124842 -0.2446272362618447
17.083581801780305 61.934298037664206 -0.2554344648084986
16.24063823552605 59.74035524647699 -0.25369572635077214
17.17197066521463 61.891574923298954 -0.24085921729560328
16.350171286796748 59.71164153920701 -0.24669909688615035
16.322036155221998 59.71560376218902 -0.25103044532399865
16.44796439416525 59.68523583027767 -0.23922729105461954
16.539748624965988 59.66309190308063 -0.2516503339812088
16.636363611214616 59.63841371823459 -0.23834133413859862
16.724764998935672 59.61295854141851 -0.2347660091208338
16.841666772638618 59.58612456657106 -0.2556264545347632
16.925133041629216 59.5628339545874 -0.24994732087870017
17.78661510959594 61.481084631279685 -0.21836779098224227
17.028807262215434 59.53790853127979 -0.23326899098717693
17.151416969278838 59.51181222425919 -0.23039247405354887
17.113926199141243 59.51395210221575 -0.2339308429218553
18.06497554080215 61.646951861507574 -0.2265934690077561
18.03980111637859 61.600376316624484 -0.2389726368668456
17.232289384219506 59.48441059433698 -0.23033311299506307
17.209006151464777 59.485016540298226 -0.23437811624770782
18.14519542448446 61.62057926195172 -0.219874364504052
17.32757388595991 59.4515068985015 -0.22029474040546326
17.289856526960815 59.45303163777305 -0.22627761430285823
18.236673488753702 61.589555853117396 -0.2338390106297462
17.42180362205699 59.44128011632103 -0.20749332618963076
18.33779665275834 61.57636880804698 -0.23672817543624658
17.51344794194143 59.410660171680654 -0.20102361418840295
18.435370527700247 61.544242875137364 -0.23628018964964131
17.58775933932051 59.37738653667456 -0.19912866564907214
18.52944416314113 61.51193229636946 -0.23582600775700902
18.629661869021962 61.487001080422814 -0.22813652757000677
18.755693801988407 61.46636773882911 -0.20387601897547228
18.72176750760427 61.462286465108996 -0.2233226334825033
18.838363488656466 61.438673791169215 -0.2311551526610338
18.81399865913249 61.43660090238586 -0.22899532240712372
18.000745759278992 59.26770963344537 -0.19639281791737445
18.92408229991848 61.412132816216214 -0.23983525914664242
18.889422396422795 61.41235042082556 -0.24311137380829118
19.01510680050687 61.3858210836436 -0.25048876913467927
18.23548419783086 59.22280319376287 -0.21018032945565215
19.109200044491015 61.359290898130574 -0.2602078959321646
18.290181311505044 59.20498010800046 -0.2173984521513126
19.213690705456237 61.33388357958209 -0.22769332983719895
19.307120187435412 61.31045517457061 -0.23837448885118723
19.403435270609407 61.2845471440668 -0.25272799907130133
19.49410088684772 61.25860579485656 -0.25202491278054423
18.713003204406444 59.10589805182463 -0.25244338094969526
19.61065816097894 61.22799130914752 -0.23650838513574649
18.78280194841721 59.08085464808274 -0.24114972643609353
19.73124741578635 61.20051103232832 -0.2755279800143573
19.69354701482564 61.2036797507995 -0.23871734580509807
18.92009744387629 59.05097888600593 -0.23578912812999123
18.874971466186405 59.05415703924549 -0.2361703603314343
19.806773726806764 61.186521774503746 -0.2587421258170766
19.758663757897235 61.18462012874683 -0.2277312591020765
18.980262389344094 59.0361048102281 -0.24894935258842793
18.94560555851073 59.037298555964476 -0.24712808339561465
19.896871414347657 61.167340682215446 -0.23603918890385092
19.06323473308276 59.01301225810113 -0.25220807326710587
19.98577493803528 61.13502241348667 -0.24860432754977968
19.179196109396557 58.9870523095962 -0.2364824584196729
20.100723918988397 61.10340873034036 -0.25196197718077407
19.266918885689623 58.96438175883051 -0.24240144427860305
20.182455476706217 61.081457047065996 -0.23790792667997437
19.360537092670434 58.93917985218418 -0.25209625695511106
20.267240928055788 61.059761132147656 -0.24287990883952484
19.4660473479833 58.91294588033089 -0.23909624646354005
20.374755962722855 61.01698758963257 -0.22723416192237086
20.36665477895823 60.9091047913535 -0.22293119824732274
20.34165400351387 60.82393018499691 -0.21730332843368777
19.56264675691373 58.88565929050038 -0.2544945120791829
20.347055812781974 60.77800200595435 -0.21699195047521683
20.328633144158815 60.69818782581005 -0.24886707774801348
20.30353305414177 60.600668906636145 -0.24844866717987266
20.283113168317914 60.5536382185202 -0.2300942441356395
19.66794131697486 58.86053939973883 -0.25574979751591936
20.404660607919478 60.521720165932344 -0.22126203630511343
19.951518958468437 59.31318847761242 -0.2488323036983461
19.92583115528259 59.2494020724616 -0.23777850309379708
19.902257229425135 59.15586623574922 -0.2328205898325476
19.877823908201147 59.05947407683058 -0.24064049497076268
19.847913641204098 58.96450089114571 -0.23651204094641975
19.773136453775905 58.84388929287045 -0.23943481508287792
19.722230766573592 58.84645193314763 -0.22820005325279083
20.50457702277325 60.493030544976165 -0.23499996230120682
20.02983517364644 59.294013317035045 -0.24251493219722955
19.878988602137568 59.012083347278896 -0.2838476629279334
19.859056222001406 58.955417586122984 -0.27374919788761704
19.83238467271233 58.86171954540455 -0.25068912704961227
20.59143099726287 60.46856007807996 -0.24699717490052428
20.12674416354928 59.266965553626385 -0.2378896157827785
20.22038518767992 59.23937361022957 -0.23152598582275588
20.284049059847206 59.22432708154226 -0.24043068937328016
22.435425099850583 60.52466176696942 -0.20141635237453318
22.552308738930165 60.49894662416058 -0.20950327010800038
22.633123546693113 60.4710614691673 -0.21511279121420618
22.404280156290174 58.18060506133481 -0.23265521197878816
22.518051106306622 58.15148390320498 -0.24065368404935705
22.602246765229893 58.128206143033694 -0.2466193872711198
23.604898484225505 60.39628802338627 -0.28237045602167526
22.661467274520593 58.11743154429069 -0.25067632370869225
23.621835918071596 60.35916157700011 -0.2836231067569162
23.63361209754723 60.29067846789373 -0.2846440105573038
23.630864824725613 60.22575791894671 -0.28468287042605783
22.781353306834394 58.08796357389059 -0.25908868799998697
26.629333377152804 59.45416993723715 -0.1978330338676991
26.611094850059136 59.366494349876824 -0.19763299835047018
26.595285847788713 59.279051757936315 -0.19752166904187524
26.560941125363215 59.17973516166779 -0.19686768486568063
26.52781553884257 59.06501236521753 -0.19635699835425025
26.514298046761304 59.02314936343689 -0.19612334556262406
26.549163394603287 59.10653217265845 -0.19686196169714554
26.523576217787067 58.992037721536356 -0.19662521423037133
26.207522991130585 57.707035341892635 -0.19497539649924975
26.16985584159478 57.64389756428195 -0.19425274961135905
26.1495915613875 57.5717698954186 -0.1942022052153351
26.110120405689045 57.41310293474904 -0.19427993564787338
26.09032693690682 57.34270303985144 -0.1942536983837722
10.992466750400276 62.97628420127657 -0.1595991126475984
10.97812726028454 62.91070532377496 -0.15909484108918664
11.177378458629141 63.33165344951924 -0.15983226494565564
11.154768809323777 63.24140851732438 -0.1589520336814003
11.12667174673307 63.15224581036986 -0.15832212210452382
11.100375712123824 63.04846924967166 -0.15746740185797878
11.040230615575876 62.95822606804997 -0.15790775628239834
10.985459054380033 62.865693980702645 -0.1582243813074436
10.961471555826655 62.788902847160244 -0.15789942254133324
10.929688631792683 62.68738551159962 -0.15753798489849088
10.910509651658606 62.58268980722785 -0.1568291726794725
10.889738263165544 62.49153909805394 -0.15639452910843502
10.856335449031313 62.40400719960193 -0.15646677670766307
10.829005353111185 62.301426425784534 -0.1562502864150554
10.77183816979699 62.19336392688121 -0.15701703734476502
10.77004345949279 62.10205855464576 -0.15623550564007865
11.271084249712928 63.364366767918696 -0.15771462926232757
10.822681237344483 62.19831849255816 -0.15544014147309107
10.779566121824214 62.08208691753344 -0.15577775264241922
10.753375386333278 61.99285750200719 -0.1558626328584034
10.738320156812563 61.90137424593218 -0.15565020156662798
10.728290737008223 61.812810109191375 -0.1553524163773463
11.448085396706023 63.3147671189108 -0.15172389309296294
10.782387693973284 61.78441710791924 -0.15339882518232875
10.741541767725241 61.69821417426641 -0.15419370158010548
10.7159748675805 61.59711800524742 -0.1544574026926943
10.689448330273246 61.49358265743601 -0.15481360232621602
10.66217224906453 61.39184988642104 -0.15528258004966913
10.646057045744243 61.30050984558636 -0.15548618559133467
10.618028050770608 61.210487057064505 -0.1561568522455296
10.615999102289098 61.144019123425096 -0.15608367116305777
11.63371973684307 63.25993046272323 -0.14545301153832707
10.752402517210925 61.10322579682066 -0.15148482457981965
10.73457863530159 61.05276961526657 -0.15200861998373805
10.696247789005644 60.97822716483754 -0.1531704304117408
11.769493470200679 63.22543665870113 -0.14092402484694452
11.90647052885032 63.18871366179716 -0.1363766665255101
12.018246050967797 63.16383273992378 -0.13271742263109654
12.133838510450065 63.13761208805747 -0.1289818779566772
12.241479113981196 63.11290447736798 -0.12545233311371926
12.368224451773546 63.077113706550726 -0.12122685469074396
12.478709631066952 63.048712723471745 -0.11755615848793635
12.57470211765487 63.027036637295716 -0.11447244722404715
12.686833336090672 62.99708483126539 -0.11073476395958594
12.825316711357914 63.02409164946835 -0.10744125573553923
12.791559712558914 62.97015546980919 -0.10731299323320447
11.967110383097161 60.82467007243821 -0.11111271257147119
12.86239522532303 62.99363271310237 -0.10580762085214739
12.01925654672743 60.79894408673852 -0.10935199143910625
12.121289767013252 60.77004011620567 -0.1059955436923142
12.223510562646645 60.74181999191146 -0.10258781685285956
12.341746792623013 60.7133152932422 -0.09870351284936954
12.44421051113882 60.68658702769608 -0.095295802936404
13.973470074346565 60.314141002258445 -0.19240181892953406
14.081354596333448 60.29361408720869 -0.1851236188319093
14.197317767534877 60.27359620676386 -0.17730110970074944
15.066749623380144 62.14730967147698 -0.1544376823842666
14.294187052375534 60.248471256098306 -0.17083853890838105
15.11072059668447 62.14333013348996 -0.15181532633662742
14.413835556602132 60.225014563610564 -0.16280764476786302
15.216404364357903 62.11654528229744 -0.14481248496948534
14.483748885341665 60.2015180042209 -0.15820426554094302
15.32383262884605 62.07935341519992 -0.13728513720686572
14.581284806314095 60.174481099825336 -0.15174789354092078
14.675127339973717 60.14731011462786 -0.1455685597183156
15.50529149320358 61.98775040007064 -0.1233872499568813
14.792013220169272 60.11807039998549 -0.13787265169255022
15.595670779275117 61.97575823857121 -0.11792722782067033
14.88524784497645 60.089680867705184 -0.1318018005095834
15.702222294046972 61.96893079253985 -0.11186639640887155
14.996518524977215 60.06527405241773 -0.124504770908412
15.904416422958429 62.17794321649896 -0.11166945761873738
15.911730112560384 62.100885573781454 -0.10736076144934756
15.817598676360744 61.95901549724085 -0.10528413958572708
15.773116608754805 61.95861720048264 -0.10761968321326616
15.08554118452284 60.040002225715526 -0.1187488669153193
16.012603034347432 62.14757355811839 -0.1048540285302915
15.914582816757195 62.05842008599648 -0.10508911011779903
15.89460097248213 61.9774255524851 -0.10214535787072325
15.195079316251006 60.0137519013089 -0.11165496686295925
16.12216714024004 62.168699306631574 -0.10083906508935378
16.06844022899388 62.15144957606734 -0.10241190413604755
15.282312007801234 59.98742744346952 -0.10610935298919959
16.20963285156175 62.16516319972402 -0.1372262772501282
15.365796631959185 59.96276220361571 -0.10082957532670711
16.305230800126306 62.14959940877464 -0.1834575391650972
15.474609762012138 59.9385064388979 -0.18985387954073188
15.448782579350382 59.93982886947455 -0.09559294816962285
16.404453898206942 62.12665143328652 -0.17480533461434625
15.57012511253953 59.91553638004617 -0.18062350595490365
16.479102646936568 62.106714760124014 -0.16815869659179547
15.663346440959424 59.89099614871523 -0.17173312686541037
16.588156415079933 62.05547718075106 -0.15668338285538472
15.75713745829357 59.86777662352907 -0.16282509171018414
16.73308560404447 62.037193726384665 -0.14603370145763658
16.681146703599083 62.03128284891221 -0.14869374300006663
15.856752111262086 59.84154370161023 -0.15350650804800176
16.79316784504482 62.024076617979894 -0.14126891029698788
15.958788228401076 59.81477579324856 -0.1440627474734551
16.88830918452085 62.00399981703224 -0.13394302557262555
16.05183859671022 59.793649411925315 -0.13546084499053007
16.995384968654676 61.97391857893228 -0.13168282148385949
16.14461233445387 59.768267418797805 -0.12716364302227642
17.093124286619886 61.931228129258855 -0.15525383820852154
16.278182594978794 59.73805607371561 -0.15740299210174172
16.238846342385248 59.74421871503239 -0.14762591555342028
17.157406508265375 61.899888132275066 -0.15393061092193927
16.355566247947753 59.71596673768012 -0.14274954712818144
16.324299062733107 59.71760639640135 -0.13495040009562934
16.446678584668053 59.69188048016701 -0.13578224022480073
16.533673729246345 59.67203766783272 -0.14066720451828016
16.640455288150545 59.6479469269589 -0.14474749887499952
16.740950195060755 59.61649935253337 -0.1547915995894902
16.832828687822882 59.59382137768071 -0.1519210478233375
16.931539556795645 59.56791609911238 -0.14133979654953177
17.030321150694594 59.54267759332492 -0.13374854676095813
17.131253181530635 59.52146872898748 -0.09851767305025705
17.121166749981096 59.513709371308465 -0.12796952541766898
18.064613299359277 61.653245543277976 -0.12976811234998398
18.038517448712113 61.59485181601898 -0.14423344161278207
17.191042814862243 59.50062050434802 -0.09453155849667777
17.180626771706716 59.49560271332549 -0.09611442135208006
18.14657299789751 61.62372873644968 -0.1269717019142595
18.04739850921998 61.51007929280666 -0.1713661989136541
17.344244649381586 59.45031805182013 -0.14979555702157335
17.310021685362695 59.43950596566339 -0.1346009042807657
18.241209253624938 61.59137317880547 -0.1446246963169695
17.42027402451367 59.441829730034215 -0.14335015418903285
18.332438642033704 61.57130582047865 -0.1562843151524318
17.514172182312503 59.41085680453853 -0.13834932467462588
18.435975853389362 61.54368921634326 -0.16528652555433487
17.61463064633206 59.38108956942629 -0.14415291172446726
18.531371585064356 61.51696640574595 -0.14656304545411647
17.709077695084723 59.36078736810704 -0.15071061874350292
18.627017655896257 61.49160023404786 -0.14433406894840284
17.805225261697636 59.33300689420248 -0.14895919530353088
18.73886661787947 61.473078821921945 -0.13420676508744814
18.7242627216366 61.466336958864126 -0.13115357804530622
17.902205859300366 59.30711479969375 -0.15080289109581738
18.83368372540099 61.44051246707172 -0.14433550604231976
18.810742146822157 61.439248048387405 -0.13121461380775482
18.02349759555729 59.32745670170686 -0.15469769674389888
17.980382659763315 59.284616348967496 -0.1513901196380738
18.91936059080806 61.4117861240384 -0.14988136520395695
18.906689110645754 61.40528783712783 -0.11862564275771242
19.01028590488905 61.38174291648875 -0.15143585446686778
19.018077058476027 61.361824305000695 -0.1257929838679913
18.27241313565224 59.349635670102664 -0.10419874163217083
18.241017713558627 59.22214235309856 -0.15528111659036692
19.10747670132545 61.35574895030824 -0.16092229945457426
18.298763145012604 59.30373408482662 -0.15242462394790054
18.272354792753955 59.21233579767131 -0.1556008360231458
19.207433960843662 61.32857336296512 -0.13351679680962644
19.305801897223745 61.302037069698756 -0.1317381974898669
19.403908497918078 61.27458601561484 -0.14051582198342358
19.49693046778603 61.24939979206542 -0.14878489425070968
18.701876898257023 59.10511212224225 -0.15528351617801534
19.58589725630426 61.22847505126714 -0.15721132587483722
18.75462409605397 59.08199268250843 -0.16741902319032173
19.695794395671 61.204582837062816 -0.1443515031491436
18.90328398860185 59.061031716591316 -0.13022620129077847
18.87424972516619 59.06005429516024 -0.1254180160444591
19.81338030179312 61.18741528108639 -0.13462545954160557
19.785735660342336 61.17724108150279 -0.15433075625315962
18.977026965767106 59.043375282020676 -0.1390090686804673
19.899004717626973 61.16593880921255 -0.1349089434243873
19.078711037392285 59.01841335342183 -0.15412290020243122
19.99149959486349 61.132974002857885 -0.14621237096649903
19.167499941383923 58.993203312841594 -0.15333922611972237
20.09090208879682 61.108993105810676 -0.14434460182350584
19.266418935316427 58.96827134386544 -0.145104723713094
20.18644530735041 61.08566314557147 -0.12785485896041152
19.3702352014956 58.939979178903315 -0.1511674761930095
20.286916331404402 61.061133542785996 -0.13734129791353528
19.46160717416954 58.91555147255247 -0.13302477427497117
20.3803060838229 61.01010080327369 -0.14530996884498132
20.368058027709512 60.90406792653109 -0.14173750577765248
20.351623569997468 60.8513249383026 -0.13910012300359886
19.55917705198504 58.8903044925718 -0.15082106065054407
20.355993969681062 60.795649473003095 -0.13866024072726502
20.33266439111663 60.700523266717184 -0.13498525820049478
20.306657784033952 60.60062944772202 -0.13132863456553245
20.2797021762513 60.55576316521638 -0.12819343088214363
19.64869702278306 58.86527154634103 -0.14329537903146086
20.40203822974969 60.52444573250002 -0.14073329699525972
19.949890476059977 59.31208282494346 -0.15139087718318983
19.937805871762265 59.257519794477496 -0.13511880592933956
19.911623417888734 59.15387524874205 -0.1241577517638828
19.883513745404247 59.05818510579928 -0.12673983009083847
19.84724353424127 58.96901415503311 -0.1286059334880012
19.783258738530712 58.83462511382942 -0.13130101822244072
19.741655811697292 58.83705811829185 -0.1277852982965626
20.489796401409006 60.49930036838408 -0.14976197405441485
20.040816906800472 59.29182644953793 -0.12933834651304127
19.88696350317143 59.03906070984243 -0.12807759766481072
19.854800766258542 58.94744504008663 -0.13049540012004643
19.83923148193307 58.85687185887022 -0.13454041075775697
20.58575591476305 60.47152437991238 -0.15967423263874295
20.146115081084204 59.26066097565733 -0.14059146869363134
20.23272639326193 59.237180709355705 -0.14976892111429005
20.318046129148044 59.215857720996645 -0.15874585543789593
23.69115044709809 60.41401235498602 -0.09420765213201986
23.774180984569988 60.202130306621136 -0.09764350705395022
23.90030919186896 60.16923211828895 -0.10205401322078407
24.038238328174458 60.13431931724668 -0.1068755580124665
24.135352343226366 60.10997539184763 -0.11025871862276422
24.23442426127322 60.08488757646759 -0.11373152728545213
24.323349701156225 60.059537919866834 -0.1168414624103713
24.426220510657956 60.0332242384002 -0.12045088248823721
24.53691847587927 60.005990285740296 -0.12431159820938814
24.651536657166417 59.97746774666719 -0.12833277216758682
24.775936387705105 59.94729466815535 -0.13267318210788714
24.894276038802893 59.91664844502163 -0.13683215948297114
25.000455372559223 59.88594011717681 -0.14055674181630312
24.070437703929034 57.53766345072087 -0.12631008434071006
24.265897056005755 57.68644443440907 -0.13120219817217238
24.24298940856338 57.608268275761304 -0.1312329540702229
24.213173136657062 57.53400163302393 -0.13099358485954743
25.14848639795574 59.852302151734 -0.145741393129768
24.34825854805068 57.72672870342693 -0.1334931588582318
25.290360055897395 59.81858787935555 -0.15069621441247277
25.446043426491705 59.782142724776904 -0.1561562420998467
24.685442793022354 57.6107669107989 -0.14564822623928575
25.589498491255572 59.745014677532524 -0.16118067682106324
24.86291504056806 57.56399563192842 -0.15189075059914306
25.736828305340143 59.706574678684426 -0.16636795775653476
25.89984488700005 59.66568409971645 -0.17207665796055333
25.02820057667121 57.5244554258839 -0.1576929084711189
26.08064747210816 59.622055602390965 -0.17842908483960132
25.21209823309094 57.47801932803342 -0.16414546870811886
26.29301447208013 59.57413211321986 -0.1858496275356132
25.396181266868915 57.4321263017285 -0.1706271247121554
25.58615504108601 57.38521504425656 -0.17728568100652628
26.49927709354325 59.52575686799726 -0.19309303655488463
25.795207049931435 57.332273942655576 -0.18465640216449822
26.15545672551796 57.60129304444691 -0.19412947810579462
26.123168842502523 57.51841567175591 -0.19378091496397992
26.112163957344347 57.459609028132995 -0.19394209216763922
26.0632733091007 57.32193796763248 -0.1935663491742635
26.00298572333468 57.28198986097411 -0.1919338877368092
12.542753245018998 60.661086404358166 -0.09206880311467366
12.635485866695001 60.63680611653495 -0.08899082314626475
12.738220929524843 60.612446842803344 -0.0856305547832371
12.82913402962418 60.58910200291618 -0.08261932586515025
13.776382968757462 62.72079820399963 -0.07524023279214584
12.916086893587616 60.56660135145359 -0.07978572989295123
13.836393929257252 62.71796815202207 -0.07356558482674236
13.003188380109638 60.5446835370149 -0.07690658696291841
13.950282009449936 62.694502889634904 -0.07002149552783593
13.165608438796701 60.50310820467306 -0.07158913754670257
13.072340743809804 60.524070670640654 -0.07466688916771626
14.04554379654064 62.67010909125552 -0.06695114639435479
13.236920442885193 60.48348969948186 -0.06928244083229426
13.340095613310506 60.455084339519935 -0.06591001853815033
13.447416104516027 60.42765529589187 -0.06240503694527244
13.626824333873145 60.40037998027105 -0.0565351675980864
13.71842148457082 60.375722715842834 -0.053576876117508554
13.846111253038359 60.34436542044239 -0.04944127015090062
13.762281416553401 60.35992069441841 -0.052152795544143156
14.002012570413314 60.32231859637685 -0.04433816392110052
14.126059225872703 60.294916517936976 -0.04032891552774697
14.963674658885587 62.165845545228635 -0.03143777604934535
14.20332953850916 60.26764070609808 -0.03788083676859595
15.047584046592059 62.13926546811241 -0.028627775321709008
14.318728761535448 60.24310696092884 -0.034166757239026666
15.132606752864394 62.11836250541088 -0.025932219534681424
14.394322568525311 60.218607018760046 -0.03178209440656136
15.221795102126936 62.10144178702533 -0.02323141625380432
14.52419803422629 60.19103924795924 -0.027633140021217053
14.4698572217246 60.20149369941366 -0.029360718960055803
15.294741205573413 62.08561352162632 -0.020995047379322705
14.594467069494899 60.16928693864538 -0.025422288064943017
14.699446392026129 60.14304189891613 -0.022110894191121132
15.511160066406122 61.986170014774615 -0.013096726621137485
14.786625303109417 60.11824585698428 -0.01939459198343114
15.618022503657434 61.97000483870903 -0.01001874449714319
14.881593912375223 60.09554455587179 -0.016414601669731813
15.709463012176299 61.96017260369564 -0.007512968063439131
14.979259654233974 60.06982176130661 -0.013387639696523367
15.917314637593726 62.17651977874218 -0.008746066242259022
15.831587125680091 61.95154735933791 -0.004336281068266411
15.766056619202008 61.95938625347575 -0.006114405931854666
15.09457097619505 60.041323540638736 -0.00981732748970058
15.99144480086196 62.14804543200728 -0.0063192058915119
15.923593110531643 62.06278250298995 -0.005286377938506379
15.905028669857483 61.97207471611833 -0.0031639799304583535
15.190477502138542 60.01891868371928 -0.006862607492502011
16.11552827952876 62.17723718517146 -0.00464241084994492
16.07424139703364 62.155394815698266 -0.004804772059588215
15.26460205968953 59.99087931761478 -0.004689661591771178
16.212869336638345 62.165758648826674 -0.002362893159679011
15.376572192600962 59.9644963168906 -0.0012871943965561614
16.312703751272508 62.15621288777308 -0.041785884139604865
15.489919125772365 59.934103953130936 -0.02161142616914588
15.429321276318241 59.947036164249276 0.000257758234374017
16.40636458880422 62.131422618690216 -0.04590742800372854
15.561812835133392 59.91459735714695 -0.042227724024955164
16.489939092905445 62.10256344285655 -0.044107132219690225
15.655704046649157 59.889843593709934 -0.08258292877670148
16.60623703047351 62.04879214496906 -0.07293814175786159
15.750771414836308 59.862394040685146 -0.07677505571164821
16.71454724491858 62.03324317095423 -0.06773108291854613
16.686161237857053 62.03472896203732 -0.06892222251127696
15.853957986785696 59.84106951081124 -0.07036636536588411
16.799965379634536 62.02738036465697 -0.06417602393806708
16.763938437081038 62.01156344148592 -0.06448882731874399
15.952745226061609 59.81355633089071 -0.06446288571689239
16.901862186881907 62.00114644590517 -0.05886262925660599
16.05719380366761 59.78730013511823 -0.05824541422398108
16.988596465124026 61.98160430209378 -0.0546624132693852
16.14942319453902 59.76205413383907 -0.0529282012386323
17.084533937432198 61.93536986506451 -0.04849619507960173
16.296236203896424 59.732252972449444 -0.04444121976523852
16.236377292513705 59.7390439924239 -0.04803490197208689
17.136516361668455 61.918724811153275 -0.045779180826635395
16.347610130520778 59.714741380866535 -0.04175305140023781
16.308011952711706 59.721694176661224 -0.044033763280367406
16.44141042965481 59.688122882814646 -0.03679895523862897
16.553387718575625 59.663759555098004 -0.05610323249304249
16.63916953521421 59.64217084326063 -0.05455232484287894
16.737241883989583 59.62147180438596 -0.05204368488901518
16.83499627012897 59.594461728819034 -0.04305244699912958
16.93210780895778 59.56760754943876 -0.037749305536035664
17.027214475262394 59.557998811019615 -0.0571386989284911
17.031958569157542 59.54397224574769 -0.03249217841303165
17.143229842233424 59.515801265780674 -0.02970649813990233
17.11153272431446 59.51918153310308 -0.029822846149628778
18.057985480083946 61.65383130600053 -0.03692386292473819
17.214864321468156 59.49308013764772 -0.03221490303235929
17.219288627432096 59.481125655458115 -0.033366702692982475
18.143693386446206 61.61826983641604 -0.03378866142244315
18.06245957158399 61.32131456667359 -0.021172034011615357
18.237152811093864 61.5893461241278 -0.03257201414418126
17.424129580195395 59.443576611904085 -0.03616645733051442
18.311173669673998 61.565538776953034 -0.03422687931672778
17.514154711101853 59.41058632126541 -0.03715971251717086
18.442462356433545 61.53573107199426 -0.04095934652263137
17.60907912504968 59.379873817093326 -0.03633359425381459
18.52863053662635 61.511474758180945 -0.035534611015869126
17.70745519638283 59.3579430458284 -0.034261978067236375
18.626400371577557 61.48578913819668 -0.038155787983428224
17.803297928977386 59.33186718357282 -0.03436259330721318
