ply
format ascii 1.0
element vertex 850
property float x
property float y
property float z
end_header
16.834647902882633 59.59313250122756 0.06993828416285844
17.758542152410868 61.72308729830196 0.07458664993885969
16.932833005989067 59.56727237963804 0.07343752645147453
17.85739730259489 61.70609722131245 0.044387564087862416
17.81918228238614 61.708425895533 0.0899097946765968
17.032522056654628 59.54524606164705 0.0382943738205698
17.955982441554063 61.674748648724204 0.05078885890225371
17.123000745741724 59.52174596468587 0.04336672219376121
17.132081100665886 59.51313279862153 0.044651085199366516
18.051851752806954 61.65546639577159 0.05844731162773334
17.22597995008283 59.4945073721414 0.04942204222082745
18.14716547543081 61.62818088968762 0.06571523973085122
17.320673114341183 59.469639985160036 0.05526090674632825
18.211526420715376 61.601946668092936 0.0700599515952022
17.42027358329577 59.441604207747524 0.061967601018988905
17.52350270834335 59.42074399743634 0.06819246523009762
17.620519396801537 59.3921594805575 0.05720802989387673
17.708146291231618 59.37007775134925 0.05142609414927382
17.811508294287638 59.34463380046274 0.0634733711978668
17.934205364840434 59.32075623474367 0.059370172496676255
17.8966651019954 59.31855134621249 0.08055296622576355
18.00928147620165 59.29736010083761 0.07907567512393437
17.983038592677374 59.2932229778865 0.07980429975270681
18.097408918198223 59.26915976675278 0.055537086061646146
18.183714169959835 59.23731388372967 0.07473666715740779
19.117855733946367 61.38142998330845 0.07164786281534052
18.329960316183314 59.21128006157416 0.06452995267023928
19.207585019932385 61.34908214776631 0.06663272372576676
18.389884415392 59.19786625383678 0.06537918037989804
19.32832405148641 61.35299795556712 0.09530181646040484
19.322233430306305 61.332894103636484 0.07818645984340511
18.48363820953913 59.16031540716811 0.06747439191977822
19.403947914050963 61.2958077166155 0.06191580077185714
18.583707886930956 59.13688985399041 0.06607724090525308
19.503980726707113 61.263336465446365 0.06851474435425683
18.683677101047024 59.11071904749629 0.06310604880749734
19.61193787671251 61.24611315550744 0.0675076347073614
19.59302054139665 61.23768723916531 0.06109537576834104
18.805420764102838 59.09373637356941 0.04428359624886713
18.774765288579868 59.08822764152807 0.06893559640816899
19.716816866453126 61.21229807150028 0.07524930936454721
19.69045263445083 61.20805155684642 0.06433593993001707
18.8843275712428 59.06777471118735 0.06498332048433317
18.877745214265094 59.057257204307746 0.05596965718022687
19.79192305594876 61.1864239317421 0.06943926750252599
19.778974064961105 61.17393509995248 0.041609865182015274
18.97571595207703 59.04110050871175 0.07473033143072944
18.95640104443427 59.02781364957185 0.03338473270316722
19.89479262098188 61.16104304646761 0.07341369132919703
19.075460074731645 59.0117509761982 0.06286159374779293
19.985270506313952 61.13888363308223 0.056479034765981595
19.164885376576823 58.98920863685406 0.06603444642868939
20.084233417014538 61.11063255378326 0.07222632638138768
19.2702174356636 58.965385363571095 0.06769430018976125
20.1812343374576 61.084654541609645 0.059505961629351414
19.362413075486728 58.94924585908127 0.06457910020457294
20.280765305522976 61.06176998644281 0.061994552751853296
19.46273625050934 58.92292725979888 0.06182177455044939
20.380296833651702 61.03447363094969 0.07899855409804732
19.559428966512844 58.894654745534055 0.07535248911296011
20.42498647330201 60.97574623600981 0.06164882056311162
20.401418926212152 60.88606815972419 0.04559299837492241
20.373327357516118 60.7872109471878 0.06027219553393956
20.34921753385234 60.69103039586111 0.06849548635592673
20.334978738426905 60.58954374539809 0.0720226539913745
20.323195422314473 60.538856680546054 0.07880565971087769
19.67835026003113 58.86910028569871 0.038234980814867536
19.638477872657145 58.87257973977336 0.0630321941923436
20.388926597008318 60.52784172625526 0.05085607836809153
20.362837597821617 60.527739792683526 0.1118511853207822
19.973606654932947 59.30423146876683 0.061187974824368024
19.95596495095683 59.263725906208784 0.06471990941639477
19.937497892705135 59.182388839512555 0.07213759329419078
19.748877341701057 58.84534995171256 0.042132396000782266
19.74133117104095 58.83539351512123 0.0430486423415212
20.491355834525425 60.49247557654358 0.05961937728586826
20.035190266279194 59.295556293583054 0.06418274156488338
19.964894349529043 59.21705923109355 0.04854392274837281
19.939267594671225 59.134368915595445 0.05973100125706789
19.9076280275794 59.050061992478994 0.07099174863234925
19.87376158062897 58.95440530016757 0.07828616955504045
19.847546245411866 58.84259276039175 0.06886768066333199
20.58841642295569 60.46503880663653 0.059372583030102385
20.13073683576625 59.26730308081007 0.0688471394992759
20.6566319965798 60.45131119656654 0.09429422869421628
20.226259233198874 59.241302504545125 0.07566136585604621
20.305570951334467 59.219686113669766 0.07735817720015206
20.8143594168158 59.646116812759544 0.04982217500920556
20.77332451787045 59.56883791238829 0.04810081648726497
20.770560194984462 59.472061417035576 0.06541356398984172
20.74165660545455 59.38745578191447 0.07684788045509794
20.886093196314373 59.665694620029925 0.03297003302485277
20.812690545648525 59.43786183243314 0.020903911196661754
20.7661469349234 59.321982172575126 0.07672008807496503
20.77927452524437 59.2243886072006 0.07525737740313332
20.7394262805477 59.18686591109318 0.07280668900580006
21.771947564212088 60.682918007965036 0.04221459470564236
21.835983102880725 60.667551426154475 0.04477995389473466
21.938178117422332 60.64829816119216 0.04837267423232025
22.03742415509785 60.62556063943531 0.05211081248198453
22.141596562349743 60.60653018302031 0.05553685988240013
22.118937267324803 60.6028493068774 0.05548680259866487
22.23333926309435 60.583399807041125 0.059077132656063305
21.443390064860093 58.41415939005755 0.07768146924568661
22.33060892270699 60.55861835137827 0.06275042345251114
21.512485691421556 58.4005871697398 0.080519839296717
22.430755743925403 60.53253270161166 0.06647738158498767
21.606521170741495 58.37721136031722 0.0841087420826698
22.529825711489096 60.50331035068251 0.07033591575250547
21.706469437868886 58.3528957928486 0.08789645554879738
22.629792158246012 60.47860922925645 0.07389474111403402
21.796281451676524 58.33148418347373 0.09124527316615763
22.69847138952103 60.455221873718976 0.07670164257610851
21.895463086235765 58.30588137163199 0.09480414818646038
22.007229645181237 58.274520243188476 0.09867364781525284
22.09458743123723 58.25442390839328 0.10181216869971088
22.19411487814176 58.22849715299098 0.10521128451716075
23.159535809659804 60.40115322445972 0.08840196125265692
22.292155691842613 58.20449489927685 0.10854506693061558
23.23824113751689 60.37866983031734 0.09121316342484165
22.371115748169462 58.18723699335787 0.11136578266371502
23.370163938113823 60.35041676073121 0.09521114924307442
23.44025322256934 60.331868994372 0.09763942711835738
23.54423390910446 60.31420872011918 0.10059505773088565
23.64874312512099 60.26747379529255 0.10508068357807407
23.639549520194876 60.218790285405156 0.10778243361238446
23.80713091301226 60.19055561863053 0.11227183644262625
23.88646572825477 60.167860329586944 0.114995043669881
10.737629251460213 61.10951890826937 0.11574844803732326
10.758810790666711 61.034778001357665 0.11833699940268955
15.98676514369972 62.1576209227971 0.21481359677959916
16.131888390602548 62.15895327014029 0.21395928308079937
16.080704763763706 62.1376047215976 0.21251450361066243
16.21710929607387 62.148540219190906 0.21264345955369784
16.295830415024568 62.144644394045244 0.2121329644400307
16.396047205738633 62.12585161731547 0.2102482602872744
16.481534080326917 62.0979376412087 0.20767855623809706
16.593482760273275 62.048304776694124 0.20312834562280047
16.696814065487704 62.02258772102019 0.20096752250312788
16.796879087835592 62.02184134959651 0.20159620395019573
16.768719098705578 62.00521871459565 0.19967194448852782
15.964646906401494 59.80630203007103 0.2147307652806577
16.878832881931668 62.00061059346494 0.20011560494418046
16.050841118384152 59.788137398607276 0.21198729247688025
16.98864694246916 61.97167019431122 0.1982881339071471
16.14883830293235 59.762437863041136 0.20949125519889567
17.10061723779158 61.92404152382188 0.19456899691953344
16.242675662490104 59.73876180058796 0.20716975388189374
17.14265000243434 61.905055864233 0.19304406776315558
16.339974757077446 59.71291247601462 0.2050006039276409
16.33401263595925 59.71206551016587 0.20537778515891653
16.435464241805768 59.688965423737535 0.20284530991535465
17.34968987422857 61.76454124692509 0.18046651725214669
16.52983391911482 59.66315451028879 0.20112147751358217
17.44957858144412 61.73198672020763 0.1786945849477972
16.63826092431274 59.638432417882186 0.19873776780068914
17.54739599554694 61.71300532965853 0.17880086434824058
17.533377760995062 61.710317346951804 0.17809208274629298
16.73507583530872 59.61454533239663 0.19704210714820325
17.628450291577167 61.6889367514213 0.17810991042289454
16.819490432915572 59.59105378951991 0.196023318335668
17.724765042782714 61.66074362012998 0.17760088095766324
16.926462574632268 59.56733451556549 0.19425756892342527
17.879256433985493 61.697780231534104 0.11745618955802548
17.827114380437347 61.647880662822914 0.16676496817162134
17.02241632226029 59.54109435782154 0.1547949980247502
17.949707774728942 61.67329660648308 0.11968061591346857
17.92744346739253 61.607803680115346 0.1787051884527687
17.139856652137333 59.517811451432955 0.14745715776021667
17.09962556585447 59.52312720952446 0.17763380679573323
18.048322375098774 61.64447508261022 0.12383980237220454
18.029769691380253 61.58069429299334 0.17999976685982452
17.222011119744078 59.490730596635736 0.15464856343434885
18.145119424676693 61.625612037811536 0.12967105533625928
18.120136621095106 61.5608704975827 0.18232292492823063
17.32031433416165 59.469555518247006 0.15784790219313316
18.21416956270595 61.521820452805315 0.1823760756893796
17.413344502049796 59.44443898638262 0.1613850618493076
17.5104852791002 59.419512265342995 0.1621541606150793
17.615206170244534 59.40094520218475 0.16262072757306476
17.707732084621163 59.37066672595969 0.17060441227947604
17.853072704307923 59.34749171020087 0.14533512589980171
17.80888224878138 59.34876717421439 0.17087951960071454
17.92308289965131 59.324328820151365 0.1698101855828799
17.89472121351405 59.32543461177118 0.17967714166870938
18.002741215225107 59.306284463834345 0.17950094300553707
18.002889362767785 59.288410624469826 0.1598910003600779
18.11502662991987 59.29197169843602 0.1650334406144083
19.06229418070221 61.403241169968005 0.1299698345753316
19.05118890822565 61.34710397385821 0.16672181248594314
18.197459250524506 59.256932656416396 0.16421183185057833
19.11570540753733 61.37522878293952 0.1386184676636126
19.089660916034127 61.30105090005428 0.18706441222929585
19.054018285865943 61.20329731086678 0.16783739130497122
19.0473949396612 61.13449527325839 0.21193240881727854
18.292154198362667 59.21346036631447 0.16637379298658
19.2068819867275 61.348898250884346 0.1722700354829808
19.194634406211662 61.285579614787125 0.15569374868985106
18.453898436510926 59.228392106047664 0.1942541974782127
18.396675123499165 59.195626379676696 0.163586653564196
19.30896339889711 61.303933898868145 0.16156476958344054
19.296806799390794 61.24959405397234 0.20562285789344698
18.514682723018204 59.22636851512743 0.19943143479459086
18.4853756578705 59.15594541551003 0.15283228294298265
19.402593176944755 61.2555148766011 0.16035169023155074
19.344856800092042 61.23163771004577 0.17795080530988347
18.60860101849774 59.21246392048213 0.21118473266224064
18.585218782943155 59.135231959382054 0.16755987649485551
19.46853025344598 61.30072929673506 0.1278180308519111
19.483773478785043 61.220799973360506 0.16701141737326325
19.42964529016639 61.20591671044307 0.19762676621811953
18.708671044461894 59.15749009237125 0.19774505995509006
18.6785227380412 59.112255631616485 0.14876077526698497
19.633365820225297 61.2393515596595 0.14198340315531172
19.58793115975012 61.19683100768057 0.1667436581722207
18.78532955963889 59.141492373511774 0.20612690710751314
18.77732941895483 59.083290226438436 0.1625196471127677
19.668366332678918 61.234778818716634 0.1330317215709201
19.67238596068668 61.161682453703335 0.16514003544692504
18.90001118813196 59.10811371563699 0.1924845765048146
18.870012507951564 59.054766225470956 0.14647192660121722
19.804958344897514 61.18207517951966 0.14041314408507122
19.775491348365815 61.12946808909928 0.1826220553946649
18.98450624823174 59.134018679450215 0.2085830609777004
18.989158520020997 59.057733651525005 0.17562167632912062
18.9481929706864 59.030121591618496 0.15731161820056844
19.839335508335456 61.15862361243064 0.13232240284733404
19.86366520370042 61.09959754957902 0.16102011920131776
19.133945205951367 59.07862849615223 0.21047821886850826
19.076170990200378 59.02540843978216 0.16743245168252013
19.03408331016741 59.00094893132791 0.16424718601305718
19.99319120351022 61.132238680275236 0.13577658414904079
19.96190069456885 61.073602092500295 0.18077760584496236
19.176221371340933 59.05821588297326 0.1839329164196932
19.175607663420312 59.002437213294925 0.1655973255996686
20.096080256288715 61.07592123468728 0.162053140083614
20.050138877496714 61.054555423852996 0.16456203563841537
19.28887581835153 59.0281164718868 0.2075916355003372
19.266174195687938 58.97427835194039 0.16067039483224557
20.177749269349366 61.0757745525553 0.1435780776570926
20.13563510898679 61.02757568830851 0.18761852704946141
19.387508772303843 59.00528069158376 0.19336328451017354
19.366496853441273 58.95022115636145 0.15298424030221244
20.280496814431288 61.05684586682482 0.1657598036989946
19.4902354026403 58.97981946025441 0.19805914758139753
19.46659984519244 58.921918893909115 0.1535979036742716
20.373239079771388 61.03439313761472 0.17672847014188525
19.62761704039931 58.94888021763927 0.20255761323322258
19.561519153461635 58.89087727271968 0.14945918366369912
20.430785251839676 60.98011322790798 0.14809820366633514
20.40671972375041 60.88340145444545 0.15264746588548658
20.378912652685667 60.78532174373997 0.16194627506312656
20.354242093359517 60.688811193671526 0.16210052941457448
20.336661958699295 60.591776901151064 0.16683266017171924
20.31893037851965 60.54077629001659 0.18028947802532538
19.665380370227776 58.88818057511844 0.18598155206983155
19.648796476120516 58.869944401395315 0.16357830251015854
20.394158472867886 60.52471623452909 0.16267558100931714
20.36847471167624 60.525018076780725 0.17613121906575896
19.97476607880913 59.30430051052281 0.159257166738992
19.956477904003314 59.2601859980536 0.16334891193727813
19.722910551881426 58.84085561519223 0.1777238978363225
20.497452205531598 60.4937067579427 0.1587335521554218
20.031863672581796 59.294157658068826 0.1654987210910452
19.96237961783283 59.20808444617946 0.1557545593273522
19.947522705988142 59.14095668104234 0.16893529177782377
19.906238808963842 59.04624005393242 0.17985177513256415
19.876168531981854 58.951928447420904 0.17775011250010755
19.84918700549005 58.85049690247821 0.17208744118276198
20.59346494067635 60.46557827295451 0.1682974541060099
20.129265560655845 59.26515979358071 0.16222544381664886
20.641507238728142 60.4558394801884 0.20283451925201423
20.22646525966929 59.23837064864251 0.1729897895045891
20.30946230121365 59.21605971106284 0.18466919311379415
20.72073110229518 59.58038350843286 0.16893350405785465
20.69540828651288 59.50360879196408 0.18040453276090884
20.670624789329406 59.42697376348045 0.19353258191010086
20.80145924675322 59.64748161729546 0.16869434804820088
20.75436481124013 59.61519932947885 0.15472088021201458
20.712859587606758 59.47063724938744 0.14125643552477782
20.69578989782587 59.38658542976462 0.16502056803149848
20.72522250111435 59.3103862252297 0.1848321883709782
20.917112906410857 59.660678267518946 0.18910225338518316
20.758785705004673 59.23756365055943 0.17209109452434612
20.73493616812696 59.18097443185142 0.16425929237448045
20.80949620533496 59.21734564592234 0.14299995913406638
21.783425245729326 60.68253834764917 0.13785216110173312
21.846677558269224 60.65380634251973 0.14344828831447318
21.887988375582367 60.61086932240901 0.14883940770180767
22.05328968902717 60.57309243515552 0.16040936264051908
21.281833055146965 58.523726923458675 0.16792174779067087
22.10704236494372 60.54450886614895 0.16525306864651257
21.327176482381056 58.513110993216856 0.1712285961674361
22.214946858601166 60.522328131429944 0.17252027751366725
21.44258106443287 58.48327418929338 0.1795322098860578
22.324927603437356 60.501318669760735 0.179737431074979
21.531303747735812 58.463480242300506 0.18590322299019804
22.39335089889047 60.471425315854106 0.18532783602494587
21.662968174396646 58.430441453272024 0.1952592385631987
21.615482619762425 58.43715153535625 0.1917659279219458
21.710661998349384 58.41766095322096 0.19854509632507428
22.63880717018462 60.474355250802816 0.19815995888192334
21.815339657061724 58.38166529624747 0.20570169293260115
22.701239383258827 60.46190705404551 0.20219374919384797
23.9485889349902 60.15231873153081 0.11676003878013114
24.01070808795808 60.136156144514025 0.11888219964039692
24.10872930443972 60.11013959621517 0.12188457462972399
24.19862516129443 60.083689738016645 0.12475130674258147
24.266504272706264 60.06564658723174 0.12705204991573077
24.38214705668917 60.03787273505243 0.1304046564996653
24.51164076296227 60.00832631680763 0.13405884668220877
24.587240314242287 59.98809860038351 0.13658322221993485
24.660724614712734 59.96775383941984 0.1386817449509864
24.746170421582946 59.946439823003324 0.1414183412144451
24.845463353400447 59.923695947198865 0.14405260996636954
24.019535380086637 57.53599051170787 0.15869582936155416
24.983289961644534 59.88905088826082 0.1482282078051924
24.083307176439856 57.524153533999666 0.16095077332490115
25.098967173746033 59.85433204560479 0.15200836432557405
24.20190633442114 57.51649828634818 0.16492613390278257
25.21186431449071 59.828350723616914 0.1549799554377961
24.251813399267995 57.53547512808966 0.16701614602257328
25.338691669188137 59.801158059333446 0.15868542057458507
25.447431526041502 59.774875184107316 0.16158004975720403
25.556085398708895 59.747473798286066 0.16497103845548203
25.65851324957633 59.71842667239553 0.16783325653458192
25.782818538537104 59.6873962548935 0.17163243720289104
25.920934234992146 59.65496232030364 0.1752453526375889
26.045009967380793 59.622879986919536 0.17908605464376615
26.186912474649695 59.589504393445225 0.1827863057491523
26.326693157747346 59.555056236299734 0.1869979597260755
26.49808813813096 59.51611221170526 0.1914094050977539
26.657769687350665 59.45086445545115 0.1971237531733503
26.63222216459867 59.362867105480184 0.20011205549102068
26.601287766661258 59.274849874780635 0.20283222839428533
26.599337899847754 59.22284036327851 0.20487803670497312
26.577765821907768 59.17326137379415 0.20603462402471762
26.55690231139807 59.0855224418076 0.20866678001599825
26.536853287739387 58.998878773597966 0.21113037676861207
13.83205449074984 62.70139145314949 0.2894593136431572
13.814130204233724 62.68749575217068 0.2893657959898164
13.934732959546494 62.68370980751718 0.2860929735503243
13.145618543764336 60.50517697294187 0.31445869713594415
14.05816553875299 62.65361761611167 0.28157736475809386
13.254050994166128 60.47858705790659 0.3099410426745735
14.147106964869769 62.630252121239906 0.2780211087388044
13.344608236802435 60.453634678899846 0.30678323920477096
14.236053917053642 62.60682540540164 0.2748367104558042
14.292522086457808 62.59864958585882 0.2729174436508309
13.463200472924557 60.427388656343034 0.30175712963065854
14.41678568596601 62.5648400337312 0.2682953969262103
14.53749984058959 62.532589738063834 0.2638787095491292
13.716646877198396 60.37664963551132 0.2914734213043637
14.605744258399586 62.51621977533308 0.26129737012104765
14.705905885601206 62.4916131458552 0.25782548739006095
13.864698514201773 60.33365058719108 0.28599899349888946
14.804382363720412 62.46784240969719 0.25447401271465303
13.963787092086784 60.31199792697577 0.2822913591111126
14.908227663083217 62.43896777520066 0.25057256676825757
14.09464947979691 60.28136679377886 0.27713530077785764
15.027792663651528 62.409301665741864 0.24644379723655274
15.131062702306927 62.38690103727163 0.24314385989325288
14.30132899640195 60.241724401513906 0.26870382620374894
15.235304234208023 62.35379136100615 0.2390740149254536
14.384638517500267 60.21533797281182 0.2658649012722182
15.302191251373777 62.34165356727272 0.23723794585344904
14.510024514426462 60.18919825720965 0.2610493184932666
15.4022778980338 62.31867861280474 0.2341036790231823
14.63953249838152 60.164337313584205 0.2559571371381841
15.505454361594037 62.29071625946901 0.23060866395628155
14.695346213100724 60.14903232451413 0.2538474366834137
15.594586401742196 62.27004249715776 0.227894778740246
14.789115748009152 60.126195834622195 0.2505502707973296
15.694365340687792 62.24151186998094 0.22450918997341757
14.892023479202514 60.09702636531361 0.2471434997471761
15.793620990761047 62.21923824496451 0.2216905830513971
14.997107774578165 60.06981453512386 0.24354268350682534
15.901475325700549 62.18950618733672 0.21822347633619932
15.094383902956558 60.04317782098795 0.24035519707373632
15.192828890452136 60.01780595952698 0.23706121062103996
15.272442091708665 59.99354536793835 0.23472634656307934
15.367392933286045 59.96542721190341 0.23197857185553067
15.470526603389132 59.938785581651366 0.22869717095471942
15.560578141966564 59.912765215909985 0.22611532165529197
15.660427826847275 59.88856011951799 0.22298699650149634
15.736509569850465 59.864632106653595 0.22113804381857483
15.851331597617968 59.839837460167146 0.21737439664736657
15.922357827312412 59.818678489114816 0.21567898680694292
19.037706287059695 61.32074795512025 0.2494447363508756
19.096859049587586 61.3026119168822 0.2500588893901908
19.203820880615545 61.29659217709176 0.28173706145517374
19.164060798064742 61.28276733270227 0.24576090774651188
18.427485729831947 59.269309782231666 0.2229860215394071
19.262218762126217 61.27915284492697 0.292830184621898
19.296906204067383 61.24531309432305 0.2774950958419973
18.51010410095602 59.24024023948691 0.23519685771464321
18.52613251871221 59.18394671859588 0.25213076753366376
19.40002673609792 61.22830858832359 0.2509624213659647
19.37111802364462 61.21868962754436 0.2849325444857973
18.623180126208027 59.214711633156504 0.2453856484026466
19.484648377193906 61.201364110588585 0.25576630819916074
19.471745616695408 61.18180177277611 0.29055683579499575
18.711078503123616 59.18721101967863 0.24736807383544063
19.571080411055693 61.17615695023801 0.26546158518088137
19.533680404242524 61.16399579663244 0.30685678314692566
18.811068510265976 59.15601842971919 0.25903722544301677
19.675061606650015 61.14970355297586 0.2657717319036065
18.897784307594613 59.12516785670754 0.26856703230535967
19.769417588231512 61.12219280472866 0.26874097990082746
19.036297198105945 59.115208576883255 0.26919045798536356
19.000593020966917 59.10776358986127 0.2623609806995045
19.862474191388795 61.102831607194986 0.2607086573873952
19.09341678539236 59.0951206024609 0.3009945369938153
19.092222719887314 59.06738597067957 0.26392140010151677
19.96849063934299 61.07759743054273 0.27129299316905503
19.196120910851725 59.05720649115349 0.2596558463652259
19.17805041917432 59.04546308479088 0.270795956642801
20.061380804891673 61.05090505454037 0.26203899022049226
19.30051786087781 59.02752040606679 0.266149875674284
19.271720531123567 58.99504756647528 0.2490109054081544
20.185805810938483 61.04278269224882 0.25593807336230157
20.136993929404625 61.03074537564355 0.2779951474082952
19.384028726922356 59.00913408452048 0.26500807006457855
20.27943761633682 61.056991192833785 0.2724952830162023
19.48313692287191 58.981017554723124 0.26065379660681187
19.476019571646525 58.93812146500236 0.23284395568037264
20.385770493557555 61.0312755620179 0.2540705105389794
19.59999321790834 58.93334717932275 0.2441196927532483
20.42848901815524 60.97922646573151 0.25712773874209643
20.4032077772154 60.887529549119996 0.2568299468970819
20.37769591029237 60.79682243161236 0.25766275150830414
20.35469699659746 60.693014645869546 0.2587475523494942
20.336435593007455 60.60012746675402 0.26019309539925184
20.31873303202576 60.53981523475245 0.2614450260137148
20.396007179231788 60.52206596824949 0.2589201456961354
19.971525552663337 59.307214156246 0.2674951412691791
19.95469115590866 59.25061543907245 0.2689449779509969
19.793186570181714 58.842299751400766 0.2638092175232956
20.489501795471654 60.49342142213504 0.25664324712349396
20.03716488136565 59.29648812384024 0.26840089706844716
19.96325373124265 59.2164835041175 0.2677650404312578
19.940458914371007 59.13835675190243 0.2745263496712203
19.905923746921943 59.04647368722453 0.2733192423299256
19.875820292412648 58.948726496907675 0.2763278497021906
19.844889753236473 58.84703660669032 0.2766656793529577
20.589101879422135 60.4649568529031 0.27656380819315696
20.12635064244225 59.26916732199306 0.25621291581336625
20.64024566756546 60.448297199212845 0.2584339750967003
20.226196628509022 59.24038950699509 0.27446312065788403
20.313901479236904 59.21465502308952 0.2703670814319462
20.70990068170971 59.57855930070457 0.27137076370247626
20.684535307619512 59.49684293004258 0.2800515808859922
20.658780089560526 59.43296055336849 0.251617777812519
20.806940397876886 59.64299253821123 0.26324281808865213
20.760488851207178 59.61844975635661 0.2583409456649943
20.67869136023828 59.37920188857692 0.26587878355375794
20.70397952284212 59.29384987553397 0.26150523351795235
20.686820030464425 59.20781380509786 0.26155886557675045
20.939503876677247 59.64965743586345 0.2795930596084659
20.740400769252503 59.23938552631968 0.26775297433062084
20.70516909103025 59.182126291831764 0.26462302435478857
21.00291468201557 59.662491273613895 0.2870133503750223
21.75788607922195 60.63647845831362 0.23436399736262264
21.95314726407426 60.598617102594574 0.25409570666112846
22.059853376335433 60.57532326283107 0.26502433430988076
22.099474886439978 60.54970991956021 0.2702134933788424
21.335977094536386 58.50925303818198 0.2677499693682537
22.24117904936638 60.51596359107271 0.28476011329977075
21.447154895318654 58.47674436016029 0.2795125895516346
22.285399776533545 60.49902538329631 0.2896982238284499
21.538296582700315 58.45577903568704 0.2890876792524832
22.43038137144734 60.47604390792823 0.30388934128566353
21.631863619947858 58.42956524127963 0.29893866116101325
21.751294985481202 58.40112700374142 0.3113993331143261
21.6997422856974 58.40949958573901 0.3059841315584218
22.12932748125477 58.2445788969107 0.22673516030464602
22.198161558379795 58.230808740610456 0.2315120912788266
22.270564020706516 58.20774127942001 0.2364757048734087
23.65319999213533 60.357351094295865 0.25867468410939637
23.644311678466412 60.309921403387214 0.2609189326392551
23.672699480826275 60.2414049305334 0.26635891651474136
23.656278497575176 60.2175022838196 0.26676973869720993
23.806611853125798 60.188923399803656 0.27621318676862905
23.899765665183736 60.166098716913666 0.2824199375999534
23.990818359020828 60.14214974106973 0.2885658986003242
24.083710527341523 60.11621174320378 0.2947237450350876
24.17847963978477 60.089842782842574 0.3009883954625653
24.294077463110348 60.06267351105057 0.3085500532812172
24.38558058961622 60.03494668316307 0.3148721613573172
11.225712354102905 63.32817603837003 0.39247928379431973
11.204986842764134 63.24450660474573 0.390185430838179
11.160390667109915 63.12209459460366 0.3878953576508681
11.049923768094281 62.94769414059792 0.38725024454953183
11.008414810306542 62.86879425836208 0.38706066420377705
10.984627376679054 62.76964291182747 0.38601050945345333
10.962190603488303 62.67112263706323 0.3853515590681302
10.930461450764575 62.577055041321984 0.3854427446226476
10.909508362214437 62.475093641599024 0.3852078940009734
11.19943665115973 63.184880296369286 0.3886069533478146
11.183473453932963 63.16017161991376 0.3881095891837839
11.15379097379919 63.032761164794664 0.3856280763216339
11.139766778731381 62.9619735197437 0.3844328837431877
10.893258211025184 62.37563102907544 0.3851436115136648
10.860314800511409 62.27918346976676 0.3862184270865893
10.82647255530436 62.18396593271666 0.38765490642124684
10.808898671268151 62.083389941410864 0.38860878577696006
10.785368102530839 61.98437791386123 0.3901349484829388
10.756373604097202 61.88797443284 0.3923343715620056
10.767695955772183 61.812552116726806 0.392769668873288
11.432240044314028 63.30324123113151 0.38477214122179626
10.809503048849887 61.746127235557715 0.3915072185039661
10.790467556017544 61.66049885097058 0.3938193649950734
10.759921012426272 61.56532342372891 0.3972165006123249
10.731000453351633 61.469018684647516 0.40090235421721765
10.718728987661262 61.41272891396971 0.403232061130464
10.683263835177241 61.31603959777705 0.4076181419066446
10.714271111207317 61.369734971773674 0.4044846434891474
10.690215631170203 61.256885566211615 0.4091294992226313
10.657809079560101 61.188409274202975 0.4129891727378
10.787632588857603 61.08609553341458 0.40997340339993826
10.762792962444264 61.03170882166138 0.41355283846667285
11.668045938537382 63.23535036049568 0.3750557622787651
11.846562045889023 63.19067178686004 0.36753960240565403
12.008310577462503 63.15234328453569 0.36131923250528764
12.151027763445754 63.120004157223946 0.3554431211464012
12.291400990288983 63.08714110716612 0.35011943634269305
12.436978951760516 63.05090547730237 0.34404757564248106
12.582220777069743 63.01377795022782 0.3384361326080154
12.757868361432315 62.96114604748096 0.3308305930280467
12.853347011395318 62.9948341294878 0.32968478422727776
12.024635208448899 60.796093234967564 0.3584884196736549
12.123833117095142 60.76268101169133 0.3551369307748395
12.280900693024307 60.72474382942421 0.3484388019971265
12.418215572626746 60.68963413113283 0.34323979594703524
12.54973883490128 60.655899275008395 0.3377218421529599
12.681394387078747 60.62331360492113 0.332730216043598
12.7933277252145 60.593411551950766 0.3281010839720124
12.917285907446658 60.563038183230944 0.3234256599084311
13.037369899611342 60.533084395082 0.31841287697369486
19.414392876516036 61.21556102401352 0.3223871566176689
19.40720961514552 61.20558731768197 0.31816023338155314
19.48680912581722 61.19224052920985 0.34040372358270066
19.461735593346155 61.18879216770803 0.331685211093992
19.580326987795367 61.16422409496132 0.3504470680289508
19.56315801520775 61.153746223878024 0.3292449950976181
19.67230100687987 61.14273781483795 0.3630050366279777
18.9421384561524 59.12189842315463 0.317657423072647
19.768968870707425 61.11862596981723 0.35807285352389434
19.04593527025542 59.10899270379158 0.33993380062679784
18.996793520116928 59.11171071415766 0.3302339753073545
19.87030710183295 61.09719227330815 0.3556335700469684
19.115541113757526 59.08809749106525 0.3444851961784328
19.090643910203198 59.08597236409741 0.34724656456004066
19.95950677732933 61.07436365304488 0.3615544540309251
19.204402865306587 59.06550139835275 0.36150300337789737
20.115871573318987 61.05667123135612 0.4048669786462415
20.056180074444224 61.050934668650854 0.3570581040754219
19.29157414447291 59.04042851130853 0.36399829347405827
20.180029419754998 61.0448291129261 0.35701992817970735
20.13243038235656 61.03087734283687 0.35189892827016084
19.390637955153494 59.01171430113567 0.3608532757773034
20.28258563583441 61.067293543951536 0.376394498405443
19.469815273071024 58.9853434186046 0.35649665875273917
20.43467443818551 61.042885178757075 0.40127418772018597
20.382085778379775 61.03705327315764 0.3543550784408794
20.43104915941836 60.981853060024434 0.3744415918516264
20.407402796652875 60.88524989605942 0.37071415910571925
20.380878719840165 60.79285341153685 0.3600420819747009
20.35742741454109 60.69255685115063 0.35730525661643764
20.33305359588062 60.58972026189211 0.35476539481848784
20.31988580553072 60.54025721210715 0.3419050848318839
20.410592206059988 60.521017920757956 0.3639523663138279
20.418770646147124 60.507495656095834 0.318279693792917
19.97624570076662 59.30365181816904 0.36160896874344617
19.960496499523074 59.252752850976 0.3517451257468734
19.784745429153933 58.847548741093135 0.37873628145254895
20.490675636219205 60.49568392686766 0.3600558862507323
20.03158091001713 59.29303158842129 0.3693606700535499
19.961459204510454 59.22569464052612 0.3710954110975339
19.947381662783112 59.13227443766475 0.36885307162150216
19.9139970418499 59.04409064500125 0.37512800983110617
19.88763305739214 58.94549672920631 0.3799827045864315
19.848811118095863 58.8430128531803 0.37967919686648766
19.814844263387066 58.811983388375175 0.35481836357061086
20.57183423601546 60.475119542642965 0.3843182834843096
20.132306135856602 59.26702295060666 0.35551736431444964
20.227150056698136 59.24002051786198 0.3772463137166696
20.32024505496961 59.216255983403755 0.35323421939813193
20.732925440592894 59.595960743051734 0.3464096624834732
20.68669565986957 59.480411400476605 0.3746651270822644
20.67770152408622 59.43971218362434 0.37533150671781224
20.8057570889744 59.640956540885384 0.3530133687946454
20.74316580252639 59.58032504044488 0.3656245312484688
20.707807702278217 59.49780776320113 0.3610118575034949
20.696389008654084 59.38224434053073 0.3513291926167915
20.694758429850367 59.26562933012561 0.36035691926100005
20.680959382081543 59.21204658162227 0.35362825002383225
20.936391015098383 59.698266329090096 0.3816171407184357
20.911166090250425 59.65772616282807 0.38010700205732595
20.743432325075712 59.26872496490908 0.3605891249204872
20.696935532909038 59.17891133204618 0.36169062272925817
21.70348809034423 60.66328014698259 0.367833594385831
21.716793956992248 60.64408020823364 0.3237316077269352
21.917589674758904 60.603917971699275 0.3508826906861636
22.116380088327734 60.55317370181681 0.37835397400253296
21.332053295955255 58.502860934737825 0.36385649564550576
21.435613694673563 58.481809373739246 0.3782102419794735
21.543483398388734 58.45548229356391 0.39325349516055746
21.605254154450176 58.43834356272446 0.40182699703028
22.649827102786297 60.47573404898489 0.3231470954496627
21.806544453107204 58.391399873008815 0.3170643992989038
22.695811717566883 60.45531351440602 0.3284180411314616
22.099763575278054 58.25351123125836 0.34790758832531515
22.22553942836691 58.21869473505035 0.36092427251247705
22.161006328166614 58.237117794118745 0.35430743579993784
22.3041002514721 58.20060984710843 0.36900807621624354
24.47508529190335 60.014997567548996 0.3203922977739294
24.55257094452691 59.99486586689217 0.32566728088056546
24.68558752341248 59.96353037887343 0.3341217928007267
24.810440189694603 59.93071920329765 0.34219771910610153
24.89757598576827 59.90800794504874 0.3480933606279971
24.992583986479374 59.8847038936113 0.35401206879289854
24.071528948952476 57.54028410672403 0.35566321861644146
25.09949261021743 59.86008520031887 0.36102869228499723
25.198271481434478 59.834736689567926 0.36721614307679956
25.30098339100576 59.80887442654638 0.374069667292613
25.415559832086316 59.78238254945998 0.38112778028394256
25.52404517349944 59.75492993308075 0.38835615247026134
25.644273140677473 59.724876704217266 0.395836765249044
25.760420551681893 59.69442902797429 0.4035865530176848
25.876431382056857 59.663527375031656 0.4108628279194554
31.243620735765823 58.205669959393106 0.32538966341104564
31.21581101723475 58.145937355052844 0.32686695753434203
31.197998129463073 58.0632599704568 0.3289203836980273
31.166280725863295 57.96297080923863 0.3311750410793085
31.143478352972153 57.882260163422835 0.3325718312044648
33.805555615830286 57.282591852273235 0.4012511870617146
10.656045175121005 61.13050938174519 0.41536313467581387
10.750093769593589 60.9615165138576 0.4169471738637577
19.72849906690793 61.16878932255395 0.42108140764602864
19.776984925783914 61.1414745900933 0.4350331727545658
19.887076380153925 61.14443057240701 0.4289875723879232
19.87118633652806 61.09528088312939 0.44622001344235773
20.008777401253653 61.11978849850318 0.4409807258760646
19.96325661619461 61.06574488924523 0.4757664915125769
20.072214383242052 61.08568264009471 0.45182471630396215
20.054585305912678 61.0448999238473 0.46238331385263076
19.322656530853408 59.042289681003886 0.42322098494432997
20.16427758189969 61.069014217952585 0.4409242097491384
20.12532458058704 61.02545000073179 0.47199158197537516
19.39373249411218 59.01642568358875 0.4367135597505192
19.424034462759433 58.95826274680659 0.476912817188633
20.295390673546606 61.06409066795923 0.4603259483570943
19.479829373528993 58.99024940430804 0.4665709147958569
19.439856372256973 58.94720062569815 0.48477228895139646
20.378089651629832 61.0419936953933 0.46877454872761826
19.551582726108837 58.982940362449824 0.5058170080226725
20.4357496509786 61.042444770825014 0.46153303219041997
20.43150803971766 60.97816078253403 0.4699084544414781
20.40724101404425 60.88340306304495 0.47709772688563934
20.38021232924447 60.788074287029 0.47040913457000544
20.361586372651875 60.69085136948262 0.46300815076945023
20.33126084556071 60.58748891156345 0.44795033121481664
20.31002543992581 60.54280414414593 0.46785208585504057
20.418337821294426 60.51710794075401 0.4549567344389469
20.37661776161952 60.52120755188279 0.5082621329257858
19.971830907304064 59.30912130645106 0.4669013079223385
19.95568434814086 59.248820572887254 0.44782639785170575
19.79711883318463 58.83312648516953 0.488522313899591
20.48982942866221 60.49608255496233 0.4662296354439036
20.034599244153164 59.29401283753137 0.4697830579844988
19.96393759293542 59.23251997867398 0.4733235684532593
19.94411114067834 59.13275052575175 0.4671080019727365
19.912240261731743 59.04314096972072 0.47401786644022503
19.885404304087412 58.95340416951399 0.4815123075668353
19.85095487382201 58.8439117329585 0.45332192386950243
20.595409828429247 60.470182055983784 0.4629785081019444
20.130590152286953 59.26877448632221 0.45811173231335145
20.643016260086963 60.453684389796535 0.45226208795606815
20.226310528308435 59.2391045929692 0.4706787602294774
20.305697369750646 59.216674044901545 0.45362392820426545
20.71515373408105 59.55292664035742 0.45870506861822646
20.70037567792537 59.52715084030447 0.44400536371501154
20.787364399627585 59.638077594042514 0.4699412469869668
20.753515501880408 59.582778023645886 0.4763842520902386
20.715864856500918 59.4743710408129 0.48275410248771045
20.70520072577989 59.39103911883737 0.4739419247823735
20.689378655781432 59.27434227427848 0.4564882260520605
20.662528792651006 59.22400280179602 0.4502464506634374
20.918176775146357 59.709746483569496 0.4737988381387709
20.911305009032453 59.652072178549616 0.4759973025531934
20.7455268621653 59.32344622893223 0.4613929722246035
20.73824992829668 59.30613952390559 0.46105847093391994
20.707426262647267 59.183424200866476 0.4636267147376314
21.009605475887277 59.722606421935005 0.4235966681403335
21.671459697908578 60.658207392095235 0.5038037215899717
21.759840749761338 60.65459301932337 0.42421384715419086
21.71535473487498 60.64205789774165 0.4648909305703449
21.90905153366254 60.603739943431194 0.4505671882691116
22.050247274755876 60.576038236240436 0.47443237574916985
22.10551100329818 60.55248955756592 0.4843961012086466
21.337268392276112 58.50153652124048 0.46210546753960813
22.224337038882382 60.520507357955324 0.5049372701445208
21.441739958730082 58.47412703495714 0.48033301923431293
21.546010376133523 58.45084890768819 0.4983378973339536
22.46739573173339 60.5127154952132 0.423882056404561
21.614321514813895 58.435783470437514 0.5101632072793597
22.482767131596937 60.47667434903341 0.4278383873863724
22.654461405708084 60.47647253225942 0.44887639754678377
22.695740784550587 60.46170713879797 0.4548492652716445
21.875277499755363 58.351501687662214 0.439839936760705
21.87951819606442 58.30773075086462 0.44142614012298664
22.08691053021656 58.252063057207586 0.4702175066731017
22.230567232463287 58.21316227604792 0.49018576063301067
22.165411595365768 58.232013618861856 0.48107483999896106
22.25568271406412 58.21261241981461 0.49338533343617796
23.639740714390925 60.31328106798956 0.41931063264150736
23.6716707754976 60.24771702010213 0.42578538178838055
23.66325120730116 60.22382690656471 0.4262963275551362
23.812307989212975 60.18720560702075 0.4414118071413856
23.911158253325873 60.16433065838854 0.4512140676612272
23.98497179797517 60.14819578599688 0.4587009026401342
24.079618458546776 60.12227546092788 0.468271494753991
24.19797550271082 60.08697303632311 0.4804918439849172
24.319206184174927 60.05970739747781 0.49243756756624457
24.39463454968458 60.040776058448 0.5002061539178185
24.498643999609783 60.01119766343889 0.5107451967590466
26.020248037138877 59.63026762379847 0.4202013699555066
26.163948764970804 59.59681488212071 0.42903527727658736
26.317447774581634 59.56124721260447 0.4389830135601561
26.4706867179888 59.523773507345076 0.44845698356929753
26.647341411607215 59.45702058989484 0.46088742515786507
26.631822729437168 59.36763491348407 0.46385760313224067
26.599941465770314 59.26163007769051 0.46649403156465263
26.582216457409064 59.20240384257106 0.4678322859155707
26.615216211461387 59.27740410229479 0.4668588204732391
26.578284314715077 59.150441885526774 0.4698328496343126
26.553419971339547 59.07601193972135 0.4712562531636715
26.54437775239775 59.00017174588676 0.4736747444981002
35.866464731630735 56.70784860638601 0.45772582895869207
37.51349056685014 56.501555365605604 0.4962043882546615
37.454128479134 56.31872771463183 0.49866724569745124
37.439113341597604 56.22296381935664 0.5008826104645687
37.406939385048155 56.09780452643946 0.5029559180830789
37.393753357587784 56.0015526604832 0.5050597800211455
37.365421449380314 55.908873694320036 0.5059470403153388
37.32926652124877 55.81976663671366 0.5065466074405177
37.32242650443104 55.756355471949746 0.508329548225999
20.056886629358345 61.03804908520124 0.5373251891908828
20.205119579692248 61.050637022858965 0.5718102788474058
20.13996288097535 61.027045075796444 0.5528865449733668
20.289152272448263 61.05879106519996 0.5581483910834818
20.38395767314993 61.04013919533528 0.5637602892773009
20.434540190785295 60.99318233545493 0.5572807583697773
20.406858303222425 60.890349072885165 0.5664264634065589
20.382455069090508 60.79183224980036 0.5794334075849337
20.354572355632655 60.69582252778102 0.5658771793726971
20.32661031733933 60.60128992043374 0.5504152597004245
20.300142630403553 60.545581024428955 0.5467114296064117
20.409430418444522 60.517540542741806 0.5609686090840501
20.35877078772742 60.529451162176606 0.6076998572925443
19.97230401049516 59.312308011974494 0.5573003265053118
19.950000596355682 59.247873553411985 0.5462515241020626
19.938145631782238 59.18818855611675 0.5794753832636821
19.78628273875455 58.854780860362546 0.5688860682867033
20.489191579943505 60.495753878650966 0.5702161336592866
20.04086127762531 59.300690208876674 0.5636510544036694
19.95072766521476 59.206980190766146 0.5414631385654096
19.937105876663455 59.13398427992181 0.5655024209003713
19.908092348900198 59.04320649608159 0.5790097423280514
19.88192231875578 58.94675764151192 0.5619292050730371
19.85175770984872 58.85040152803878 0.5508062741152004
20.59717696494956 60.4681683477266 0.5629972645074478
20.14014657653435 59.26946971800661 0.5615431979524743
20.64318359802366 60.451426659533425 0.567709129275137
20.22996832667549 59.24087330815128 0.5580510640536473
20.30535536727287 59.220581294733634 0.570528668474898
20.81442215430874 59.641996151076526 0.5624669599141624
20.759814857899972 59.576030440636444 0.5718604062681468
20.72100796861476 59.48358328308604 0.572945456742332
20.710649602167344 59.37635041150954 0.5667327547963278
20.691013484294793 59.27721369158976 0.556974043007504
20.68337016770911 59.21742158684232 0.5392607282679117
20.92330925041908 59.70266437509242 0.5689767191254338
20.90257511274616 59.66187647830607 0.573100660220685
20.747608510310553 59.30143825641224 0.5309961845852894
21.740937447156288 60.6545001876732 0.5659289115620045
21.738661360342952 60.62433200938215 0.5183896469284157
21.925483858503224 60.589356035239334 0.5562800747240679
22.11912680128633 60.54619543573087 0.5958975450558748
21.341800805699762 58.50225890925296 0.561567753641982
22.181542649638118 60.5336348177445 0.6085637827252312
21.424003199133775 58.485087340315246 0.5785200018812974
22.29532200570278 60.501176480400105 0.517260172414991
21.521152103756915 58.46030500589784 0.5988408801709917
22.397930816961658 60.49056599404597 0.5340736707859987
21.637989377432714 58.42791518296934 0.5500766281503711
21.75237581974011 58.40184024869221 0.5340451114629374
21.72198619332117 58.402024544693056 0.5290456951502591
22.63340606698958 60.48079197431306 0.5717592577014214
21.79610338082319 58.39332909731484 0.5415736433233046
22.706095696596982 60.4564068615813 0.5846357332626289
22.096907622964324 58.250687256530334 0.5965996335179786
22.159267557335205 58.23344957963572 0.6074138098337396
23.643179016743396 60.30756366981601 0.5797629996570566
23.68488560784089 60.25449480675861 0.5878336886641587
23.67167402200847 60.22235957688216 0.5879648687648609
23.80116107738987 60.19322930261247 0.6054394548247531
24.602516227542658 59.981115175987654 0.521288303266438
24.687600927618877 59.95988796806266 0.5300136959529117
24.77854796689829 59.937578577611255 0.5389052165063601
24.69771845109033 59.863212667575084 0.5355859821912665
24.861465809790506 59.915139853335255 0.5475030809170203
24.818145247898908 59.83825989402336 0.547571244491143
24.922393038551064 59.89324465422069 0.5537367479495329
24.098044606878254 57.51508423633321 0.5543939249010182
25.465014415825667 59.77463677246656 0.6072499436177748
20.22731415067687 61.063060259344276 0.6184585168375444
20.289647837166818 61.062539278452974 0.6476995884031613
20.38933432359702 61.03192072105942 0.6659834327823358
20.423823981601913 60.97376998776067 0.6686348734029786
20.402353161639663 60.88559500852352 0.655163963661805
20.37738700320434 60.78988808709731 0.6635017182852914
20.352335393638732 60.69147509537589 0.6488206296075585
20.32386590197794 60.60026662306315 0.6303653678447652
20.409534108484152 60.516319950529834 0.6302301742035528
20.402144469082444 60.51184458700037 0.6267709407083412
19.790521520021112 58.84852364815982 0.6218631551909959
20.502350259459927 60.49123615743199 0.6567642217119816
19.876608050008365 58.94330706560288 0.6236686429060163
19.844215175377713 58.852281552197006 0.6387064590458778
20.595730356574094 60.47164218945045 0.6656986755396639
20.135049425255016 59.2712042804301 0.6370420094547216
20.63853926754637 60.445874697896436 0.6693219584381798
20.2355573509548 59.24509700225777 0.6615600245253919
20.31056358457091 59.22014312291287 0.6587919680880094
20.420725540623764 59.18434742359294 0.7079026006149846
20.692623550776595 59.4759478747412 0.6308549565855078
20.82630549019772 59.652794681247414 0.6573484879360038
20.759856961026593 59.568395085222896 0.6570895961673835
20.71855749859993 59.48361934757592 0.6729653852949211
20.691492091132073 59.388718633784585 0.6715775236069463
20.679762994604065 59.293625697238845 0.6580069968063037
20.924787105546542 59.703209286545594 0.6681581351495864
21.045711387832448 59.70744992013823 0.6508918424549791
21.726889448016173 60.6402767323409 0.6678628638810995
21.937416051866993 60.59264434830299 0.6624046977276997
22.025346387891418 60.565050701978144 0.6838180165765579
21.29095354574498 58.51820325596193 0.6489319424494936
22.079074452534186 60.546780365375064 0.6969391242999958
