ply
format ascii 1.0
element vertex 836
property float x
property float y
property float z
end_header
27.51033816225827 56.72579600649513 -0.2708862108846437
27.519624681864897 56.70554916161417 -0.2259915200701931
28.505277202134327 59.03916958838832 -0.2380669271042069
27.61072759288947 56.69304474520475 -0.24850012984358025
27.612840436074038 56.6735261445697 -0.21608497550884528
28.60227036362094 59.01482898505919 -0.25945401043834293
27.70323857359348 56.668749819063216 -0.24279763119629666
27.68359460368581 56.64762146902066 -0.20928814080327188
28.699475000625817 58.9836664072228 -0.2707021255742389
27.80943415027604 56.64442288015438 -0.2732253244389346
28.797226311117626 58.96934089282194 -0.27079486569320294
27.90340774310379 56.612133484389446 -0.2615089486604215
28.89620566125803 58.93723297255107 -0.26063607471042344
28.00756727064198 56.59751307743695 -0.24849558058713078
29.035504658557773 58.919248640517026 -0.2351832245235679
28.990858917616993 58.91258144475352 -0.2576896961601767
28.09894493632512 56.56606057215509 -0.24012041081547122
29.114719246384187 58.892755985017914 -0.25733181999607907
29.070984178466553 58.88972101046603 -0.254434322529711
28.191517073706795 56.52751059361354 -0.23736046936437885
29.189324607383416 58.86761815183374 -0.25564023848854744
29.204919567970922 58.84758529313294 -0.2519082799396128
28.327072669723393 56.51703829924682 -0.24628065183864992
28.276117815160056 56.50053791751532 -0.22929238408180752
29.285788534667233 58.83650997231132 -0.25601741265368116
28.38937365646135 56.49605675713256 -0.24485490455496212
28.37935239785438 56.46764545353957 -0.21123669950675497
29.380953511325743 58.81025186058979 -0.2575537814923625
28.483222942638623 56.46238268244544 -0.24494717569055388
28.486997923273904 56.43636073092062 -0.2210168543265934
29.478225057833463 58.785923873642055 -0.2638127344175113
28.584483139094257 56.43479045481193 -0.2452406545244802
28.527123963951322 56.425639550425544 -0.2284297753495286
29.57675841965272 58.761366208100256 -0.27033563342955214
28.740293441719405 56.519326106502525 -0.21624585304215735
28.6756983707503 56.42239839353892 -0.24235221871384477
28.64484818722073 56.38133440221244 -0.2108282692805161
29.671449357227544 58.73702195277207 -0.27377385597832626
29.771298660728785 58.71141903663 -0.2370826668841554
28.967619469006486 56.55182240752556 -0.2082080452341209
29.869984596583524 58.68752315015608 -0.24771398851575893
29.04368884514836 56.536232891190004 -0.21567578263643877
29.982015780246606 58.664840508568346 -0.2724661177218125
29.958339934458774 58.662551490718684 -0.24945323808007624
29.163127096773643 56.51413409508487 -0.2294334786753162
29.137002224265036 56.51285807141516 -0.2278258270956472
30.065156997116723 58.63704995853883 -0.27268403171335354
30.045660675080416 58.634847690452986 -0.2585896822613879
29.25309350008347 56.49059653754469 -0.24156254346165257
29.208339617701462 56.49044970740059 -0.2395097675739097
30.16107041921408 58.609302689313665 -0.25524299290588714
29.341258008521955 56.46430098951957 -0.23650925536067133
30.266504012012923 58.582813612319725 -0.24972692457461396
29.434836422081716 56.436180832036946 -0.25580208577485003
30.35671056827939 58.55791015642039 -0.24924532772095753
29.53565237866624 56.4077668931159 -0.26903145844470044
30.453999438220897 58.537644556774595 -0.2670122616687485
29.76450325212591 56.611213166179354 -0.2653595591785569
29.752203575917484 56.57477308512524 -0.2695895843045734
29.7112528847945 56.45608892874357 -0.24364224707982776
29.632596633895144 56.389240908905144 -0.2410964143019818
30.54407159364758 58.51346944087112 -0.2548944044045438
29.824729098424015 56.5947492248993 -0.2513009682898294
29.748357695405105 56.529699118221316 -0.24263207187663155
29.726707217546135 56.46360350777057 -0.23478166043107568
29.70772841583909 56.373692824558795 -0.25549093246039595
30.645153788730294 58.48562473035778 -0.2582482315617552
29.921624025040785 56.56666369572526 -0.2538386893801232
30.784340155893798 58.4716083898144 -0.2791255846402569
30.728539984554306 58.47517519192522 -0.27055778008792175
30.011753049155267 56.543883935098336 -0.26707616301548004
30.84687796951266 58.44877605145089 -0.25026119994324314
30.12664159218392 56.5262427923446 -0.2450884852888213
30.938391403784365 58.4178130458615 -0.25399363240890427
30.187843839114002 56.51646638442308 -0.25159658505666693
31.03805498956186 58.39415203563739 -0.23500978870774455
30.301545296343903 56.46742495635712 -0.26613224449730694
31.134866933518428 58.37108021439777 -0.24676883064342914
30.40759996217781 56.442477403893236 -0.2562283314961604
31.23271156394719 58.344231372774125 -0.2586835614314811
30.548674493177824 56.41386879911146 -0.20766723139039445
30.498237957704305 56.4210845333732 -0.27150761759076925
31.337137973526275 58.29412510999382 -0.27574383178029016
31.32760434741225 58.2044416142342 -0.2737363415841541
31.29013562132276 58.106695810325895 -0.26617155557183736
31.2712767252206 58.03541902039232 -0.26208745170137127
30.599127663352117 56.39825572278729 -0.24638139933901718
30.558979198933315 56.40661796603883 -0.28181326068649004
31.28064675125122 57.9967129979739 -0.2626925486007142
31.258532939755426 57.90577704305872 -0.258257255415977
31.25118971437284 57.83855313462817 -0.25648270900600645
30.677539975826644 56.38009682586674 -0.25930677961150467
31.33066423493639 57.80835542084037 -0.26734553295748475
30.889583333962065 56.55038663579943 -0.2402392473547079
30.864639620117277 56.45314427184674 -0.24325572235281376
30.846325031297688 56.36235840775618 -0.2471371740394816
30.99235105666022 56.57284610100363 -0.2520032879621721
30.84735139127099 56.338634112691544 -0.24892316501589096
32.93177299997357 57.91233601867255 -0.20714547549028225
32.98517551714333 57.895249894304385 -0.21086957640090928
33.08578298014135 57.87415276127482 -0.21789957916631988
33.180337589386234 57.85086919269947 -0.22451902531891701
33.27179417935839 57.82588717753731 -0.23093462693240194
33.38006383150487 57.8001045322625 -0.23853707735005283
33.48414553345191 57.773726251393704 -0.24586033662846166
33.56882555378585 57.7534495785789 -0.2518193714429551
33.67238264547585 57.73239959887652 -0.2591147291303619
33.776067585681055 57.70162357183443 -0.2664501431309407
33.882393818824056 57.67819458838332 -0.27396176098011993
33.952516788219036 57.661911939084696 -0.278911324688097
34.0219207721101 57.60201517815935 -0.2839998919081614
33.979806164377194 57.505241880244995 -0.2814984061163979
33.96304307767276 57.417783369458924 -0.2808100863954722
33.941910420669934 57.31357006073828 -0.28001638634396286
33.97167870843479 57.20707458336842 -0.28290363297007015
34.1758922701963 57.2095578176013 -0.2971469933694031
34.1841566129116 57.20021292475025 -0.2977983576724083
33.56331786422378 55.39861176827835 -0.28702255313553937
33.63952186188466 55.38273265863876 -0.2923898315112978
33.726713206849 55.36213816580531 -0.298619944946681
33.817874710756136 55.3408821902734 -0.30510920563080113
37.672791297593086 56.744560382712905 -0.23689677237772072
37.65373802390215 56.65508233901162 -0.23678210118441984
37.602878959843025 56.413990924255074 -0.23658515665065769
37.582708129650904 56.35551728203044 -0.23626879028645936
37.55415384301972 56.248612066262794 -0.2360260756661362
37.563873987312874 56.267734136951105 -0.23621634126932567
37.53032916629233 56.14965735740899 -0.23590592049413933
37.50113287269673 56.06183774330883 -0.2355323118806688
37.47989545198323 55.95852871793365 -0.23557975652915805
37.458166454841106 55.855537945241906 -0.23562886000094943
37.43271338383803 55.768558605876514 -0.23543480077050008
37.41009485087232 55.665089955440905 -0.23549988277031333
37.39486001776912 55.58935374261747 -0.2356116968109767
38.179155930004725 55.37104748021617 -0.2644552968524682
38.1485114715478 55.27873746841552 -0.26421020026005
38.18137204404969 55.33728948955727 -0.26483796698898043
38.15315507427529 55.27703606144628 -0.2643656539892888
38.13134469798845 55.17890696024641 -0.2644836707545954
38.098806353667044 55.08487227828403 -0.26419734165031167
38.07737861624832 54.987372114758074 -0.26435397349815654
38.0563944103055 54.89038708001338 -0.26452681831621283
38.02462908016455 54.795777673163954 -0.26433967439291606
38.01027888831172 54.71330485547773 -0.26463698932053475
21.50200778168704 60.819590461915666 -0.20307886827757246
21.65803422343164 60.78203606228191 -0.1978513065939252
21.828405622927217 60.73725297310675 -0.19199668940348902
21.981725933779135 60.69803423872317 -0.18683085596179866
22.116172075063773 60.665484891373865 -0.1822627449971828
22.25230557320321 60.631487785588256 -0.1777029913891609
22.39365742025619 60.594389076152396 -0.17286118376354254
22.52759265274563 60.55997204629813 -0.16836508486834256
22.6576719247234 60.526652412522104 -0.16393071208183818
22.89628217265189 60.55613806945156 -0.15761118595965262
22.838193594965293 60.48035012615415 -0.1578562778223484
27.143995478357958 60.415261702667244 -0.176438418253425
27.098101428695156 60.34644881680004 -0.1730485908123839
27.07428493358838 60.24921710195461 -0.1671856353371546
27.03669500661552 60.15717720384494 -0.16227635851403155
27.253899818902976 60.462719864714686 -0.1767769720150468
27.20199888057083 60.420735189453836 -0.17520674652798363
27.154141299375844 60.3461677340511 -0.17136844613246685
27.063331229989398 60.12989219435582 -0.1595736529898435
27.04175716550914 60.04270273809359 -0.1546021500218096
27.0160008793996 59.95138696628132 -0.1496437450915168
27.000951130811462 59.85422564095461 -0.14407691994898897
27.317695125186997 60.45122692240941 -0.17433985702652077
27.277221565010787 60.40710470561364 -0.17223223511025404
26.93086706013137 59.42866468617575 -0.12188777360101266
26.88787076286197 59.359131087957515 -0.12010822077519848
26.85987393214323 59.26602590148182 -0.11658630059074125
26.844302360356824 59.173723924855054 -0.16199288668702672
27.412712225594703 60.35059056508654 -0.1647938117414402
27.12399697187964 59.64873551660962 -0.12657554813148625
27.046470310147097 59.407081980754114 -0.1498940801193195
27.20211254643492 59.41055381816547 -0.15338452184274787
27.14687139487781 59.38847130919568 -0.1547954850027004
26.381251327488233 57.403533413686155 -0.19482669647623768
26.358031334359115 57.31644961132761 -0.15302834642566643
26.340059146593138 57.248828061526 -0.15059814176348957
27.261452061603386 59.41456937966604 -0.16501409827334523
27.18904820454928 59.36223586665249 -0.10669477791679505
26.403513318241952 57.22169987504621 -0.16545137916839506
27.17681048714523 58.80779574252813 -0.1534031101765403
27.1521761332832 58.76103316333953 -0.1523280794226227
26.515509021075722 57.20435369797032 -0.1843524699119573
26.516229471556194 57.193505184774736 -0.18454082337435856
27.50151186279441 59.37188333097639 -0.1758406835814573
27.20365192405516 58.80662136290264 -0.1511071355272819
26.614984366159668 57.17034105212607 -0.17492993408024382
27.53944625185176 59.40111024654303 -0.17640096496107022
27.288936062634267 58.631499327614925 -0.16037827210840735
27.268573774524594 58.57290294637475 -0.1630747989908607
27.206462280017732 58.530793383352915 -0.13376409374289186
26.709863064133526 57.146804164087115 -0.16581613410780882
27.624188451535282 59.340344983383986 -0.1660092407278681
26.804565973601193 57.122577193754914 -0.15682894238055956
26.907857980956276 57.097232431091896 -0.14711243306194977
27.0191314015354 57.07018956638809 -0.15753464872216494
27.10392463499764 57.04719266449088 -0.1649444572960041
28.04428857082586 59.22835737188107 -0.17401149574748576
27.195736243239534 57.02464365917675 -0.15091972334283565
28.1003528429018 59.187820761810606 -0.165459903371621
28.15437953998137 59.11752840887368 -0.14982035369373306
27.32805528987217 57.0141963153257 -0.13627080151350718
27.25941605736682 57.01774244457288 -0.14604620168508936
28.209500158278413 59.10380459745897 -0.14577248514168684
27.359818788382665 56.99086162697081 -0.15561322079445083
27.355357914157914 56.93153169801853 -0.13967732585422876
27.332276296405357 56.824147939085286 -0.1527316915001474
27.33842437851955 56.772442702289084 -0.13793162140004955
28.338545669334632 59.07781118533162 -0.13775731685290793
28.30201638891409 59.07784394448862 -0.13902308809104405
27.426816485414264 56.756788713584676 -0.14065388068440274
27.463178075968266 56.72926194890712 -0.11148694224141625
28.410425838986143 59.051919643540906 -0.16011406617876794
28.369745698555228 59.058311509263845 -0.1511566835750795
27.941918075763652 57.71758384518968 -0.15624143194514822
27.509108073286356 56.71844922947561 -0.15232828002576837
27.495341188353024 56.711980829666125 -0.14519336419920503
28.502696676423728 59.02558344631348 -0.1564593424851786
27.954899169028188 57.7122156961758 -0.1530773856647442
27.931103893600895 57.56349825232099 -0.13805272162802384
27.611721748980955 56.68421892084143 -0.15819289151578275
27.576025324560607 56.68521972664485 -0.1621117832944653
28.601829517374092 59.00548488137069 -0.17476940585817904
27.71396668324066 56.65334951242345 -0.16884376030825804
28.69726240842116 58.98026037176906 -0.16746067913867102
27.790965675015855 56.62404214612362 -0.1794855662819314
28.79895907564309 58.96721063227339 -0.16738342342466192
27.902363001764126 56.60517061702451 -0.18637037925090277
28.898432740237382 58.93701305191497 -0.1610238463605979
28.033061454819308 56.622939631348395 -0.12154531607667196
28.014927059642027 56.59977027570833 -0.15452647054890012
28.98927059833292 58.90406599349621 -0.15789077996527573
28.09943216568955 56.56529396569321 -0.1464841317463066
29.12598631378195 58.88679660300888 -0.17271087670542853
29.073709216829624 58.88305511116679 -0.15546510972088923
28.185285816660343 56.51676897755165 -0.14545225210207963
29.199239876427995 58.86676086519476 -0.1710569636730296
29.165934547591238 58.864997367678896 -0.1811866549994351
28.317503861767282 56.516230520477045 -0.1579427584915522
28.284991436878126 56.49036702361943 -0.14438580147293867
29.283722410751096 58.83415094108389 -0.16025731099077284
29.284748229648528 58.81744352194682 -0.13304993526620632
28.382162415865338 56.46923088279096 -0.15498112070194622
29.380976909857594 58.80661708922095 -0.1614648977201985
28.494369988533993 56.448518760896334 -0.17361781460106124
28.472806183326718 56.44119381669926 -0.15562770573709833
29.476600831588772 58.77946999528352 -0.16504617509740052
28.58325129508388 56.434708131856425 -0.1577329389652523
28.52698794212542 56.42220223321654 -0.14027306800033068
29.57332655607084 58.75235333944656 -0.169481944587086
28.77888402689251 56.60847347415379 -0.16809174161535875
28.741287870056674 56.52130035635413 -0.15620561998466265
28.677476891497225 56.41763337273159 -0.15771338078535585
28.647396992989652 56.36959607467818 -0.12363883641983221
29.670792845745407 58.7287228148292 -0.17679590808737583
28.86496844035112 56.58316286283912 -0.1639031975214738
29.769451546593906 58.70162656905856 -0.1352335880424459
28.946794282436564 56.56295003327649 -0.1607336582467331
29.866901393892157 58.68003358544153 -0.1416053184275161
29.047804718524574 56.53734573361806 -0.15726442244076388
29.98916634889669 58.66097609859478 -0.12620227994973268
29.96363036962757 58.65499017807762 -0.15134066110615643
29.17366107304476 56.51093959326406 -0.16674107792142073
29.141695809731047 56.50999128284014 -0.15040464073742393
30.076643373857035 58.62975563855225 -0.15412109141234515
30.050980202454262 58.62626601873915 -0.16420476946052953
29.2504202505505 56.487818200765034 -0.1631514450778756
29.221461196010072 56.48337443768471 -0.1379274768520906
30.160741249327653 58.60560011136586 -0.16740910611939405
30.122905210117754 58.60598016081235 -0.13580935124067595
29.331706503280277 56.464913337091474 -0.1558398557726533
30.24671777171859 58.5824191171695 -0.1672703456355673
29.395976412718518 56.44192286764145 -0.180736002680995
30.356160318817484 58.55919622311415 -0.15877930129918275
29.56138548160365 56.409273498848215 -0.15745608381142356
30.45818053871846 58.53358990896124 -0.15029564570785292
29.76373199231767 56.618280246878044 -0.16294447303592846
29.743213968471117 56.56682830156965 -0.14849654652041983
29.705639546583644 56.46433940902841 -0.12710324899512976
29.640765827473434 56.398143752435914 -0.14004795180285268
30.549624293809718 58.510719226903085 -0.14738144850443646
29.818839657072573 56.61229461235415 -0.1475648050418346
29.754604570072136 56.53913910155684 -0.17134849220343762
29.726714517505705 56.4666928974531 -0.16459099477069028
29.702017969315378 56.37813188680573 -0.14528099555189586
30.650519237835546 58.49002204339071 -0.15597810575953275
29.918573961565635 56.5872782804534 -0.14788952513032916
30.766056009916593 58.47954633355852 -0.15255655251873926
30.730370527898046 58.475825652106124 -0.19934667681244567
30.017392659977418 56.56308300090488 -0.1621388468365482
30.850703458138533 58.4482454140032 -0.13894475771638165
30.115987100600346 56.54124214761343 -0.16803994342672643
30.937332636510806 58.42176281826124 -0.1464256094784372
30.182881018047297 56.534460571209 -0.155891317688785
31.0397101952021 58.40157494448396 -0.15575230201793727
30.30442920032388 56.47863956361172 -0.14272512203631593
31.13624694386872 58.37433749348213 -0.16444718489749255
30.44116922361241 56.45860429698536 -0.12441695199163935
30.407524270917833 56.45485991166668 -0.16175497015630258
31.243072855905915 58.35054935943595 -0.174368494966143
30.51524986517093 56.43633864540671 -0.14393150998742632
30.498780093448516 56.42468738691776 -0.20097744578181198
31.339057035912283 58.2873640032906 -0.18660627477059324
31.33211188577416 58.19507522980102 -0.18545447139973525
31.30391396208516 58.11125803177508 -0.18117676746923675
31.277528673695624 58.02965469296733 -0.17734466719817393
30.613791731433626 56.41176042126025 -0.14237534735206264
31.30351827451735 58.07595134741901 -0.180633886450973
31.289277849551187 57.99439515330534 -0.17816768386728257
31.265586241893974 57.90552536897755 -0.17487321384067323
31.2603572174974 57.838330778750404 -0.1738782965267989
30.697215553051326 56.39039085811386 -0.1510406656286837
31.353692304880774 57.8092629521177 -0.1835077787326479
30.901170009834686 56.54391707764589 -0.16255555785454817
30.875366871989286 56.4467334956862 -0.16462169186559522
30.8478211420139 56.35916908203043 -0.16639791602230392
30.97412347870361 56.57392564772144 -0.16822157097517065
30.864319038518268 56.375120024007536 -0.16709719175314708
31.048160496493164 56.5604137364547 -0.17593894282360661
32.90076900442991 57.92350187262854 -0.20497801917549965
34.07815088651359 57.62696629277046 -0.10681149248310759
34.16226158590194 57.60973167537467 -0.10983177005769955
34.27227752868766 57.58213540000364 -0.11378736914321369
34.3781664666331 57.55354659504615 -0.1176056417389143
34.45402793619358 57.53406925842165 -0.12035269694327178
33.62433730043831 55.388949899872934 -0.1092416852146123
34.56975245726816 57.51378339616107 -0.12447566352128568
34.34952494326372 57.101002868581425 -0.11894149674544538
33.72072389229907 55.36403332060087 -0.11275573205123549
34.64946538601967 57.492982082481795 -0.1273660106601487
33.82471832891669 55.33677507622155 -0.11653012505082411
34.753035611990256 57.4709506948745 -0.13107412721981124
33.91467322276342 55.31732568522805 -0.11976904243051642
34.86130469087563 57.437646922415354 -0.13501803188133596
34.01928695934558 55.29175891746607 -0.12354629788813538
34.910155994999094 57.39511116920464 -0.13692920149238286
34.79176940688201 56.99933166805802 -0.13497512316243587
34.122251000699904 55.26746110965525 -0.12727826698936817
34.252668501607616 55.23138830386345 -0.13204066538257053
35.15784368593518 57.355139617107184 -0.14578142546836464
34.348387235730044 55.21080659558097 -0.13548986577901634
35.28083916281809 57.328380291161174 -0.15019765951623024
34.468275251895804 55.180926248906296 -0.13983074651192218
35.326871659699435 57.281624552137465 -0.15204325221623113
35.445615520016034 57.253529718886355 -0.15634693292694807
34.59975569039851 55.14770710425515 -0.14462439007669475
34.72587186099619 55.11749225998752 -0.14918030987162248
35.641538004226895 57.057958378178554 -0.16425503652004622
35.62638850762193 57.003875318521004 -0.1640361643920721
34.872460658328485 55.079324638093546 -0.15453900183315533
35.02126242652654 55.0415683208463 -0.15994204833744285
35.89822606650678 57.18271076824112 -0.17252027644398227
35.747651266449324 56.78415779200286 -0.1695970301278173
36.06086551012524 57.123278462632015 -0.1785174546008537
35.163182381547486 55.00818367340739 -0.16509450454579683
36.075760211248095 57.122330971062354 -0.17902909436751463
35.99419198612751 56.83137627330992 -0.17789874869536487
35.9675339909261 56.74635969174821 -0.17750178536069344
35.95923593704268 56.68567147705519 -0.1776133623441423
35.318500605124825 54.970930355723716 -0.1707133009056715
35.99958294271682 56.654724693445296 -0.17920670971758818
35.63651007586568 55.384675089378284 -0.17717587081992442
35.60104628773908 55.292464539446385 -0.17688689832055954
35.577819814339165 55.19701319734636 -0.17707096579913478
35.552417423841504 55.089093891825 -0.17733560734326892
35.522622513947155 54.98240120461651 -0.17747031215683867
35.472633368810946 54.93618729669196 -0.17629563103081936
27.144045958016346 60.38771867727774 -0.057695715707372114
27.114921248286414 60.346500137157975 -0.056388473207658385
27.08357579531394 60.254415679333405 -0.053152415224298366
27.051442482542882 60.14971868213361 -0.049552056102957445
27.214098802017713 60.405270958761236 -0.057730043658831
27.16433947307526 60.37686177926197 -0.05707558811424878
27.092897398444023 60.22932395079667 -0.052079527404008924
27.066315786017267 60.14255765800073 -0.04908880928321029
27.044053726126513 60.05097177712345 -0.04594096947980146
27.01079196726684 59.96107097356816 -0.04310784193595442
26.993306104166077 59.85809466943283 -0.03966555178017906
27.329419558342355 60.43506751669632 -0.05794938700993613
27.317449097570517 60.39667085413805 -0.056480491854138046
26.929834829347627 59.43175822779631 -0.02647075025759102
26.88604757225272 59.36270426712155 -0.025239080527556426
26.864638338445946 59.263906554589006 -0.022768585927230654
26.844414939217433 59.19086290553332 -0.021136848801415108
27.399059646417975 60.357162672995926 -0.054227427598032674
27.042495257565108 59.40909295986744 -0.023528418762088513
27.186107146404108 59.57993270407542 -0.026753740067441537
27.1836626698411 59.40793153429254 -0.02085574316669104
27.133941099466742 59.38978448823172 -0.02116974016103345
26.374783351767285 57.39518239900982 -0.06822499963373896
26.351787941983822 57.31590842909534 -0.01756891726190791
26.336764226922394 57.24592936788161 -0.01878604281400339
27.26512673248922 59.41349378622304 -0.046711995999345265
27.194027931284573 59.36529090583353 -0.019246893846291496
26.42633160031898 57.21624880519179 -0.0537072074606903
27.164788735613612 58.75390253542123 -0.07611424781842874
26.541870778584755 57.190866358841625 -0.01247414084812589
26.5110942504835 57.193872674416376 -0.05626304725005362
27.205921068069223 58.806415672846704 -0.07633311265354639
27.16719261232034 58.75222583662161 -0.07589537562320596
27.14332764194478 58.54241764961998 -0.06853801874982605
26.619477883437796 57.16781155307075 -0.05104954214239104
26.58565717405416 57.17344811054643 -0.09434541114787828
27.289144842728543 58.63375800670682 -0.06401020580204372
27.25811467801526 58.57278990014552 -0.06317097305527805
27.202511723304784 58.53399699766085 -0.0647764846747613
26.71093837935995 57.142957326558566 -0.046857424286276594
26.81455531776017 57.11698780162338 -0.07998353587864289
26.89811801306212 57.091087471660174 -0.07496863702370515
27.005035288964894 57.07058248363276 -0.06834154629060339
27.099035982028003 57.043926777322184 -0.06283717388006183
28.055514148165663 59.217068733151386 -0.06767896049562225
27.199893357276938 57.02075105146592 -0.056898640008668275
28.102282853072815 59.18956109396959 -0.06462529410466616
28.158957372366572 59.125949312758095 -0.0587473174632596
27.319834022655883 57.00954312471014 -0.04946259600388928
27.32035635071952 57.000384925536885 -0.04974250020272261
28.252485326505415 59.109063296743585 -0.05569293215271155
28.207711854438777 59.11188194244181 -0.05673196287472643
27.37321688990127 56.991555361272844 -0.10497334932906616
27.351232043618694 56.94103173408327 -0.053327595858712815
27.325594469928593 56.83954259786878 -0.055395401924638876
27.33354170808679 56.775482786171054 -0.0576045877955774
28.320401384307935 59.08949048714593 -0.05312754634124275
28.274527364091135 59.09580140223343 -0.054317973305411396
27.43040652275298 56.75039415927857 -0.05297330149416851
27.417199202057862 56.74540225500097 -0.0539911113754104
28.412816584158744 59.05680348966134 -0.0740065715124144
28.385111054841804 59.05150388546249 -0.10491062763888306
27.54349674513819 56.710550822057925 -0.10577108709231517
27.5034793243652 56.70255188934643 -0.05108907641503312
28.504116113839938 59.03219622242669 -0.07435203435387319
27.917502376758293 57.545107121763564 -0.073349969507936
27.612995291432327 56.686405762562096 -0.083094616944368
27.591567951488358 56.67914926297306 -0.04742338619790304
28.60122747481377 59.00862531318645 -0.06886053529904175
27.704720383439245 56.65587946291138 -0.06958820071327777
28.698393285818856 58.97330648977588 -0.06657958004784863
27.79601938270715 56.62925947329136 -0.0735209109726046
28.79525639841875 58.9646183415719 -0.06664847762812273
27.866675183395817 56.610826065949595 -0.087862024979793
28.89618961519575 58.93336648752337 -0.0647125143023471
28.02400039387153 56.625933415239636 -0.07555961831105577
28.02442617690781 56.601454609811164 -0.060972214369224835
28.99053954394601 58.90696274064693 -0.06371353583897171
28.10058005480459 56.56892715845555 -0.054407832791840305
29.125980232423093 58.88699998111078 -0.04720304132549763
29.07598931206707 58.880748900907754 -0.06407163620715786
28.18712485200791 56.521822689488104 -0.05311893592871176
29.211308756949904 58.86360823844038 -0.04222104337542282
28.32608926539836 56.51454200113962 -0.059766993634891324
28.280990898302495 56.498103880245516 -0.050477731181138075
29.28254440264974 58.832920635311325 -0.06605097685648756
28.38338523353202 56.49146602916549 -0.06560824610424937
28.38323390708382 56.47483038458793 -0.04835675402364423
29.380016725354466 58.807326788104795 -0.06727477440541285
28.48661033267836 56.45438191631687 -0.06395123147667699
28.474490621908313 56.44526476007938 -0.04160211356415577
29.47740485132028 58.781180734740836 -0.07078524454992063
28.586815394863795 56.44640497270393 -0.049562903355296666
28.52281687504455 56.41441918308212 -0.07593033251750081
29.576327644079047 58.755600124021875 -0.07469745011640039
28.766308066730875 56.58737220720584 -0.06929489552854706
28.743581320933448 56.52875877120735 -0.05907103049337631
28.679083347471504 56.424543502358176 -0.051186767738347835
28.64642899373747 56.3713818336487 -0.05755278341759288
29.67777309616268 58.73012999761565 -0.06668014382127367
28.87180675377907 56.573329237378324 -0.05741854591703585
29.765310609385505 58.70399970728478 -0.0389327457605248
28.949969246808013 56.55827601184292 -0.05797572653717347
29.868076277843286 58.68171042924339 -0.03969544246674019
29.046984142360714 56.53571469326353 -0.06305856694267405
29.993449785945668 58.659479086265414 -0.07298367671160207
29.960513693475235 58.656650332941744 -0.041476425986127205
29.157836423611357 56.518100296766264 -0.061353868661942104
29.128985958223282 56.51612339168916 -0.05235714465124242
30.07029159584023 58.63418318013902 -0.062419345342935334
30.050349939238473 58.62936989794991 -0.03336017502884413
29.249866724729042 56.49178641333798 -0.058011234719712035
29.197776864131352 56.496441198676465 -0.034411849879906746
30.16106491770041 58.607362742753615 -0.060156271836844924
30.140295922524484 58.59890019106971 -0.02586285772532234
29.34550410567367 56.46820492958074 -0.06213444080883006
30.25705057769752 58.58455454898058 -0.062440555030596666
29.416820419772712 56.441643909213994 -0.08978431792525796
30.355894103559603 58.56210395410065 -0.06874290693252016
29.56433962274407 56.40742282984762 -0.03989450830469147
30.445982851131156 58.53852876798937 -0.061675220687077155
29.76163195943803 56.62489333882132 -0.05773989326829353
29.726902525082902 56.57452165542491 -0.04967419436329065
29.697410544195442 56.4699036725539 -0.03710190512476179
29.637319776834488 56.39603659584154 -0.03663198423321431
30.552851800332782 58.5086381052081 -0.04777779748435024
29.828417499777633 56.61677403625763 -0.04473296247044463
29.695126613398568 56.37481792324208 -0.06505195273250111
30.653107337674825 58.489180804491546 -0.05354299331155421
29.92784595626525 56.594128084963785 -0.04880300320109837
30.779062144156633 58.47221667617404 -0.06107820302038495
30.722046837942138 58.47891667857709 -0.05762877049686162
30.031051820767853 56.568360286271805 -0.05626096939615849
30.846312948978678 58.448702616338494 -0.06490744391018909
30.12218068805804 56.546974866809855 -0.06180157621984443
30.943902310656313 58.422950090939196 -0.07070053353613127
30.216574394384867 56.51762653017652 -0.05984653698642115
31.04418613101139 58.39761349447676 -0.0767627984820452
30.32060308358389 56.48934996070082 -0.049418576529060586
31.140178172664466 58.37420715111655 -0.08265649779611652
30.424772900336524 56.46247546119121 -0.05657399019865981
30.38932682705607 56.46824008298106 -0.0542539437564121
31.240250153025446 58.34804299953136 -0.08885108404075877
30.5042754948286 56.44143897790275 -0.06208503466999246
31.348805028220916 58.28660338887297 -0.05418644748245398
31.334627779212834 58.19969845654747 -0.05642400571168796
31.301759807361833 58.116841481132106 -0.048500162798966795
31.28154288746657 58.045392585083306 -0.05052934935675832
30.60838879998038 56.41536310429994 -0.06928312438787355
31.34981692948138 58.21071152082027 -0.05471645403196803
31.303756524582386 58.08227755973306 -0.05175123510748135
31.288251856331048 57.993648549856026 -0.05267749508399046
31.269487869272048 57.89790364234796 -0.047810896639046016
31.26316619620542 57.835313837659704 -0.05509053165362659
30.69427385386153 56.3921887312333 -0.07530390259971109
31.36033215014908 57.81644824633514 -0.011270624705067171
31.339669436766105 57.81222199582746 -0.06753836312338898
30.889240596298144 56.549992007536886 -0.0826533850130522
30.857535822589615 56.45221592237281 -0.08353243423719457
30.83940418468745 56.362197538068976 -0.08522807163586937
30.99863853265963 56.568234414740175 -0.06890878999508418
31.0565682717678 56.55566558501137 -0.010010818268627986
32.90618749740395 57.92211195327235 -0.06485822015027035
32.97766266071378 57.90698027905391 -0.06739713900011435
33.08403160928453 57.87924020684822 -0.07119061946155958
33.191237798090484 57.84954843954544 -0.07502247336396503
33.30181188558309 57.82554566692782 -0.07895924279880648
33.384324327247796 57.79826400471221 -0.08193135623899217
33.48225209220975 57.77946879068887 -0.08541154578274601
33.565123429944805 57.75919221512473 -0.08838247687401347
33.679154606453615 57.7304956942587 -0.09247016021652912
33.75883611418258 57.70760109142116 -0.09534452727185455
33.872348426044155 57.68446185865895 -0.09939453158271117
33.96777351747801 57.65996029875487 -0.10282060498231195
34.04199909525967 57.64369609363215 -0.10548874340427411
34.009925697111264 57.361035485443225 -0.10567065125654279
33.903731367443825 57.2186221087259 -0.10272332546983486
34.007408350682134 57.30827927475701 -0.10584684202064792
33.54621267002024 55.40577909218945 -0.10645338658399509
16.038287469764555 62.070310339616334 0.08728869728125788
16.009818450003667 62.03096133094021 0.0873354376882961
20.48445424208882 60.55219637923969 0.0821421844527915
20.88456593532196 60.95990741038569 0.0808680857478806
20.86931630974301 60.90079342570413 0.08099540028078508
20.841444934418284 60.81476787682911 0.08120783532062228
20.8165471117112 60.71023791107223 0.0814166977969627
20.79139747220889 60.60625164055419 0.08160481486377438
20.75593330478846 60.52135759109269 0.08177455677475728
20.982978757550235 60.951162348053785 0.08067879843311129
21.191477668992597 60.89449699077267 0.08041915925684373
21.37565462499518 60.84671052257005 0.08012639580401065
21.54471241617894 60.80413479352728 0.07990896704528233
21.684303264433552 60.773675934295326 0.07963907739951884
21.847412350965136 60.731978820166944 0.07942856630972
22.01166890328073 60.68759121986923 0.07913984887519024
22.16434566941349 60.64661095618406 0.07894435718695189
22.291399057068706 60.61659526442533 0.0786971167465356
22.410974543370827 60.589374018409586 0.07853381120196226
22.54134044587592 60.5565648517005 0.07828705800309116
22.68231642993244 60.518021237649464 0.07810490829012434
22.897818451205403 60.532081930982365 0.07749075388230867
22.85018854693768 60.47745313318725 0.07780427595981645
27.14022735738644 60.41186096215835 0.05858817028206495
27.113305491927306 60.3422727065602 0.05951562716237249
27.08286417994933 60.262179500885 0.0605548895217802
27.048831011404978 60.156944463867745 0.0618440182553415
27.207614827654133 60.420445828093705 0.057916553632427814
27.153223773636604 60.377547895281175 0.058834466436074484
27.089642282311697 60.22507962228691 0.06087246584844708
27.068808279814984 60.15780189862751 0.061681422899194094
27.032543887301358 60.04101890322126 0.06306042923913677
27.013101883917773 59.95267079418425 0.06401697135542614
26.993804294523503 59.86849821312908 0.06491079781414333
27.314812703736578 60.399857393548466 0.05716887728988451
26.92934587546952 59.42774940457689 0.06895724423430388
26.883820378157324 59.35405042564866 0.06974163706629496
26.860427649158083 59.263171018829176 0.0704995664252899
26.837785618021783 59.203608107509616 0.07100525504683941
27.379239163782707 60.37420110213889 0.056852736946464505
27.10482245661794 59.6759982731415 0.06585494657132696
27.04028285321495 59.41332545396974 0.06845132206044122
27.442216317418495 60.306086765956074 0.056971477842404666
27.145417443031498 59.3907811220176 0.0680185979772529
26.367484170797006 57.38069634981651 0.07315555397357407
26.35599376632873 57.31648164924452 0.07278600210084415
26.341980744491952 57.242159306700174 0.07232776291283699
27.25555786737916 59.41561179385211 0.06712929730844278
26.422823931165006 57.21264299408912 0.07207718676977928
27.19500727381367 58.89018002441403 -0.004624197600506544
27.156672252309615 58.73806088535762 -0.0015640966533718714
27.070877652146756 58.5423446616871 0.07377473970882867
26.51205357156067 57.19071064631382 0.0718618995525035
27.23830257365096 58.863403483103106 0.07143514437914594
27.232054162918804 58.800706067796874 0.03363388212378379
27.20446201992838 58.72422600304969 0.046675615632551834
27.198180691997937 58.56631806354286 0.07327120965595518
27.142354641418926 58.53942990445176 0.04450910845565116
26.60737486368057 57.16893259200911 0.07163516727645369
26.598940308137063 57.167566846047706 0.07163683977002927
27.2568102805915 58.64153446403587 0.020812925310068536
27.24219764101951 58.58137727549082 0.037659105837711884
26.713367349930625 57.14054872388945 0.06029098189917628
26.81078374256728 57.11608673922385 0.033337050661771256
26.91039794993931 57.0939062164559 0.03466504715254064
27.003764559099245 57.07003972813773 0.03577035811098757
27.10118190307025 57.04602441313902 0.039212891023234386
28.050131959441224 59.241853759837156 0.03180071717332375
27.196849382086693 57.024506121038264 0.036057665486867466
28.104080168741696 59.196682488423114 0.014904230084916148
28.149496363684968 59.13500371724759 0.02222702000333676
27.323043605753778 57.010469215148 0.03992195700119222
27.257422140342932 57.01653554040589 0.039058640721380655
28.24812990529038 59.11022705981819 0.06196782647315546
28.207926296613827 59.11167885061971 0.03408167396198608
27.37092236298059 56.99157184153388 0.036204058871098996
27.354858899611063 56.93382952004482 0.041418279479807404
27.32710250319893 56.83793613223578 0.03322502256947367
27.333355249224 56.77346474759324 0.03794976476134325
28.352798955165 59.06913306872063 0.0612771348892365
28.30424648290362 59.07702208755514 0.032207708387346295
27.432711174844954 56.75339414539907 0.04203101941768639
27.412517519996893 56.747155667141456 0.039422480523168615
28.41466098702398 59.055805679386445 0.035370815479623965
28.370911557510514 59.05692666913384 0.021594510168898642
27.525877727284854 56.71618223564875 0.027419061876039486
27.489983198134954 56.71060358211641 0.034476011373173174
28.504519993770014 59.034730657433684 0.03321431986693353
27.924797363858058 57.52832345426298 0.002963048227559051
27.611686688768135 56.68872731097944 0.03538273023167321
27.564119841062347 56.69248031672356 0.0651898165837477
28.60111964248794 59.0018546517869 0.03414988323616246
27.702233906136243 56.65635048283778 0.03747270695874856
28.696640719961632 58.97585006446561 0.03101682751158677
27.794972043001327 56.62790632473649 0.04163860058743221
28.797678248186056 58.96478565724881 0.03375149161812466
27.86375313444179 56.603084791274426 0.06252812154402532
28.859769245728334 58.98326360709513 0.05532170512638174
28.89820591261511 58.93699113730067 0.029466642296873402
28.015028017948048 56.602730680677126 0.03523039765548509
28.992895309885725 58.90909113842215 0.031090272176632197
28.100366588676863 56.569138180599104 0.0383679917721374
29.109360003965 58.89353115189126 0.005363481658921462
29.080047832166812 58.88226239788627 0.028152960627920054
28.18831651113651 56.51992224921671 0.036518343451510366
28.327269094761558 56.51199547418649 0.05760790729933543
28.28209401955386 56.49493915107245 0.032960186266099825
29.30044819998275 58.82971492730368 0.030866175884755945
28.394371231238306 56.48866957663862 0.020263930086505372
28.38085737822674 56.478750668291525 0.04821302157626249
29.383401388687506 58.80314335795786 0.04186371517168702
28.493178080694662 56.45797658021687 0.022956393649488066
28.470828115580957 56.44906796140017 0.045636196345639826
29.47648818025016 58.78011092524457 0.04537919931153318
28.58797506085146 56.447260995615956 0.032393962899832124
28.52258021744964 56.410129808044566 0.03178313065707354
29.57324796403952 58.75581678980203 0.043360989218925464
28.76336605036101 56.57794713004629 0.036065610865218076
28.747681644909296 56.546310783378814 0.05334475697892424
28.68203879775536 56.42209717037794 0.04947975533974616
28.64170562756743 56.35672264108579 0.006961377842609862
29.66628937488123 58.7310822182928 0.04876880124327283
28.874440719728195 56.56878899922477 0.044789356108683745
29.768949812099947 58.704933463281385 0.06275778665585463
28.951923514516935 56.55829873959614 0.0492740047744302
29.86840497766931 58.680908131922564 0.06307178946164163
29.093897955049986 56.54205541381504 0.0655775527929339
29.047149943520353 56.54054592075452 0.04753117811962394
29.992644749901572 58.662809626338365 0.033158842038093536
29.96299885446207 58.65734731176923 0.06274063463661855
29.156076174912478 56.519703881977804 0.05871850098563133
29.138998206748422 56.51281361279014 0.03139786952239523
30.073555808592427 58.631855830558095 0.04735548290097252
30.038790556616117 58.63355783698415 0.07571012126790669
29.25115651163799 56.492004442818036 0.0460725362709284
29.216532466375096 56.48825159565055 0.023543891714201542
30.158313341223902 58.605518628346964 0.05665571537511327
30.122895291168327 58.60631260490338 0.05717189803141473
29.33738919267912 56.473340565291 0.053882180433264065
30.253021512032372 58.58243897088523 0.057262974282580786
29.428599573456367 56.44474468618211 0.06549627918895556
30.354932145900996 58.56044488452473 0.05441745516747426
29.548779282638957 56.4157842292887 0.07249243838989189
30.456217975660397 58.53714001042933 0.05022844602400614
29.763217175713372 56.622526426761695 0.03204807377491356
29.737408986338174 56.55926286538896 0.03167279486676186
29.701312293283458 56.468561960949266 0.031008077901285694
29.64039650769679 56.39999515666032 0.05331167090368075
30.549531299976046 58.508646057619146 0.04851231584926234
29.828071654474762 56.62587561304229 0.030196508985865275
29.7294468981986 56.37506858137985 0.0721245701223128
30.643981492234303 58.48431853991224 0.048210010233275535
29.93462194843448 56.606297305155344 0.026682945383736112
29.835259020172977 56.346795098653494 0.07881506716480646
30.777340014006796 58.474887995999666 0.034268240477478173
30.73109336177635 58.47367588732674 0.06449876656307862
30.035731001659634 56.58170545578941 0.023213719041532493
29.952705203459494 56.32303920656641 0.07826837782194054
29.91538485109312 56.32677086549417 0.07847604964637325
30.851139835829223 58.451159309132194 0.0447834660325097
30.127689327099812 56.56230609229977 0.020080663459844272
30.023497323085078 56.31362815219599 0.07791672209414896
30.94276828723961 58.42069572488794 0.041004769360099946
30.18664699131068 56.55352206606683 0.01811871702749747
30.21352525976813 56.53700240647781 0.017027477354550832
30.175931736337905 56.377412471225306 0.07657467442483998
30.134297406229013 56.27625187956087 0.0775986769953147
31.041821917016545 58.394805306028154 0.04421722614986405
30.324307467070955 56.50975307827503 0.013150324906981814
30.280749501680493 56.50496766125935 0.014443978667121812
30.26458375869986 56.323809846383796 0.07655655488691823
30.213511294157694 56.275191344399204 0.07718525274445323
31.14109711660747 58.372421293181596 0.0431140707718049
30.423322489696442 56.48739886803574 0.009698263058909515
30.361487771486313 56.24750098729196 0.0766764737535453
31.236107050029183 58.34736155147208 0.032297743977735535
30.514716792079337 56.46303983017056 0.006445528243879034
30.438141700684955 56.276004410085314 0.07613765639387457
30.440162495936995 56.213849242740544 0.07656729322985581
31.32833508265289 58.29701952365416 0.06817639520551075
31.325149415109408 58.2035940412848 0.07759799073802393
31.296446810519637 58.1054784129142 0.0768329134834734
31.273916614952963 58.021855015568775 0.07619418378379086
30.609091643858644 56.44047244806625 0.0031126763907775162
31.301563784919892 58.08744414913497 0.07668341124606518
31.27944216351759 57.99987405952449 0.07603062536174543
31.25262529187245 57.905318897509545 0.0753723533782322
31.24913893656529 57.83881223081374 0.07494152199238699
30.69633220026118 56.417441819594195 -4.879397778032035e-06
30.627848018131203 56.16966515334037 0.07608617007051532
31.337003549359878 57.80959171835732 0.07475318260634903
30.900376429127657 56.601285074447965 0.07317341528107868
30.891221190938655 56.548949717120024 0.03279986251821633
30.866464562840434 56.45179050991358 0.03594959719422408
30.84525634716107 56.35988427537855 0.04487217543272548
30.81781926812659 56.269326518025395 0.07482232490600726
30.748322673339235 56.133759165754476 0.07585635010890829
30.708260600171855 56.13469342650743 0.0760020076609168
30.989555924007977 56.57409234217862 0.053197766328708374
30.81695973004699 56.241137605650536 0.07498135047124313
30.79446733578113 56.16455088043628 0.07550014331956348
32.88966848601444 57.92048400360949 0.07528421846421793
32.97469979632131 57.89946385140041 0.07515737963345365
33.100355599374325 57.87302400183369 0.07500312053635036
33.211259973696265 57.843169318613604 0.07483314267136468
33.33527959033147 57.81156607061871 0.07466507145443643
33.29049861608357 57.82497665477262 0.07472824149762583
33.380063338214626 57.797877946198845 0.07458376782564935
33.46504482265611 57.77860548294744 0.07448649707674845
33.59024116477631 57.7520633497125 0.07434964130964988
33.671050677490804 57.73028456470537 0.07424522907939954
33.765769365810755 57.707708493015836 0.07412960345819422
33.8683897820862 57.68444447205715 0.07401205798922444
33.9728594234307 57.660046694004784 0.07390239965712703
34.04721651913909 57.63523125767078 0.0737927162237024
33.90929233693154 57.2876853553341 0.07241774931523662
33.9228079302739 57.21747716609408 0.07218888302080201
34.06302274079725 57.358949764656685 0.07265785391429355
34.32354740543977 57.56337981763359 0.07347254875732076
33.57161138324017 55.405409870544524 0.07232622141615971
34.431493049943974 57.54375554642963 0.07337645219898406
33.664262358685285 55.38183940340659 0.07225660234990963
34.53132576864299 57.52392086487711 0.07330303412217815
34.395610771056205 57.10696385588897 0.07182746620685265
33.76262543891537 55.3563654643538 0.07216171729422546
34.6311302661875 57.503396724682304 0.07320479816016287
33.84879145349609 55.338144129802515 0.07208973611151531
34.77080038257278 57.48100692007072 0.07312352995235519
33.94798617638998 55.314813851712756 0.07198863950486181
34.84844068651926 57.458934182733145 0.07302172590196696
34.86018047990271 57.40698261463391 0.07282310839196274
34.05812685627793 55.28684057189372 0.07190947488440477
34.760480164967674 57.05480779306162 0.07163961284195017
34.76862387002137 56.99220129573121 0.07147939715081694
34.17954523365081 55.25475546773637 0.07180054656715776
34.28614344601469 55.22899125962923 0.0717240200823972
34.396675759103864 55.20228980309682 0.07161983841261063
34.511465892935604 55.17564300137485 0.07153615211973757
34.650505650732846 55.13964637651525 0.07141550185050655
34.79513274054856 55.101757779419 0.07132039092547368
35.72788397664892 57.25128509492435 0.07222282611217942
35.73750101105758 57.20418037991072 0.07205806241836127
34.92905129409927 55.06943901137611 0.07120046289887685
35.0671124981737 55.03697666260684 0.07110512792425094
36.064502097087875 57.110879366176576 0.07174933977829645
36.01168811869887 56.99218798640525 0.07136905780107841
35.225898003547584 54.997155146706454 0.07097089676179064
36.05728930343277 57.04619814151222 0.07153549550111124
35.962284666937194 56.72320299914996 0.0706833619935556
35.9428794816456 56.688431998370014 0.07060041167571748
35.609352013080034 55.38219345440117 0.0699650330797883
35.5765234621789 55.276407538931345 0.07010567786642377
35.4058087264918 54.95122262102066 0.07085384956204901
35.72384092038297 55.40964524063811 0.06985057535802786
35.58940204115051 55.289531542560226 0.07008850237602102
35.565699175472744 55.190004562380935 0.07024111299691749
35.53880027614217 55.09613018989836 0.0704161066232821
35.51222325830853 55.00127274374446 0.07061612788093616
35.50452401219148 54.939361431557664 0.07073845316075641
37.67779439133732 56.76059154405846 0.07060238452471901
37.66506424554319 56.67149139506572 0.07034561135853912
37.58853605128498 56.40133116963491 0.06974790692354113
37.56571298166166 56.34366361082152 0.0696243830242694
37.55262409963608 56.27034370348437 0.06949184467335068
37.52472960108144 56.1825149083907 0.06934781605123547
37.548696249630424 56.224996469328524 0.0694222271063944
37.5163578396225 56.13758053976093 0.0692700935288657
37.49849303971931 56.063434064832784 0.06917712359159958
37.47669279801724 55.96035084272299 0.06905385981650028
37.44645518953939 55.87435566861151 0.06896326893664817
37.422677999383936 55.77204177660159 0.06888291674803071
37.40213146070715 55.668335135182666 0.06882139428729056
37.38059636404351 55.609699734167336 0.06878731330902854
38.155668475217084 55.36175100734427 0.06833650691569113
38.1330992211765 55.26673058650415 0.06831433342278082
38.112706967142394 55.2025778598128 0.06833125887258079
38.107897167109655 55.15238869079079 0.06832290168851127
38.078895355354625 55.07513342598832 0.06834438213515362
38.061111309841074 54.97643014580162 0.0683877681393743
38.03116019155625 54.88253047780524 0.06844165308188471
38.01394174412589 54.78365394177879 0.06852079665079858
37.995567584690164 54.71977721204501 0.06856824166469017
27.112150911799922 60.32404079509771 0.174911410289574
27.085150613357026 60.24254842990578 0.17410316056796446
27.063803736927483 60.17566498855347 0.17343536025155662
27.210950467916785 60.394331570697574 0.17358843199013146
27.14716502394464 60.34754762725644 0.17440476828026605
