ply
format ascii 1.0
element vertex 839
property float x
property float y
property float z
end_header
37.59814601929562 54.06578197230195 -0.3471238024338706
37.67138491888255 53.973205332180534 -0.3937252251422041
36.31422608220974 50.313884519030296 -0.3252840828700629
36.31310444964861 50.23014244052885 -0.3319938847393507
36.38550660833387 50.22625412703472 -0.3268712272023355
36.38448635317523 50.21325541224815 -0.32799523765959904
37.859770379895174 53.702913735004444 -0.3776484231595292
36.489373437658784 50.19283021332675 -0.322010120634272
36.43592651079787 50.19421090946035 -0.32576866352230627
37.912462189068826 53.68064702841592 -0.34185785151812076
36.90417101335889 50.93687474301125 -0.3699331968718886
36.83418241962264 50.80526131792853 -0.33449309589785686
36.57711091804644 50.18203443239834 -0.3167073049680531
38.05122528476041 53.650833255849356 -0.34219593306328455
38.00542449877008 53.65643524678276 -0.3487898830578396
36.958061510241336 50.964082250364 -0.3873917488532696
36.93622798375912 50.91738479438254 -0.36012202192300247
36.68108944836764 50.16210666892825 -0.3113090478174058
38.11262106551994 53.630175927278174 -0.3306861531828825
38.10427410811464 53.62595021143925 -0.330550724219037
36.746971006566326 50.141931828622575 -0.3087241049783181
38.20366533792187 53.60223852661671 -0.31500679480460847
38.17035684676737 53.60006862521383 -0.3175494034577772
38.2600402306714 53.59612804295679 -0.3085922552865983
37.07071109991082 50.28323586851721 -0.37106293489063175
37.030480430186614 50.279899279096114 -0.37478095085088364
37.147747904416654 50.26005541469217 -0.3678138736295461
37.241151749562064 50.23291118766309 -0.3642032772208971
37.337666946521125 50.20667085826163 -0.36078577325404765
37.43876687860602 50.183600721041266 -0.3572098626519995
37.501573447652696 50.14917044751388 -0.35803765339918325
37.497343734760165 50.06228880168039 -0.3702646955244637
37.475001363325184 49.96680138845672 -0.3847847687459179
37.45552196462902 49.86226294965809 -0.4004470845001033
37.5210813362117 49.84111842014419 -0.39997715164379877
37.61513799763875 49.81269712075658 -0.399462990397129
37.71700801062221 49.79191732592199 -0.3980630083064154
37.96746390771555 50.11342052289231 -0.3414449109336763
37.82394835589159 49.793856715096275 -0.3936979165700375
37.81855489300414 49.757413792034235 -0.3992784458989966
38.050947213582205 50.09757129460153 -0.3412677661968466
39.44103646849209 53.368694638197 -0.3092695906304946
38.14263536467675 50.06840576588928 -0.34339003893889947
39.501356209413906 53.348381957199855 -0.3161995912271727
38.13170970836696 49.69203146490972 -0.4009041247834381
39.60107112828491 53.32506889565574 -0.33125656305754153
38.20146014471081 49.67271809277977 -0.4028084979287384
39.698158929504416 53.30140123235208 -0.3473401492284075
38.28507657016189 49.643982175472836 -0.40631599028894405
39.79635853654027 53.27554628004138 -0.34079091275457246
39.878995075081676 53.254897827977004 -0.3529329811519293
39.22132451618541 49.75214761958648 -0.30981688655547057
39.257674462710064 49.66628897703671 -0.32141094748639015
40.91611624397851 53.55821958104603 -0.3247576160948331
40.874050679928025 53.479247567120716 -0.3500299832630104
40.828792987602405 53.401678782527675 -0.3749025360515622
40.77463861370618 53.3078725800669 -0.37140492218240534
40.72000577785931 53.2099244675295 -0.35586850749950233
40.72565501631976 53.12926310786011 -0.3519947919455012
40.70407173368418 53.03860996712823 -0.34328607760576074
39.32470866839677 49.474881988855316 -0.34673505087290196
41.14167053401754 53.90051704081123 -0.37560610616063367
41.08327515865869 53.82524518743262 -0.36318330543677746
41.02367274785191 53.735575948546234 -0.34972541244087135
40.97644101458692 53.65176040902748 -0.33832792604696604
40.93817141484516 53.58628488597095 -0.32931761943023086
40.77196636695419 52.93831909833185 -0.34811094917349844
40.71647815879071 52.94684617793507 -0.3389809479894788
39.35387917747113 49.40666290393545 -0.3559823508548105
39.38411681705085 49.366712955744056 -0.3619647576149408
41.39724653906659 54.247366429536996 -0.31729178266233976
40.83359224368834 52.92185761190295 -0.3580269083130573
39.46303916502684 49.31602426525286 -0.3713604688443511
41.426042389845946 54.301656693062085 -0.3228548015272168
41.40539962279573 54.23635494376704 -0.31750158655924937
41.3769425167075 54.153849687274025 -0.31056049992557705
40.93094555565574 52.895111954222365 -0.3737846966509266
39.55034819893233 49.287772440828974 -0.37870674604908794
41.14886008540259 53.259064652409 -0.3403215773972314
41.043256539286716 52.86812308477253 -0.36763159085348285
39.647149603509945 49.25723383088024 -0.38702778079431166
41.120818811661 52.84917573460367 -0.35466496309620144
39.74398078327324 49.23808628609585 -0.3943069489240114
41.18302823382289 52.835388011286206 -0.32532016164773997
39.893872697065646 49.20024068317159 -0.40703407930011387
39.84006778439411 49.20994970887475 -0.4028437642871461
41.59466190001385 52.8766244861777 -0.38322810361535775
41.6737829916009 52.85650318303929 -0.3937902903515586
40.23104390622382 49.079829641567464 -0.3116459169472147
41.75884664992631 52.84195700387673 -0.40532056713441234
40.93147864301759 50.67225181045184 -0.3546005856913505
40.90369201406963 50.59943530661546 -0.3568548348588202
40.80373041530048 50.29239414247493 -0.37072901321765867
40.7803681574813 50.19610764982949 -0.37660436907594547
40.75370112353734 50.09955825050448 -0.38245419656168383
40.72867211100472 50.028403960168255 -0.3864186264996955
40.32893901702341 49.05268228494509 -0.318949383275063
41.04232718545037 50.668798898960475 -0.3675367047653604
40.88142986320836 50.2965194794344 -0.37847237081454616
40.430784960433755 49.038601773866475 -0.32568530944814544
41.116428556447836 50.639004339072216 -0.37821249265084406
40.560792896811904 49.075464490743315 -0.33046499770303733
40.51304544449865 49.0523128236425 -0.3293803168734878
41.224148352752685 50.63266516913382 -0.3912270500498648
41.214298829087404 50.610262037632246 -0.3916056484355095
40.77248208361975 49.32038383853882 -0.3260343564766115
40.63397670846017 49.05506525531951 -0.3363507239882231
41.31271502778826 50.61063901076444 -0.4031426141928792
40.853322178299656 49.30435712140149 -0.3324979920781758
40.73461674443816 49.01816463896307 -0.34518175033857057
40.96234647568683 49.29931950383627 -0.3401942668810761
40.83619726230392 48.98462221119956 -0.35393754516411857
41.53144096628344 50.523303236701366 -0.31408099066174217
41.04983710887073 49.31219385769297 -0.345355191064166
41.018707578284065 49.302027184054374 -0.34387986823554184
40.92836713818977 49.0486089096205 -0.3552990452182763
40.93303281167084 48.96361639249997 -0.36159900439189496
41.9679415290501 51.337931686528485 -0.3267193213381957
41.93848690248401 51.253734455798856 -0.325971156176448
41.90951583966198 51.15563725305703 -0.3258707826335438
41.8891799334557 51.07170073912942 -0.3264252285698029
41.86690505776955 50.99771159145705 -0.32664529627164074
42.08046812098861 51.35175059316083 -0.3376646382631514
41.890957306040505 51.03944381060266 -0.3276271000196591
41.862637952341466 50.94685906528679 -0.32794693474356085
41.83807230618691 50.86464023039255 -0.3284961373757066
41.82670237259951 50.76756317854213 -0.33101836356585085
41.4488609527016 49.14270526174841 -0.38500396837217804
41.4355520881817 49.090255415772525 -0.38743559158169355
41.40745175509019 49.013683458477075 -0.39041868770114685
41.42833791005856 48.966620418223705 -0.39500383921821725
41.424470325449875 48.89654535184794 -0.3993726144873161
42.52588233200086 51.24645272715862 -0.3849243163426344
42.607921204655966 51.23596807215468 -0.39344110639608454
43.53307159974361 52.63795645274833 -0.3084666985976035
43.60391833354839 52.615254951206225 -0.31327107784389596
43.69860179095511 52.59268577873429 -0.3197353150815731
43.80012334971128 52.569169785144865 -0.3266895046327578
43.923697870069155 52.53618272073144 -0.3351402550615772
43.64880171464673 51.83386655453209 -0.31605044142033545
43.63652533061172 51.78397781697487 -0.3154070609714272
44.02594983385093 52.51096133221755 -0.34215476550872115
43.82280862092399 51.92142066172673 -0.3278030398815912
43.724109383896696 51.84251668628925 -0.3212321145602207
43.64948663093199 51.72996718622157 -0.3165272734660323
43.66675988906893 51.70979597386027 -0.31782606098304983
44.10006692290504 52.493520247822204 -0.3472289084942217
43.82809688004015 51.89432002681187 -0.3282476896993723
43.83322171382385 51.85754509588709 -0.32871177172832083
44.19810651595558 52.465799839349394 -0.35395635919427954
44.303999481291505 52.43718269815515 -0.361233615412099
44.38385322210775 52.417503323723714 -0.36671211427615186
44.48552882994165 52.397029929074755 -0.37373449205451315
43.530758071312235 49.76487142418777 -0.3362456784113414
43.51073448054693 49.69986588306287 -0.336473016726698
43.410601440061775 49.60289843598664 -0.33252575657111194
43.38438815330987 49.5298308794182 -0.3326938450615213
43.41076037117447 49.456864902859984 -0.3361265894247599
44.596056798344186 52.366020925383935 -0.38133254468088207
43.50117366623879 49.64979816805313 -0.3370454622965386
43.49097044379511 49.62222541336712 -0.33705237389473486
43.439699686406456 49.380546024758196 -0.33984282480906786
43.42483128596624 49.319879482577264 -0.3404987142430618
44.70643466044435 52.333993509635775 -0.38892496719626796
44.801815780562336 52.31110998258478 -0.3955211821632833
44.90713790551596 52.28745164778512 -0.4027798363058543
49.807830229290765 50.818171889084 -0.35205148199586195
49.8364262176874 50.59667509854793 -0.3530150501777452
49.87876056263608 50.51050173667843 -0.3544788270944176
49.950752814115546 49.16326962552154 -0.35856543370256033
50.128981967482936 49.15371866147033 -0.36456487625980305
33.64538298285861 57.77311793110024 -0.29037508177613663
34.69494173137505 57.48589723605392 -0.2586012695200847
34.78154779466068 57.48354882644678 -0.2570541743640906
34.727532391024596 57.481119312858134 -0.2578857719623584
34.847559823673784 57.47056501980291 -0.2554322120124222
34.98151909432788 57.420239129675046 -0.25107653813831776
35.02217352164067 57.41929898489179 -0.25037654958200617
35.34112676439197 56.89201255376452 -0.22241742485319232
35.898972985497394 55.3435269331546 -0.29059274831858023
35.87330428629904 55.28873158782421 -0.2882826994479369
35.85155091608962 55.1912540610686 -0.28319842150532165
35.84335873113858 55.13193507929162 -0.2799495054958767
35.90427799271544 55.05699652630284 -0.27238876286849206
36.01632162748154 54.46020442526741 -0.23232610614432597
35.99009882020435 54.383061801236394 -0.22971875196973116
36.205581656327624 54.7176966042033 -0.23709422758571772
36.1808558737625 54.627919225744336 -0.2330215562012952
36.06469529108732 54.45414397528553 -0.22935588723329403
36.00444434704127 54.38125557466856 -0.22881681419693395
35.9686984936542 54.284910267060084 -0.22594030466732773
35.93311422044136 54.19112824714589 -0.22343666969218973
35.905356883762735 54.09428824304398 -0.22058947469620177
35.8754024783359 53.993783717218356 -0.21798211801388362
35.8508777025636 53.89861175941644 -0.21553094949994267
35.82489719667655 53.829846628417606 -0.21443898954490914
36.191056487898585 54.62848562173862 -0.2325113544167055
36.18298725752967 54.52081004251778 -0.2267342216436778
36.15822224115704 54.46026485843297 -0.2246497303136734
35.36615403132903 52.24487823986112 -0.21580179204557084
34.02036134164545 48.69938646030588 -0.20965727328028427
33.99827850724301 48.61395560760459 -0.2128108300786165
35.62492007292538 52.61583547097543 -0.30720861221881535
35.474773310799904 52.395985607976236 -0.20787294091845615
35.45654695994449 52.32867599181242 -0.20916731126790084
35.445142733784685 52.28810809923401 -0.21002585780816013
35.40886131553373 52.12600917149584 -0.21326453639203363
35.74189023507223 52.723465627732764 -0.2960603871741498
35.73517361735803 52.65095557698508 -0.2958153120013404
35.46809479985775 52.05689933503069 -0.20951278884471863
35.43611086144229 51.89033662178888 -0.21349151263822513
35.35601840514504 51.82915512240013 -0.21995623871081255
35.310232902805886 51.53634147960724 -0.22817619542887985
35.24403708702037 51.45454292334167 -0.23449118249006046
35.2201926540432 51.36216660495381 -0.23825629203602783
35.193905163457565 51.260440500429894 -0.24259335916210206
35.16863124948059 51.16245052263562 -0.24694187137413415
35.14340606826383 51.06790404429625 -0.2513571504222246
35.1184176801604 50.98758006748463 -0.25545175711755896
35.79540909501753 52.60078462855863 -0.28885895397362077
35.74793991563972 52.35135339767427 -0.29282123447885916
35.49193061053415 51.789802388602766 -0.21094425405654846
35.158763635473406 51.08242032216981 -0.2498944597337251
35.11703367306221 50.95681408648986 -0.25651414948973805
35.100066966048885 50.90036542960413 -0.2594455004344388
35.03472844765706 50.57005703978245 -0.2753666202728325
35.8860847840064 52.55093288251124 -0.27871210858729445
35.881911012970775 52.49648057788835 -0.2787991262261036
35.115125130924056 50.53992188110793 -0.2715411929288404
35.95953668354154 52.547502935622056 -0.2708287904535571
35.92296975589615 52.47257634906702 -0.27430947434532593
35.91736408936201 52.39373420968121 -0.2746811654537754
35.433349195484176 51.01361721721667 -0.23406440867755307
35.40953597132884 51.00346157001755 -0.23593695329018155
35.22262732474961 50.51796370371165 -0.26580579607975996
35.4669289417926 51.001229559841285 -0.23230941976786482
35.48960242014637 50.93676862108596 -0.23309976980384153
35.478566015228736 50.842510654019506 -0.2372129770933617
35.316357158956876 50.49210128068476 -0.261142799070611
35.38867258184906 50.472215345960606 -0.2575338656606746
35.42382513444529 50.24691434250017 -0.2652197645742624
35.821448831599106 50.678272004334815 -0.22267730197993119
35.87831871752184 50.65151223618144 -0.2204190023726434
35.87972099483625 50.5903111726365 -0.22302253771908498
35.938749776482325 50.431394062213585 -0.2269948243280892
35.97078353822618 50.39680543222287 -0.22687394050125487
35.96807286061086 50.358116657533614 -0.228936022782601
37.53647136141812 54.09208177415488 -0.25072795043468227
37.59447737687204 54.067999050392515 -0.2758920825943335
36.31908017700961 50.318121673380006 -0.21231919609745542
36.32307682355774 50.239126525522856 -0.21650940258166343
36.40713261284471 50.21203640328455 -0.21391589339249814
36.366111119753164 50.213321960986285 -0.21584898850300221
37.81872390443492 53.76126138813947 -0.2188215900074717
37.86265682475476 53.694020788904524 -0.26210742515647933
36.49088568459629 50.191686984551296 -0.21110470151533306
36.447058502311705 50.1895208977957 -0.21330650088737407
37.93122426185923 53.676138340510924 -0.26879888547915737
37.602871872955596 52.78305668042189 -0.25283557170916987
36.91626871846207 50.950095128587385 -0.22898299188175186
36.85443710064981 50.82266674241107 -0.2435725448314165
36.5492445533183 50.17579775604995 -0.20932824307917908
38.02845876016701 53.65876527319528 -0.2938967319498731
38.01388704608043 53.65397822705626 -0.26525455116823093
37.71275775594438 52.8482118350337 -0.23844033503113576
37.67643950466277 52.797120857831956 -0.23514109626035365
36.96280587158456 50.968034102170364 -0.26439721414825945
36.94282772865101 50.93249063414453 -0.24439316840115066
38.12520838153607 53.626177759316796 -0.2581244048192692
38.092001854026385 53.62765284367873 -0.2550266338013062
37.76239454655205 52.6692937252858 -0.2250745917886986
37.74021467900146 52.56602978928153 -0.22447115708997356
36.792863212099626 50.131670135018396 -0.30669075342588636
38.210973681737116 53.60078255581144 -0.24375801972827665
36.95679447323375 50.2209724797746 -0.2880998270432729
36.84198754284118 50.118204947617315 -0.3048148773853524
38.30388456710348 53.57590627166952 -0.25895267989117404
37.084056033784975 50.27562789105033 -0.2752380987504237
37.05123437185562 50.27689438027476 -0.27708942274769327
38.40318697810416 53.54792878634848 -0.2646570727312172
37.157109316027004 50.25575990478273 -0.2729113754669296
37.1152731869053 50.25406322857051 -0.27547341561177846
38.499562124090424 53.52385159461421 -0.2542749073474036
37.24264733494091 50.234668662524584 -0.27026444495114277
38.599189034878464 53.49823803432444 -0.24627404231916422
37.341214217332265 50.21170672090956 -0.2674782866982088
38.695824510211374 53.481370869549075 -0.24251586296645034
37.43807264273312 50.18142075904842 -0.2659700581476221
38.84590575837467 53.46005005670204 -0.26059132253792544
38.79106577597418 53.44812103546525 -0.23627906435114865
37.504509654680405 50.14412500809261 -0.2669497179033429
37.50423671522683 50.06474298662887 -0.2754133418684066
37.475975960813045 49.96769662636954 -0.2869578049314886
37.45807461947463 49.866276367413235 -0.2985854787828046
38.890995722931876 53.44062870525118 -0.24691371789050004
38.891255967063486 53.42875428107551 -0.22900014514585287
37.525179820284876 49.84882069925991 -0.29796653781258187
39.020129489337606 53.45510979357404 -0.25354152623561726
38.95605913641797 53.40152333735457 -0.2302814085481723
37.61770750677212 49.817195933108195 -0.29826909204476
39.123801448889274 53.45987640141129 -0.26781897885373845
39.108118174062554 53.4555252405064 -0.25683956565222493
37.71511838347952 49.79882215396995 -0.2973621444443702
39.21342343367666 53.42961144232679 -0.26788645624527785
39.19167510427336 53.42513305485558 -0.25370913176022086
37.953787906229955 50.08978280417421 -0.258207623351103
37.938968789173884 50.00737062941628 -0.26796656992428436
37.82723550504403 49.79670282973997 -0.29465538157969373
37.76364253850328 49.761290577432284 -0.30026965615160006
39.308424529717705 53.40280339675976 -0.2534494969833521
38.020202574458324 50.058092847640566 -0.2604494745898055
38.04410791691849 50.00745249897443 -0.26586395084385184
39.40178085413073 53.3750478634193 -0.25628214755929796
38.11125678172679 49.99442504756875 -0.2663426905566634
38.114052620304165 49.983331490771526 -0.26757341393079587
39.5020097457752 53.348711437395934 -0.24953346303591045
38.22243371808725 49.9965150787184 -0.2648284970203741
38.15225504004218 49.785404936880184 -0.2903741037302817
38.14887291790932 49.701942128174224 -0.30026083738849885
39.600437588042496 53.32399475072261 -0.26034599074228326
38.324532600270324 49.98361727112804 -0.26567368944944825
38.21392882888866 49.8137057342479 -0.2864781019413665
38.17325493199017 49.701491857514064 -0.300096085793677
39.697238499795866 53.298754400753126 -0.27381067177864227
38.457104188371225 49.96545173705663 -0.26776723916001727
38.41563803552172 49.962836294988286 -0.26801924819560374
39.793543962446016 53.2756900062404 -0.24252419249712992
38.60803177878568 50.02665192252543 -0.26137547957385326
38.497730473775974 49.95376513254895 -0.269323166040329
38.503186804412415 49.93671397579478 -0.2713978917932519
39.88047167505138 53.25550097501532 -0.2501731382234395
38.63332626624877 49.90236413702028 -0.27664785807952225
38.59227269955445 49.86033688884267 -0.28126816833026985
38.54216818948251 49.7539567480507 -0.29365187972793516
38.55093427658583 49.69037243859481 -0.30136661612584237
38.50163343333289 49.58968690274354 -0.21284061507551316
38.716194995655364 49.89411533640198 -0.2788103213986905
38.65064415544234 49.65484827543028 -0.20893722393980704
38.549969018329655 49.57385325554856 -0.21463948240747738
38.825809681295034 49.89704933650339 -0.2804887842528862
38.71793173854761 49.65162752284427 -0.2101922558858979
38.72852339375423 49.6355652732977 -0.21174388188300622
38.949126719087076 49.891335303757714 -0.2841492261180748
38.91733205270293 49.87529071568959 -0.28524928174452957
38.834719428557946 49.62301975187997 -0.21467953402755327
38.80635645937697 49.59883914759175 -0.2162054083206297
39.062875624847834 49.85975370705712 -0.2913442208131871
39.00808183586753 49.85198686741856 -0.29056696547269356
38.918233819919806 49.58596383526463 -0.21956615684492747
38.89254238211614 49.54180608988298 -0.22279339555724634
39.12508719393592 49.84796512533041 -0.2948680505334353
39.02695602568104 49.558780777063646 -0.2244329978177943
39.178286642741654 49.80859660860002 -0.30147819930658665
39.110022029623224 49.54044751796467 -0.22817545239511
39.19897564034609 49.39675183011607 -0.2428412973345827
40.875920669153665 53.47228031986397 -0.2299504707295379
40.81911805471175 53.38662495794235 -0.26135043159076865
40.77324239329997 53.30569077666495 -0.25215630506347997
40.725897221065125 53.20973869070446 -0.27437667529295773
40.72590315718452 53.11991631856894 -0.27609471642514977
40.70569570986688 53.03832896596643 -0.2697782903966159
39.27303399264654 49.37750070507063 -0.24673347654078315
41.09172662121117 53.83974420864415 -0.26774792238521905
41.03453288368438 53.745776298796045 -0.25774482641178115
40.97901715258353 53.651772905448524 -0.2479920827128393
40.933478825132745 53.562967005873666 -0.23955516308310157
40.78173276810161 53.14524018216498 -0.28486088866423664
40.755920585580114 52.941017048802316 -0.26947002320913127
40.70926234924625 52.9516603517232 -0.2634678309748327
39.36599415608051 49.40370331292524 -0.24759011642876855
39.364483716697016 49.36812692062424 -0.25051741654993703
41.21118707517079 53.9476537362988 -0.2844582010008972
40.90327198805856 53.18812073715147 -0.222071926116104
40.82628813103377 52.91941992808644 -0.27840285178022744
39.46525350627581 49.31070695901427 -0.25883512568231964
41.36951868056232 54.110089456056194 -0.3076529913564414
41.36069839856869 54.072208899253226 -0.3049126046122814
40.93822518295918 52.89353513746531 -0.25596646721833105
39.553011437675956 49.25973286323208 -0.2663233798763099
41.15170609006038 53.25901773192274 -0.2501821892483002
41.02132275452562 52.87250040829536 -0.25575188986954456
39.641928590951295 49.23775462436968 -0.2716310561943027
41.132551931760084 52.85241135799549 -0.23104790546095866
39.741283793841596 49.21160029416335 -0.27788429893828837
41.18596780962704 52.83503257136491 -0.2362785757047779
39.880496210854474 49.20470381264829 -0.284591235043068
39.8419833208871 49.19356658558957 -0.283747238895035
39.957504905402615 49.18763113149286 -0.28954319993574634
39.92021847287606 49.18447501783199 -0.28804020101742006
41.46439738506857 52.87037350466926 -0.26566366488763277
40.03404155158623 49.1577117639282 -0.2955978299673782
41.596412845106194 52.875957189516605 -0.27942636896972445
40.132032727566845 49.11307532857625 -0.3039729991038968
40.145287443129995 49.100969322693096 -0.3055799476535734
41.65542989435454 52.85806947573582 -0.2852709680941461
41.760977104602524 52.83589164343061 -0.29590324604110213
40.92376475069167 50.70330064422913 -0.2518446895733351
40.830157004711445 50.262637227589835 -0.26855210636356747
40.80164011902676 50.18975435674596 -0.2707343555148884
40.76053411802887 50.08482614569833 -0.2741148908230493
40.74503022076415 50.02720988035556 -0.27661447208788836
41.82637660601682 52.80553371441423 -0.3022899990927921
40.847568807565594 50.27113891770901 -0.2694158987683174
41.15832176319103 50.63499061217747 -0.27566341831154956
41.24773538739348 50.61637099436977 -0.28444366178233177
41.210820888277055 50.61591535785784 -0.28120092186031925
41.35856132102586 50.57926331989982 -0.29603055873745593
40.76783082395962 49.0048085399872 -0.20783285307676022
41.43470588373412 50.56133482352314 -0.3036599598781772
40.83329894927247 48.99121773128725 -0.21129779279907515
41.041761102605896 49.2835972684894 -0.20906070989468015
40.91755243899982 48.97607699603623 -0.21569971449038827
42.01758991538769 51.352774375181944 -0.20859531302979856
41.83752491160408 50.7268461940696 -0.20809224891646863
41.87508337358242 50.720812116330514 -0.210586346841175
41.45072491796569 49.084795213892846 -0.23684958701045622
41.420778871260026 48.98993937091748 -0.23896841282904668
41.431049971660634 48.99553289142075 -0.23926762349379987
41.42005056368895 48.89079198749851 -0.2427645151866747
41.40560687196146 48.8328458688436 -0.24432591744941
42.496904220610105 51.24063231005367 -0.2421653601081113
42.6783258385822 51.19911304917763 -0.25485041867955455
43.47117478276682 52.98364781798869 -0.3064546860797679
43.43574208697767 52.93011421094113 -0.3035762634142403
43.378272048794685 52.841632263045824 -0.29893640102153174
43.34032741495013 52.7492115416191 -0.295702483182834
43.30813784393845 52.69889698404011 -0.29317811587139453
42.71877468752302 51.20189435363731 -0.25754049310086996
43.409918220168265 52.66521601432253 -0.3000600579679878
43.47252475588833 52.65209621230707 -0.30432489249876504
43.12423092822627 51.094992484037434 -0.28608944840715034
45.67788957769449 52.098894460863676 -0.21145297410280495
46.692036839752554 51.99521701532926 -0.24612880357634553
46.63888959040867 51.90344883837942 -0.2441632846483786
46.611207424130654 51.86416255173265 -0.24314738425776322
46.92803629865456 51.78485696426608 -0.2539265232140711
47.11299662484032 51.74075424454568 -0.26024581843071565
47.25002049140194 51.69962418303225 -0.2648823315131648
48.34378252450279 49.57548879476936 -0.30349349393517666
35.65652939685565 55.67620504982359 -0.16608484289997616
35.88154778455301 55.91903393415545 -0.171695543319053
35.870200625929876 55.8221248569686 -0.1678512814124059
35.853124548962796 55.75852981910956 -0.16554934528008425
35.76397965608085 55.619226122191385 -0.1616462009084861
35.87976410503879 55.68208060444663 -0.16189247901115666
35.84510274854692 55.61814198563072 -0.15997846196172374
35.900162837653525 55.34685835159381 -0.14810044705087055
35.883612631419936 55.28277933533106 -0.14597994924726088
35.85447349001042 55.1830011589291 -0.14284141023945776
35.9178687677277 55.04820878966646 -0.13635356310783084
33.86192883802782 49.11741366819087 -0.2021420806947274
36.01103139020854 54.45980469747766 -0.11358339397754406
35.99931140795623 54.4157590947573 -0.11249215717980353
35.95524040356669 54.29674466186273 -0.11005551123928363
33.86115974410705 49.06726783861475 -0.20351775683331486
36.21089551280014 54.716256648423524 -0.117345642958177
36.18438242435584 54.64046628508591 -0.11526090923934679
36.16529516321982 54.57568071022004 -0.11346466021654364
36.082825228595745 54.45655305440185 -0.11156017615417539
35.996565436836846 54.37132153220888 -0.1111760794892868
35.96914835862499 54.279390061207394 -0.10912663394996006
35.94240131836288 54.2222744349983 -0.10820014277537507
36.186315445048834 54.60914090626298 -0.11410171298145794
36.18997273315292 54.503381912018114 -0.11033946961190688
36.15738764685344 54.4567628338344 -0.10960251991420025
35.57084485953782 52.78603228535529 -0.2036057219064133
35.56661060164293 52.73928665001386 -0.20337350716934927
35.5224842944999 52.63514910973753 -0.20554048618135173
35.511152219904424 52.58053491166909 -0.20595820199300366
34.04545146295744 48.79694343897339 -0.20608886440534435
34.04051293798964 48.75452751138584 -0.2074864686585423
35.56597604697089 52.69452688796556 -0.20294935311160836
35.553333478866904 52.631237151046705 -0.2033053110152409
35.54246988076568 52.52362385624171 -0.20340259767365768
35.503523023567745 52.44134179949443 -0.20589454458818218
35.48093481679024 52.373916680817686 -0.20740898207786188
35.495880233608965 52.26804645437598 -0.20642049226679332
35.520831705906815 52.20043917961219 -0.20485932474714796
35.24282757968565 51.43517541991027 -0.10852129149434524
35.224297580144196 51.357738818647135 -0.11021573929951986
35.19351640800237 51.267808957845006 -0.11258680943003392
35.16823057562103 51.170009117398635 -0.11498530084729948
35.15224804412581 51.08761906786401 -0.11690004338529593
35.56902458155317 52.095450648772534 -0.2020078419075106
35.146106283051914 51.035220902661294 -0.11802180326923578
35.12346312419327 50.96885009858041 -0.11998589579596886
35.100585801918825 50.91589868756689 -0.12172515389513419
35.024687879237966 50.56555284912019 -0.13147122738997358
35.703553274172315 52.02320433042443 -0.19303019290324197
35.695535989047016 51.94849293320186 -0.19440467542613626
35.58195085282411 51.762056861366844 -0.2050653201424532
35.24026706855719 50.959928312641864 -0.11631615457350865
35.118553939183734 50.5422005769777 -0.12909657994191245
35.73473619531217 52.01785043031767 -0.19087584034912908
35.72158470913726 51.963162883538494 -0.1923783582062022
35.6688455385147 51.72858056020085 -0.19956763234776692
35.663964320945745 51.66753839347799 -0.20104677437080842
35.43754403825047 51.00920553127383 -0.10890920036167676
35.42380352799815 51.003325610977704 -0.10947496766514193
35.21740681989164 50.51552683790636 -0.12669904784549033
35.71998244045506 51.6866912264098 -0.19679410812721243
35.47954712480683 50.939551208762985 -0.10896690088569791
35.477522916923235 50.84929896887424 -0.11095102111495656
35.314769153845575 50.49158897995851 -0.12430842153826649
35.404881759597714 50.4666131195113 -0.12212450319538101
37.49080005061691 54.12234372399032 -0.14169341523117582
35.984792238990124 50.34842963073204 -0.10842568742062529
37.556217030344804 54.0792814805732 -0.1481197487335442
37.5970381853118 54.06498174301704 -0.17399173658745384
37.863449376376536 53.702245505925504 -0.15265947458153994
37.92223826466236 53.66950037500011 -0.17268043927969332
37.60666089815058 52.77413736818847 -0.16718727261386457
36.92439060259744 50.95670521769923 -0.1463800115638424
36.60216210864844 50.16937161836681 -0.20730930626763255
38.01027987295167 53.6445408610185 -0.16384416613403055
37.73211872049512 52.840033282145725 -0.1615849163642234
37.68051402646027 52.78850828916667 -0.15390092070165892
37.63639269614192 52.563581946300786 -0.17017132242849495
36.96109074947189 50.971716172002516 -0.1436358161934807
36.944485706646915 50.92833530772391 -0.1468222772553526
36.679845528561195 50.15242389562103 -0.2049084367638375
38.144305439701974 53.61662311076223 -0.14255100227718637
38.103158725180684 53.6193561775893 -0.15838938903155353
37.76034822545418 52.833531314388196 -0.12636977262730642
37.75817698640817 52.697974659802256 -0.15139442702210237
37.76885852390494 52.678845053410335 -0.17225939070591062
37.712877877605465 52.56379616129055 -0.14690237983289517
36.7734570539877 50.124593440931314 -0.20267303085077393
38.21180516035208 53.59624553933209 -0.1541715236705274
38.177575343065186 53.59840923575879 -0.14486747925723564
36.926369070913324 50.182392001798036 -0.19265443298717616
36.84068095225132 50.10799956266481 -0.20098311082737277
38.30620902281746 53.57041875242123 -0.1497853353449259
38.252890322636866 53.568190467449824 -0.1213985054167035
37.052683299702856 50.27286791433966 -0.1817031524748782
38.402219524515836 53.54906071822415 -0.15658097930325782
37.138440738275975 50.25419939520159 -0.17972570688566086
37.140130269955904 50.246502951273335 -0.18019467843717513
38.500414932723714 53.52753263766028 -0.15179210631677784
37.236459124516145 50.222039607053986 -0.17849260469853562
37.21501111658465 50.21735036952477 -0.1795368812189016
38.59650354987973 53.50468110996233 -0.1579309061807537
37.33304996974817 50.197829371551265 -0.17705851718848759
38.69465233756657 53.488443835359575 -0.15639739832601085
37.43640949705746 50.177863066416684 -0.17542320789694615
38.847280766614205 53.46248913365206 -0.14556127149665005
38.794157590762545 53.4519797722917 -0.16092258225961606
37.501302972066775 50.14683314940448 -0.17594581971183323
37.50060401903055 50.06667189664775 -0.1819861562879656
37.478057983976676 49.970792569204 -0.18979889228615116
37.449545971329684 49.858822852541074 -0.19899731859077874
38.902535653560356 53.438499851264616 -0.17858963603573735
38.8876385634265 53.43156837973419 -0.1757541224709982
37.51950685258867 49.83516673644613 -0.19923407138277227
39.05891506939823 53.48262905308964 -0.17335109968253487
39.017944586450696 53.45629342790597 -0.16072302240980946
38.96237565792467 53.40202326666951 -0.1778381388878684
37.61764973849236 49.815664632100734 -0.19876414336410453
39.124844602132114 53.46168673641868 -0.1679280319869386
39.09581635487055 53.4603862712646 -0.14283638375448632
37.71362106955194 49.793185012374266 -0.1988695232199643
39.21440629170299 53.43412272880737 -0.16631179110847072
39.183805228322974 53.42847695625238 -0.12136273776965645
37.944567659456496 50.20836881511058 -0.1622121900062965
37.943983572016656 49.992457448911864 -0.17968017036974637
37.8621158415021 49.941598709882875 -0.18480425615973856
37.83512793947954 49.79297944563316 -0.19714551999242813
37.80461289862999 49.766118530075076 -0.19972163299184253
39.30909832560377 53.40619473665081 -0.14982347747258828
37.99387491570631 49.95752364593496 -0.18202954764445814
39.40444852213355 53.37442838117627 -0.15386729478781377
38.094551787755265 49.938383646511 -0.18282419339965011
39.500772710359286 53.34939114299853 -0.16163997934301622
38.15645146060252 49.91196198842396 -0.18470173874530893
38.17887112857284 49.79791362413569 -0.1941545545521296
38.14820886708019 49.6952146600335 -0.20279985502848175
39.59645766712275 53.323438759438496 -0.170219230236293
38.23196258541793 49.85764745113784 -0.18906456072292477
38.26945915514969 49.806024378038096 -0.1933990058864427
38.16625272861241 49.687543225441786 -0.20340019082886568
39.69563455140625 53.297892408884906 -0.15748005021276484
38.35204370431731 49.767845477459865 -0.19679074789673323
39.79513460978092 53.27404592177932 -0.14023499497114547
38.45345173462377 49.75522636513008 -0.19837528299340784
38.42424082236903 49.732359821354216 -0.1808429338359252
39.879901338695 53.253022536615056 -0.14827899870684463
38.60798359009133 50.01007559034283 -0.1780891972587447
38.592984191608856 49.86108572994404 -0.19062858283511813
38.580481252969605 49.787838738278374 -0.19672708913552495
38.55821800118602 49.669350183695656 -0.1338053302551496
38.49538044915175 49.58372386106489 -0.11336045905952255
38.60483385674342 49.703073636951 -0.2042415680116333
38.62875576692381 49.64324484467656 -0.13343506492591506
38.71381390098859 49.605221674633235 -0.11517148508513195
38.94619151807594 49.792224249936844 -0.10986237875775472
38.844442792893446 49.6246976996582 -0.11634355035972883
38.80658770932659 49.58091965837904 -0.11789565599476956
38.83089265460345 49.49606992941954 -0.12256722918250261
38.91271123812691 49.5606691034779 -0.12082677381411745
39.0172128052884 49.54417632147338 -0.1237383408830925
39.02625423316565 49.52640341209187 -0.12481265393089422
39.0968065766789 49.53102979174267 -0.1261187123656905
39.186891928571704 49.4121172668835 -0.1341047785866247
40.87302520734455 53.469633992314144 -0.14585046190984016
40.825249876312135 53.38781488905347 -0.14046887832596278
40.773996356452066 53.300244974390694 -0.1347668590828362
40.72843971189321 53.19850300180246 -0.16993169135089134
40.7287677041137 53.10541647272354 -0.15887622343010127
40.70589024105705 53.038881223353116 -0.15519289613025708
39.268275134835164 49.378803384071944 -0.13773517673076907
41.13757191304231 53.89442157433478 -0.17567805555361796
41.08461032814086 53.822717933007695 -0.17001752192138028
41.03913375007725 53.741390708253526 -0.16460065181457423
40.99073772522282 53.65684077873589 -0.15893392038883453
40.930578272553866 53.5648751034801 -0.15231804227062257
40.906047677287056 53.51853544841065 -0.14938835712521592
40.779038148053154 53.14259851083092 -0.13157205179426668
40.74510951786818 52.963128910521135 -0.17208485174474006
40.72335182761706 52.94613670816782 -0.11735491106483434
39.366802272121724 49.4041783538702 -0.13902096970814443
39.35874772237046 49.36809133631943 -0.14059024081370317
40.83708539771369 52.921234618181344 -0.15696243587348185
39.46623440580255 49.31032592961439 -0.14633708018307626
41.41995875373954 54.30207431358665 -0.20698384406009995
41.41035536977143 54.24093574927718 -0.2043650531453397
41.38753202044975 54.139237959571744 -0.1996488944827398
41.36203033221494 54.06466537324299 -0.1956673069355106
40.91809716470505 52.896901612604715 -0.14307574498058376
39.552426963878 49.26551848603538 -0.1509759926140841
41.15341716583036 53.25863744408519 -0.1604526439772979
41.032884574356586 52.87166323603971 -0.1373961396694705
39.63802929028932 49.23391425329748 -0.1550481813657812
41.13411158053105 52.84314425310989 -0.1440129665238635
39.74291110974542 49.20916043271018 -0.15949039377634194
39.84713684574653 49.195204931708396 -0.16353230632764687
39.95443768463514 49.18839970951872 -0.1674881441810447
39.934645270465175 49.1765909880665 -0.16735534590956308
41.507978069948194 52.866550055886584 -0.16997341384917028
40.042737705662034 49.15486752986187 -0.17214255268842624
41.56568318047046 52.85445878824209 -0.17382029474982263
40.164865806617904 49.1058413247119 -0.17882566456989085
40.12413082111585 49.10496120626717 -0.1773748869135236
41.66022154497429 52.83725781354859 -0.1801689033367993
40.231425547850364 49.08113733497552 -0.18243221954500977
40.195173212353694 49.08436021481173 -0.18093185630093667
41.75209701722082 52.817694581484524 -0.1863234407147415
40.92861408041111 50.66456940592591 -0.15437535541893344
40.916969899785435 50.58792945750122 -0.15602187232576586
40.92116815258321 50.51337244259476 -0.15857938900303076
40.82788758296422 50.27679945210713 -0.16124562392726283
40.793711121715404 50.191337329351235 -0.16242127013721547
40.75761257393554 50.080882545988146 -0.16453055743394693
40.74557586080243 50.03594036817093 -0.16557507045566017
40.31404164726385 49.056042290161415 -0.1867173216780263
41.81095940516201 52.8025309629782 -0.1902580620757745
41.033915877647146 50.65358183117694 -0.16084174151006675
40.86257819689286 50.301552691370084 -0.16226367471767242
40.82676555976596 50.2180396517575 -0.16322164099168382
40.7925747611415 50.11391373789767 -0.16513280185681856
40.74725120707638 49.99974072368868 -0.16700414998138083
40.41843918818238 49.05048166504065 -0.1911197136533096
40.57058839913208 49.07356865521947 -0.19640426211582998
40.50814279049864 49.049502401595525 -0.19483212872085204
41.24805330810304 50.585290619240915 -0.17543343808558373
40.77203677896665 49.2756384892412 -0.1967306542214114
40.66584393300679 49.02863141354018 -0.20239309864242744
40.84984778168628 49.28744122883433 -0.19983009925863546
40.810891163097914 49.264320187992375 -0.19897226405070695
40.72046448689797 49.0167293319185 -0.20525840937881673
40.93528636819526 49.29272670870055 -0.2036216656371841
41.962505215831825 51.3334425892311 -0.20518926075452398
41.94079751200411 51.25281731115669 -0.2049215174594442
41.92237595449063 51.15691074190568 -0.20522002173094117
41.89908176824752 51.08836247085907 -0.20485834093966981
41.585893345109405 50.50813861534424 -0.19781760423369463
41.91578774254296 51.10785886317568 -0.20560267983807595
41.89568739625144 51.04623522570492 -0.20538214350661083
41.87518902077637 50.960981065809776 -0.2056441667497807
41.8488816178407 50.86615623313732 -0.2058377609522304
41.839198605077776 50.78208993050609 -0.2069871787251319
42.69099040299777 51.19497071035275 -0.10946420257152373
43.42894015641888 52.91108985165986 -0.1363868990401411
43.38292054632248 52.84073548276383 -0.1345207942102502
43.3378902915299 52.747784353704674 -0.13262393745511564
43.29763270521475 52.69710551099515 -0.13106062271524788
43.42453020182001 52.66479265500206 -0.1353190240788611
43.53192609162916 52.63668207861627 -0.13892105004179603
43.46728240307355 52.65063691565553 -0.1367328456564283
43.627858707018326 52.61492161456802 -0.14214660693767034
43.00872353877005 51.113106585308756 -0.1203570703265965
42.116020241643255 48.663524232150486 -0.10868290626996978
43.73496462230425 52.58377311015561 -0.14573577202384352
43.06167566052474 50.89718980665761 -0.12271883450699192
43.037914432629115 50.828985375408806 -0.12214829878999575
43.02416715873877 50.73052825449157 -0.12203672328330621
43.01104116816932 50.67565726918549 -0.12181236855824033
42.222359943828785 48.639181326377695 -0.11198405111171579
42.18367319571707 48.641462955744814 -0.1108444034286594
43.89442667968036 52.831214760838854 -0.15206195873742392
43.84065938637332 52.56013627047886 -0.14929582838640698
43.03593003136724 50.6121590421046 -0.12287977440998742
43.014889254330996 50.55027260026068 -0.12244442123518139
42.293011535511255 48.61685798825659 -0.11423376187820261
43.9030297859952 52.54349862230742 -0.1514046479555211
43.6589588401086 51.849522343142375 -0.14181211075599098
43.63304331078202 51.792367142077694 -0.14089992320846897
42.39166566339371 48.592233645265836 -0.1173341652212702
44.00850880884346 52.518483527588764 -0.15495683504395547
43.820723978886804 51.91492898382276 -0.14740469708531695
43.79269022151598 51.87032852254977 -0.14641668754870216
43.66044001399911 51.7364959002126 -0.14182188950031954
42.49732977027258 48.56309937791176 -0.1206836972706589
44.101890812198675 52.49228086558051 -0.15809132276059487
43.84071485497941 51.927992013817814 -0.1481042161235642
42.585109104062525 48.54087668532928 -0.12346080424391881
44.17203106739747 52.473942759244 -0.16046740819062397
42.679774172515586 48.51485004193122 -0.12648371363633495
44.32416443451294 52.4359256307182 -0.16560365603039467
44.24615756582426 52.45524716302022 -0.1629567389527578
42.79262838538419 48.486650803426926 -0.13006237061421383
44.394161468174026 52.416199049280806 -0.16794921965149334
43.551344702172884 50.0843488141261 -0.14215948347235155
42.89924194964908 48.452690530217744 -0.1335277809821087
44.472030276433216 52.395818084035476 -0.1705911310375359
43.60908396625996 50.10802720203461 -0.1439321264944573
43.589554824771746 49.981515246904905 -0.14391686936774928
43.56641988856306 49.87642828187657 -0.14371397414111628
43.540490865585895 49.781744945314884 -0.143394735709771
43.49559241800755 49.653420187624995 -0.14270189250790974
43.41099142639868 49.60310910686645 -0.14029743587437057
43.392899800952584 49.52511820222769 -0.14021447215923288
42.975287396267085 48.437355862153765 -0.1359207973632677
44.56587277401546 52.37516309035457 -0.17375685724376783
43.54714380577451 49.778083330798665 -0.14362123472068872
43.521183163948066 49.694296720833776 -0.14327409802669283
43.49403849920503 49.620840200680775 -0.1428416086721374
43.439704217161996 49.39266469804959 -0.1425645655696681
43.41786231504068 49.290151121992466 -0.14257385813294177
43.394097293263854 49.200640364958495 -0.1424536979044624
43.375223258319096 49.10418311343737 -0.14256289076480871
43.367454092784335 49.036938093334896 -0.1428282556048518
43.12282409756871 48.39993628122413 -0.14065459482148254
43.05991296969076 48.4155248872897 -0.138632794948166
44.68344829830289 52.343283998061644 -0.17773392384701692
43.171943250177 48.397642318004785 -0.14213325872359503
44.8108507147907 52.30961823124128 -0.18204833891632488
43.27326213198939 48.36255144001589 -0.14547637010393702
44.90236874101456 52.28624387629821 -0.1851313296608459
44.21138896421971 50.556491776998605 -0.1621773476409306
44.1898574724554 50.54291463125236 -0.161511205771039
44.02800194933125 49.999561406038225 -0.1581569013651849
43.97346043152589 49.98126864214587 -0.15646507107135296
43.376386865380596 48.34212299892435 -0.14874795385474088
45.00573061390891 52.26177864017929 -0.1886494308317948
43.65766403446564 48.692800099623156 -0.15442159217899482
43.47020488333419 48.316110964453614 -0.15180876101836577
45.10506630515567 52.23717226716936 -0.19200064559397917
43.67117631943196 48.641070425297045 -0.1552496267717684
43.653217708141554 48.573409653213275 -0.15523174412663085
43.63733023555979 48.47563088292473 -0.1555321427669419
43.61776166010247 48.378380343648104 -0.15573813829097438
43.570586970957265 48.30297573596693 -0.15494396788169162
45.21424629542777 52.21164868719249 -0.19571901880528753
45.31138660996606 52.18562739591776 -0.1989936951752061
45.41834120732937 52.15814363918132 -0.2026353030144763
45.531233031204664 52.129792667823146 -0.20644905457328327
33.675003303839 57.76879467136378 -0.03245552860763384
34.77033356321797 57.488494715517774 -0.032702280630472674
34.84566348181956 57.48163759543402 -0.03297933056491249
34.98151066110418 57.42880201198673 -0.03281791267332988
35.0192632977475 57.43189045153994 -0.03303869184659643
35.00647231640798 57.34257251030781 -0.0316286867141872
35.33328193332339 56.87758931812682 -0.02603037394023479
35.79101760613115 55.59504342045227 -0.0089779590713637
35.93598671623269 55.89460516685358 -0.013905119303506824
35.93453425138123 55.79891641784767 -0.01247055222384151
35.932533801108214 55.682963813366314 -0.010752029684012773
35.880746372705715 55.60591987304588 -0.009445021342684198
35.93023917782832 54.17498969697877 -0.10720140882736029
35.902873921509645 54.09822978971054 -0.10587579882249468
35.87713401247915 53.9952315928811 -0.10392457903802485
35.86630525863062 53.89298660870569 -0.10168654334209017
35.823039375766356 53.83927908084999 -0.10178406365076063
35.558558122966026 52.73986301975461 -0.09264548106357494
35.5658034721542 52.69978960311904 -0.09209830860547527
35.55000889447355 52.620042594261164 -0.09220988598316081
35.52714488858729 52.50840972069333 -0.09257228182404977
35.49320791392262 52.431267128861 -0.0936179881972912
35.468238200493325 52.335640529840354 -0.094426704998869
35.444251296893455 52.23836948547263 -0.095350812263218
35.4423801928957 52.15868893101698 -0.09556682061172785
35.387856539338934 52.03121792407963 -0.09801681120090555
35.35542440789899 51.93837199898892 -0.09968741140434925
35.70054365693048 52.52469844756194 -0.08622653295285945
35.61329944934093 52.54423169584592 -0.08952124175274231
35.453735113144894 52.10215680274603 -0.09531767743630992
35.436194124559705 52.07111588528164 -0.09607846905747837
35.40118727474105 51.891637635266655 -0.0983110237975637
35.38506045094135 51.82948634572433 -0.09935624966129461
35.266742853061174 51.5381530647413 -0.10640771590050907
35.25678559050568 51.485268710215394 -0.10739524687687717
35.53382086403541 52.0259458447528 -0.0926993618273651
35.479063901308564 51.77034408752051 -0.09645636269388419
35.47215018014937 51.72199971472994 -0.09715135144685164
35.568055058261365 51.73746369024661 -0.09357507181868144
35.535359804686024 51.717973582197615 -0.09493763690074483
35.679279174638765 51.70045513939596 -0.08999735929093919
35.64924010719937 51.6195644432806 -0.09196669764477411
35.7217684205952 51.687957878999356 -0.08862550251913189
35.829765715756665 50.64926208233029 -0.10480696800403337
35.87371233044382 50.635240123760596 -0.10383350574065375
35.882183135435426 50.578081263941016 -0.10504133503112294
35.860654425647915 50.51434939754878 -0.10733492632743338
35.94772244990753 50.459638185630695 -0.10631329925659237
37.48839069932927 54.128708036891275 -0.0681541572928019
35.993338367303494 50.4133158541872 -0.10633452055782323
37.54197418178533 54.09378499541953 -0.06579691151526518
37.595703834950655 54.06898201105903 -0.06391769805921411
36.30326308618373 50.3040649575712 -0.10148698872987627
36.310947873023984 50.22796890317622 -0.10375363353455085
36.40330217516511 50.215487689710514 -0.10197765515786272
36.3658888006596 50.216625383884605 -0.1028197478945995
37.85727141332166 53.710158665452646 -0.07148939288695536
36.47585472645434 50.19456989929187 -0.1010235025668695
37.92248416636308 53.67396109066049 -0.0700162032374673
36.805330981069964 50.78041609834836 -0.07383805965597462
36.57726890117717 50.18170762795533 -0.09923607512303276
38.01449655523354 53.646883366493114 -0.06341725286666174
37.74309833649753 52.85970613096993 -0.07214456807577439
37.69516538015059 52.76514230299878 -0.05795461141908441
36.95872607992054 50.97481173713066 -0.0638993433458536
36.93776086286054 50.92087118987931 -0.06609732320422573
36.67581071466543 50.15561792896548 -0.09810358737731859
38.13781961105488 53.619912911457405 -0.036900577482121985
38.10280369145531 53.62403962927782 -0.06379371539483908
37.769876502372725 52.82655442321975 -0.047264160141827494
37.74273578338503 52.74926173787258 -0.04593783601922889
37.74453602680302 52.684947099255766 -0.04079991589140598
37.709194732895746 52.56402553361566 -0.046645461611681954
