ply
format ascii 1.0
element vertex 845
property float x
property float y
property float z
end_header
32.410414114509464 57.21550059505012 -0.30712464801310574
37.7049259910472 56.00608899327306 -0.4040447717052523
37.492740803473076 56.14957631162248 -0.3526843455577845
37.519113711006135 56.13986213008127 -0.3829026285535504
37.748317123684295 56.0180066409151 -0.4024538957587542
37.79855814341522 56.0336668853991 -0.37438405207159864
37.5590300896862 56.172296650498936 -0.3796836300702281
37.661102658768755 56.18846658860989 -0.42805739890795413
37.44204670089962 56.57757077015725 -0.37544692264144264
37.38111205669324 56.63373172111685 -0.3915620475774218
37.459886228469415 56.618337556430404 -0.3718559123679175
37.508914360545546 56.59269362484288 -0.4103214546907001
37.76656841969954 56.58986101662506 -0.388434795580276
37.81418133145458 56.59258414894854 -0.38664674781124125
34.31754222302892 57.53008539112865 -0.3054838992687589
34.74556663745495 57.43913817148081 -0.3733172420473591
34.99964290960802 57.37003878817162 -0.2903554693088034
35.045852854901305 57.35878636828219 -0.3104439738633686
35.74139715531326 57.15543170069085 -0.3140703906960863
37.521768750644306 56.7426164903673 -0.3762082242421798
37.545439729685555 56.75454144344297 -0.4170633165628838
37.85172457903211 56.60798737340155 -0.3607481687517691
32.979925028725106 57.96079835131217 -0.28530060539954644
33.03251250081601 57.938140683003695 -0.3112685295860805
34.336689078792766 57.56472253039175 -0.3641608162998415
34.74136762231024 57.45159360825089 -0.37323263530988815
35.077780700658955 57.378032750925556 -0.3183692037798804
35.38709052758037 57.34966426188614 -0.3934310155321634
38.50892560915781 56.580275290161644 -0.3515110249755081
31.88633296789388 58.29430467517043 -0.26056179551369296
32.101583323086004 58.25079219452468 -0.28689503187228244
32.15674743631414 58.19481451652867 -0.27126876422546087
32.949887890545995 57.99599584136354 -0.28601948411241934
33.00826884544293 57.97399511711813 -0.32399474544542417
37.76541184098378 53.99661829700192 -0.29982664936206405
37.815883487321145 53.95615958321894 -0.2703102104418535
32.68796569084702 55.36472160904423 -0.19311271278771958
32.56464055530447 55.40914668962351 -0.22957572596427656
32.702045334834125 55.377361548046835 -0.17380954631629647
35.90616978643898 55.35546003865317 -0.2619896719103549
36.01903249151832 55.334004077656495 -0.26565733591579566
34.05243381413038 56.02676645924616 -0.24566287609759113
34.05852445411731 56.103030291669825 -0.2214047804267698
33.887675086443124 56.26638809872364 -0.24350798105568333
33.906541179258575 56.31635004957309 -0.27335206916803756
32.36204427441457 57.087753733849944 -0.21408043992520293
32.44560081315929 57.05103880825432 -0.19451027787131225
32.48502225112636 56.98134731364245 -0.19884897073378938
32.313731129809334 57.28064639499502 -0.21878584216419497
32.343514161923224 57.27274418163224 -0.16870997707570246
37.494849761416724 56.15895342463577 -0.32888799892684617
37.511642950435196 56.15923423509218 -0.3215780113545301
37.6769859055424 56.07453539888414 -0.27597054631441365
37.72938833808741 56.07534493757406 -0.27434344544248956
37.50095890378599 56.17681995337646 -0.29217256039844863
37.565644288904636 56.18092107531558 -0.28533732919889765
37.62956187135102 56.186798439466244 -0.27176911018051875
37.78820952513219 56.1016890452482 -0.2449186912335004
35.04456736571943 56.94656960870892 -0.21698930906460165
35.49199960838824 56.84338500784964 -0.23703108210952062
34.23055217307695 57.24691257592407 -0.19811503831040345
35.04437408828853 56.975490496205374 -0.22111862226902446
35.50893119463686 56.943022392266116 -0.23332091771348418
34.24970656805429 57.32467724302373 -0.207706836959909
34.3419276234549 57.28882096605227 -0.2139383590815057
34.473320861129345 57.252026264581616 -0.18553089054273292
34.50965682949755 57.24243900153606 -0.1848911073974316
34.63064453410506 57.22096348179454 -0.198619047624374
37.43537150402127 56.578510635797336 -0.2986863837020533
34.272087374275635 57.373620156402744 -0.2141696198295906
34.30477329550011 57.36938359675716 -0.21596647364710014
34.64985125070396 57.282739723305966 -0.20774905031479873
35.445649318523714 57.12374250302737 -0.23915309461903556
37.40082939149433 56.65792341891296 -0.27828692541158906
37.46631011359688 56.628609613220306 -0.2954133526461319
37.51920793536826 56.60303607847665 -0.2667925485460728
37.801686910590135 56.59764669978992 -0.3146029914762814
37.86333057207204 56.58683684035247 -0.3104023251867559
37.95514989624537 56.549465332414194 -0.2972389158358444
34.30123027778984 57.5388560399446 -0.20172200828887288
34.42801114631335 57.5165051193006 -0.18787391090536687
34.437720568243186 57.50796865558648 -0.1874044510597368
34.57920246505573 57.45985305140277 -0.18779302253653196
34.66774993919175 57.42998174639073 -0.20911626898209784
35.48974567848625 57.2270775651085 -0.2271196133694277
35.50975912570561 57.24794307790866 -0.2126865440063464
35.85884908771589 57.130742852633865 -0.22201504572244407
35.96725226538101 57.12713942700951 -0.22383283948131522
37.429828487199465 56.71474014996082 -0.28606708362780103
37.46939558679153 56.721658394271074 -0.28004336863230966
37.81248958078641 56.604298242834254 -0.3320334273136865
37.895121099403774 56.598113113388195 -0.30873830441570715
37.964342317724125 56.58470856033793 -0.2981521751223416
38.04468535377392 56.55982821619951 -0.3132017908325493
32.961618434355216 57.974125339747786 -0.18639828568569866
33.03757077414362 57.93029599357148 -0.22386814729768567
34.283403069108985 57.57211691508272 -0.18873966172239703
34.420361051923074 57.55394255261593 -0.18567262518005145
34.450935571791064 57.52791649547269 -0.18492944112916349
34.56462929838165 57.50025480660028 -0.18237567752080436
34.67052792571142 57.47185582981097 -0.20139672638422673
35.1308273869846 57.38051849555542 -0.1990650996292927
35.52659974012831 57.27699464260344 -0.21079689924082268
35.9892091483943 57.14771438519612 -0.2243246931843284
37.579646549435274 56.77523634730262 -0.2354617574885698
38.51503209931986 56.57876184277612 -0.33848559937495903
38.553293376146165 56.58229369390314 -0.32111838244149127
31.80948058930791 58.338098116971594 -0.18745805140920158
31.900203903922385 58.27568161213647 -0.21140531067318374
31.959335538630754 58.23592316919711 -0.21502051391522028
32.08832901606611 58.26168912503982 -0.1857960712230231
32.16085203994939 58.19825035754304 -0.1735552841122509
32.90313546433308 58.039129960747346 -0.21803576593183424
32.935431566772856 58.00394891941153 -0.20099354797481234
31.72615151192408 58.40124121114519 -0.15446234255464594
37.71650471339057 54.05276320870819 -0.20658085260102962
37.7575289368528 54.00893297880337 -0.2186440513839379
37.817362371375 53.9539296538935 -0.1938800468401344
32.64693477818261 55.396145427823356 -0.09787089458015406
32.71057454737165 55.381068517396386 -0.11245807170112058
35.912838725824244 55.34817327478055 -0.16585243577045927
36.028686218655054 55.330500732881724 -0.15491464804886151
34.06102434960074 56.02329705206569 -0.13240146485543391
33.910064121370645 56.20615016650524 -0.09377184456675525
33.90276954618393 56.21686712935072 -0.13612983421773844
32.46079943144387 57.043885908019256 -0.09190611081819547
32.49565941835413 57.000019425319614 -0.09306124631610531
32.366467171697245 57.28413892994392 -0.08894489782420234
32.419034463185575 57.233627200921475 -0.13977185410214582
37.76123330835633 56.093451909425426 -0.2344673133947851
37.577115148121365 56.199392797337794 -0.21846645482672616
37.657680601465756 56.17720378389738 -0.19586097736689378
37.75153439204293 56.12401941958603 -0.212056544353331
37.83092788009335 56.11574571891672 -0.21432269843189894
34.58102257088335 57.12661043721045 -0.1806180467067335
37.448041505442234 56.58466066062066 -0.13971628331362054
35.908256254522065 56.974326220501226 -0.11242644820291338
37.46347962058585 56.62895070227412 -0.20451270068232744
37.528293415125496 56.60618954251972 -0.1956058200381205
34.130917644595826 57.57748194119661 -0.16801984667366998
34.21202888583677 57.557253545018945 -0.15869730479073418
34.26943441045329 57.53145607344402 -0.16051105940856147
34.59749224642834 57.47930949414904 -0.1709582459302799
35.126495005349106 57.345956224992875 -0.14679946421930656
35.974410191590934 57.133564376602784 -0.18758334552192665
36.0126907495086 57.13524056534624 -0.13153512539950898
37.504970252458975 56.73271767014977 -0.1951815812576911
37.55941267371467 56.762154636556495 -0.17294148837813478
32.9606324831623 57.97671918806807 -0.0676811239961521
34.19744051753999 57.591401003810205 -0.15786748998659594
34.27223520158597 57.570696951434044 -0.16640507517212894
34.43479508592316 57.56255215792712 -0.1747834016780777
34.59422926845324 57.48858817204409 -0.17354241327834585
34.68184994392951 57.485508757272626 -0.140566906768644
35.12979752522777 57.371834260544226 -0.16762792346145677
35.54938213300695 57.29453806243039 -0.14909182123360024
35.987248145679075 57.15589431361093 -0.1868240196002383
36.022189653125785 57.14901915566023 -0.12500353151276566
37.59861987929071 56.77704283484408 -0.204208354495378
38.59950668589678 56.57083930544866 -0.2225431416909065
31.803501929892487 58.343351841109566 -0.0752530210147311
31.896170344404215 58.28344593975373 -0.07533386207021611
32.047916905698116 58.30134546048024 -0.10043674749470986
32.08218235918224 58.26718133474641 -0.07693202150765058
32.93962618725749 57.997395853450946 -0.11134418377752703
31.771851048745763 58.37562753811764 -0.11765985920719843
32.00218086807255 58.33176556788991 -0.08778592556310327
37.87172512946532 53.90561494817037 -0.08352703857999969
37.79195841866038 53.975113198689805 -0.1358353589310479
37.83650239934417 53.94345011941848 -0.09585185864129314
32.67693616905605 55.363806598338314 -0.01597857764349979
32.69336082999342 55.36599597301213 -0.00516587755804912
32.583598720244076 55.41183540122827 0.0010982117550231152
32.6501394705941 55.40103602543104 -0.034289196910471505
32.70627981132374 55.37539276725097 -0.019085941500568873
35.915312169727045 55.345894118798455 -0.06356880927010364
36.037354664009875 55.3214864898793 -0.03896160176000999
34.02774406061104 56.00544818364125 -0.05365338520281636
33.90980852040582 56.1980113899136 -0.061550756161913564
33.93929117738674 56.1844003240883 -0.03021754069300432
32.445378959880735 57.02127926578206 -0.031162689583632663
32.47879850081474 56.99969484976433 -0.03671457154335191
32.364532618830964 57.28630846465191 0.008529007059347324
37.441436952101704 56.57925372858247 -0.12618458838797403
37.421430600377555 56.69632273583676 -0.03869478376859019
37.49007871333642 56.59083792757911 -0.07780037314006824
37.5161387318207 56.597372579960336 -0.04781129219535898
38.07627537347914 56.483204700230885 -0.08083718586505755
38.107962488939805 56.48260360034262 -0.04796246041458257
35.7885887952983 57.19030125729653 -0.02313820622393968
37.42082211149958 56.707396792181775 -0.11547031669979516
37.48618701302435 56.72933322165028 -0.07142029369776681
37.55155795544742 56.76448254733285 -0.0708085421725704
32.972895006058074 57.95749942265578 -0.022777188219785874
34.293334118114174 57.58502519165448 -0.012639396480401174
34.66758223278226 57.50681824383834 -0.04138726344182479
35.13980429688662 57.39520971465468 -0.03454561586480425
35.57042781042955 57.2954432016258 -0.05734093239469702
35.657987035157376 57.26190203037332 -0.03184204334496425
35.742903830821035 57.24740835708055 -0.03211187961799744
36.05151965346034 57.15140098908767 -0.09091260461386343
31.76086925268761 58.36390356693729 0.022825582605117647
31.806254254588783 58.34088068814672 0.015743809530757158
31.86949605581274 58.30470140498909 0.03928869400051051
32.108001702359324 58.240399055975075 0.02450002531691227
32.14320666525959 58.215795373307756 -0.0013247892705822856
32.899761571922156 58.0364758643751 0.03487003724224215
32.92305863345549 58.01267620115062 0.024793205691231807
37.8509843834434 53.911788715483986 0.009909012332057196
37.782707621652634 53.985875699916356 0.006144385059291935
37.83081662341844 53.94854305075642 -0.0032195320332076977
32.676033335419994 55.36164613391897 0.09586354570286733
32.69324215978603 55.36346095103646 0.12701747098164007
32.62360836569923 55.42417378523326 0.11722228265679195
32.7166609590656 55.376535544786314 0.08262104290098678
35.914027045547016 55.34558458073313 0.03609676529749141
36.04789770273308 55.317458267898544 0.031599947346276594
36.079085381266 55.29201162182686 0.01938962336486584
34.01460964594821 56.317634886986916 0.049020596377379946
32.35266708966093 57.29464200290371 0.09574771542742998
32.44673965375605 57.24282589310685 0.1311433652256418
32.31652528236234 57.318049219075455 0.08843452955977045
35.04549834453051 56.93457356363746 0.10641684692042534
37.387427838641386 56.69453339532456 0.030876441448589517
37.56866600370771 56.616718101048384 0.020306555042215693
38.081966799788745 56.48642529115888 0.005817952988085892
38.117368415541584 56.49460475882991 -0.0017066211506351625
34.3069967588096 57.54818407596036 0.07789083802847065
35.26344270142781 57.31661252217565 0.10554078757363748
37.50050813010391 56.73609937502085 0.013284440063873068
32.96823836204341 57.95957573053071 0.10319321902726854
34.29962425888154 57.567101218368016 0.08003632423419697
35.14204410424054 57.38971767599745 0.07773950572687609
35.268584817947755 57.33460577518985 0.09082059127948029
35.77117098990294 57.23191613004262 0.0028013315187616766
35.823531426688064 57.20837346908375 0.008276930129274537
31.8013864854268 58.354919133237985 0.08311819810065486
31.897855172553356 58.278475788691225 0.16204335684226107
32.1189120591776 58.23434189654592 0.11933393424551648
32.151319663299766 58.21571750736437 0.1342973815599155
32.94697493129777 57.9879706228828 0.09008004002492938
31.5792511051572 58.51268460696573 0.14711830046150703
31.622686165732162 58.47579004035479 0.15332534472809456
31.721477826740003 58.40596441107483 0.10165131651337074
31.77208865531547 58.37600603022931 0.10538441941916273
37.71184044977732 54.03012499857794 0.07693595085820966
37.76221092996871 54.00058376693751 0.08164792167021202
37.81614287015938 53.964106416182354 0.09165157715044354
32.70247425442742 55.365170885546455 0.14828263480891357
32.593987901727616 55.410893364934786 0.20986457781018047
32.61500171135478 55.42080994349194 0.17015201269019142
32.70825771031061 55.370726395590395 0.17530522372369906
35.915441660157235 55.34331685623152 0.1373552333230043
32.362577422447046 57.29565164860764 0.1940426804681063
32.44611244183748 57.277586850845125 0.2501093951524022
32.31479550523191 57.32718627711269 0.20540573461221034
32.353905166236395 57.311407683360905 0.22880470359331928
36.24878943601696 56.61040040627985 0.14245952186676036
37.368371275260145 56.688261066094036 0.08899565996702656
37.4983861295516 56.671196099405456 0.12524996348741435
37.57743054345969 56.621225602836084 0.10417955619389639
37.6396349515305 56.63889055422851 0.14093746950499103
37.94716969485591 56.47777432492258 0.15531898980134595
38.066834690074096 56.4847871545185 0.1123200338650834
38.161163510095776 56.5064198348884 0.07041678101999681
34.225936115677925 57.569383353317725 0.1768226830555681
34.27310194838449 57.55275010406033 0.1730161282253611
34.57644189394972 57.4797051900257 0.16906239444884713
34.713214797708936 57.451812170407784 0.18449817226664317
34.76475708970922 57.420727198122115 0.19176934852765937
34.89846505416578 57.402330457645746 0.16123415655802759
34.95754637115341 57.3886343280254 0.17407240590322481
35.134765459634686 57.347517360678204 0.1261119956264125
35.28556000725297 57.31263284248161 0.13105729803117305
35.343533209945754 57.28510826184617 0.1942154141972235
35.48764719971687 57.26275343015653 0.17223857434957496
35.53365278627189 57.25009857698318 0.18035423582014587
35.644825835992656 57.22045910448283 0.19121169478197964
35.95084942276556 57.15332882680511 0.16090922553775272
37.410182185811564 56.7057373383345 0.1370212269221669
37.47703226869728 56.70038913945438 0.15508449609125724
37.54518493486225 56.6765725406551 0.14980130469438285
38.216862138868876 56.51757901610054 0.07328764482211046
31.966662323161245 58.21210944245952 0.21800265851760836
32.8396562431734 58.00425166827286 0.17393697048869872
32.96650051763992 57.96809219236842 0.1672624771520268
33.048492910993374 57.91783902271887 0.19234648156730733
34.24443063021056 57.576339922039196 0.1881288806206985
34.285313107019846 57.56582683880365 0.17500725982750354
34.40971945278905 57.53960020615965 0.18839533036618678
34.45442141720229 57.522701484663195 0.20176556716151528
34.60816637098465 57.488513410248984 0.16569908411341622
34.69187403357398 57.47474306397272 0.17308932064781823
34.77460443367078 57.44744449411668 0.18352247638258895
34.91222819274993 57.41129003949348 0.17201899920587593
34.95087860021042 57.40635038816561 0.18694316773559622
35.136689388698215 57.36836548650669 0.15470967273704345
35.29552039894147 57.32273226496426 0.13751182134071804
35.380439017786856 57.31255739554285 0.13766887397711486
35.461801378962264 57.2844448074791 0.1537442516499049
35.55602633291235 57.2606762923397 0.15014236722043378
35.686828832214246 57.23325708137727 0.19249854420528845
35.72728675078751 57.235223125714235 0.1940615352544613
35.97386002251804 57.172880100746845 0.13837236818758492
31.809350044953874 58.353866621217705 0.2631000761722553
31.91352646128005 58.25871628034843 0.20527258885163968
31.955389340595215 58.22709097055199 0.18186794257647998
32.11930151615591 58.25169899974675 0.1811910388963482
32.18686211391239 58.21401988344313 0.1766491656801102
32.29049282153342 58.17155345412237 0.18672307093764684
32.393546533055556 58.15528957925229 0.18299236213619774
32.49704610081512 58.16166513678335 0.18990001315645916
32.55412714375779 58.14193221536129 0.19112628722801583
32.86659058948561 58.01658244988828 0.17977171630416355
32.969214154325805 57.981547530120125 0.16000835582903233
32.10091829284466 58.29459240347339 0.17585507549659257
32.53525771702142 58.18550450891894 0.2045564186783685
37.77222824988342 53.99837288277219 0.22078101482949852
37.841827572964 53.93062711336355 0.1769908012343382
32.69069126428966 55.36482035374113 0.24781943993705852
32.74101007196188 55.352966125487455 0.2679443448229111
32.74473869235391 55.36635116644711 0.2761979752768804
35.91698552808543 55.34263373097853 0.19933377256373203
32.46145993081938 57.26780864340244 0.26143247198697683
32.322432285472914 57.360042557777895 0.31945426704969
32.388725537614114 57.32002584036967 0.31534803462564603
32.444450132651 57.28390752455643 0.31534792083479246
36.246960276896324 56.611912770035325 0.20967312388152431
37.885917658064535 56.452809478385305 0.20567807293269158
37.91598497730203 56.46091376012519 0.19967105193930035
36.82950604838373 56.82880311183427 0.26706879807653405
37.13195192043855 56.763966175094694 0.21871828121941467
37.188047512523326 56.74564390023936 0.2155621472156274
37.48592206645496 56.66946839773773 0.1730448228885464
37.591978055360315 56.63005590205534 0.2334849370051605
37.63051336032159 56.63995304998331 0.19320232558041356
37.95617960787675 56.47249033759248 0.22310870346889672
38.04237388070763 56.47675459854381 0.19324798942337584
36.90323414713561 56.83600618401072 0.23076440119050207
37.016955801662675 56.83393596288073 0.23302901440779972
37.10651725894008 56.80718519490975 0.233957251286262
37.176057835280346 56.76172968395841 0.21654261859165852
37.30799497695213 56.742015752695735 0.22972423104484857
37.393664726500106 56.72304789642659 0.2199514908366284
37.489991207680134 56.70133397952812 0.21158774865856456
37.566426217891646 56.68474146214068 0.24170037268036104
37.65393652655895 56.64494894403024 0.2165332414957999
32.334637828887736 58.11288053806315 0.31981312556201125
32.45208703491492 58.09325874772041 0.31197394587866634
32.97059873819295 57.959599273786566 0.3130741790343013
33.02831858798646 57.94041265167809 0.28399015558355895
34.25733314107659 57.574714283064395 0.2278041475631914
34.45714844432476 57.53093312983712 0.22355218904100138
34.80047285078224 57.459908294705365 0.22753424424143437
34.91151384866065 57.411651747353524 0.21415561697573188
34.94035541180294 57.422029882784614 0.21261082772948114
35.32182774104109 57.308675807595044 0.207106055948023
35.72915596873866 57.24061040833989 0.19861991768094334
31.832343552699385 58.33491291624828 0.3116629668526663
31.915739818188523 58.2819084155185 0.32794385660410114
31.984838731064077 58.24175166524349 0.34198910511400604
32.19906978277583 58.21295683921461 0.33472323916842733
32.29588470701388 58.15641021132608 0.32727664236490006
32.37675337768565 58.1442928494561 0.32377089501221995
32.46599783515971 58.15435478910955 0.3355640865550359
32.86559223850641 58.02552161150634 0.33238255582339615
32.935433746636264 57.99952083560903 0.33219320864936686
31.77224304456965 58.37643342329043 0.32066322725617713
31.777315951211904 58.375287074321335 0.30019679237937336
32.35651981503441 58.235358911840834 0.3533593738189868
37.87293917560409 53.90903390237696 0.2776041056006468
37.91063188983897 53.887028602844296 0.29280733381894086
37.86738749929314 53.922463036457295 0.2865991045975471
32.28495221300467 57.40323877497239 0.4123942615140227
32.24734652394329 57.43651054538247 0.4251833504460689
37.9409229367346 56.464341525291424 0.26113427540534334
36.838064774016686 56.831980905075326 0.2846758462494632
37.28245857318344 56.681413743568825 0.3647420685353515
37.5021575241417 56.65813533564037 0.31704291420133224
37.58796718933728 56.63223020033675 0.2912673023087156
37.63197052148788 56.63382417621899 0.33415673379130867
37.95720765067753 56.47673127602456 0.3158448928227317
36.888217177578056 56.835759463643086 0.3741664329779472
37.656427018794126 56.64913426529592 0.3229823166890105
31.991725541237333 58.20332455543436 0.43302821548828674
32.039967488613286 58.20028019365319 0.37803705900586976
31.824316004547562 58.33672558179526 0.3968957494839903
31.914674320759715 58.26529954437166 0.42020360455632
31.9778983482665 58.23671312749578 0.42492259750495986
32.100480149697674 58.260500968007506 0.413106887554065
32.02299329623998 58.30792354359337 0.4563286619472312
32.3866278951857 58.30908437238256 0.3779949591788794
32.37227883153185 58.37705979182925 0.3941079964968614
32.31293341844275 58.50804857931409 0.42681588439555485
37.86256752101758 53.9125731303915 0.36110023468503305
37.921262946631046 53.87277513912017 0.3588021424213545
37.71196498247958 54.0349654487852 0.3852671082287493
37.775854761755724 53.98935649484579 0.40663197741595036
37.844906507733796 53.94347347429333 0.38279315446410084
32.32635574479726 57.395297026799106 0.5161790403220459
32.391795510276864 57.35432030576198 0.49428194378077484
32.2223879829011 57.45520763085847 0.4726347491698586
36.94132277285956 56.810401676031525 0.37725006244644016
37.30366596655697 56.67896711935324 0.4135357746059579
37.34992781150848 56.687122924511286 0.4075163761865732
37.61497294011824 56.632002081312066 0.41763448416505145
37.63297538998447 56.63194470325001 0.40226050961780924
37.96170789128934 56.4802421282445 0.3640047846969466
38.08747826212303 56.494318127331546 0.42547900194337074
38.139396618485314 56.50457042223784 0.4333847129213597
36.92457389815968 56.830489893804845 0.3805679546564823
37.00188152023828 56.82484083945435 0.3903058171608007
37.12558686651398 56.82864430439136 0.4013582017030808
37.20414076009828 56.79363360183443 0.39674531572445204
37.290075149891685 56.747176146270434 0.38690978387842867
37.64766261675388 56.64876031804554 0.4511939122220655
31.887051322716722 58.26989001729453 0.502421000560515
31.997386207103766 58.237758417455616 0.5191726291298187
32.0942432396967 58.25656779111424 0.5173120261564335
32.14801762334187 58.206453002559776 0.46327044982636734
31.980551582214705 58.34324917169614 0.4773497279653559
37.887501390355766 53.907525455366056 0.5359333184244299
37.7882653577618 53.987603953845436 0.48399926524877934
37.84453375897833 53.94738437519042 0.5408792701230712
37.31836238932064 56.676464237915326 0.5110780464465775
37.35576791014691 56.688266911196564 0.5170515033108968
37.62685705951548 56.636863282012435 0.5133917391125532
37.64495683157323 56.63905702913825 0.5027800245502579
38.10367563285733 56.49691517918536 0.49320274469091774
38.167883661561476 56.50764267565127 0.5156686891747057
37.681476744722815 56.64637298141251 0.5392572572535834
38.211875773307725 56.52578280429648 0.5374979280799813
32.053850214539565 58.28866781212312 0.6331234024411171
32.092263150195166 58.255515857912435 0.595413968631332
37.89094612378534 53.907451562462676 0.6036593453041657
37.925664261049604 53.86526013495197 0.6036043245825974
37.737314803947534 54.0021299575185 0.6252125584743096
37.362455299362026 56.69513944244208 0.6288193321475181
38.10614949714107 56.51257426521023 0.5798472374635717
38.14446779128369 56.511899822826685 0.6247155677946127
37.40380194889393 56.7140815394125 0.6112174318474891
37.64099456096722 56.64470777560772 0.5640926108919097
38.18320997757762 56.5200748265702 0.6074618718570068
38.27881378462536 56.53147934235691 0.6005320111935513
38.335697988223224 56.54459593465138 0.6448236751616002
32.032850386924416 58.30624512647293 0.673197396186147
37.867289979569854 53.89097198017898 0.6531513192053946
37.93213022912866 53.83430491907558 0.6724501010590348
37.98364394978241 53.787437107570916 0.6656534257392436
37.74995890251202 53.98840510383865 0.6716886573530594
37.453734962220224 56.580237266732965 0.7428657145273161
37.35937151963853 56.69175868532175 0.6780583138778522
37.5106525435238 56.58497255311478 0.7538467230449231
37.52131170720031 56.581395379701036 0.7488328484177073
37.97235109116463 56.48967538349544 0.7554693679413944
38.035523761015675 56.49643410945998 0.7559227482126335
38.284747243037074 56.527686880492844 0.6607190280581804
38.204890967739985 53.52439494047544 0.8035933973512993
38.151793582675964 53.6253008087045 0.8299220134894324
38.047127080371354 53.747826673511916 0.8228595383867804
38.086739389552505 53.692925632612415 0.8085170441674329
37.87606915020449 53.90215959923711 0.8220320470852174
37.94204382129412 53.84958681278756 0.8093136734083465
38.01520111284737 53.781146095416155 0.7948211640842546
37.69795060943447 54.042765008027445 0.8389748131870384
37.78498494526939 53.97356158886083 0.8089571999568171
37.862331472226685 53.92774841120797 0.7935884217265524
37.949079951100764 56.38979445930338 0.8331667506601836
37.88969433084028 56.49920938036343 0.7704752908609365
37.988496207749826 56.50075348446344 0.7840233943756312
38.02169749396641 56.49159340389263 0.7597340784219067
38.19456824006217 53.565381990725456 0.8641387445026946
38.13876556001602 53.64344141218432 0.8472318092218816
37.91376128034086 53.858176361399074 0.850691331327297
37.70283601332214 54.041590852359406 0.849357607602919
37.77855117673563 53.98777882247471 0.910241428952824
37.85018472442327 53.92015253468265 0.855570149673412
38.01300877288764 56.41073903541219 0.8583810543508456
37.899161085291965 53.875821849464515 1.0193900313463908
37.92663653868286 53.86879026570835 1.0248375649234471
37.8622726108755 53.91866746003546 0.9887987608862825
38.05886615858474 53.74017945647277 1.131575251819996
37.898256891690664 53.894369146521484 1.1208487470291748
37.93443348546794 53.8447606266072 1.0807112813937505
38.005705515341816 53.78434885495398 1.0818944498244871
37.864604150120876 53.91905182120403 1.0967924934834097
38.06141811642786 53.74614674011485 1.1558201190546094
38.086803032113835 53.72030397436931 1.1533044234185716
31.7093591922247 58.7893984170304 -0.396811501457087
31.67942328500797 58.70311031811977 -0.392562548470155
31.64920493332785 58.6097064318979 -0.388014208446767
31.573235857269164 58.266505316774996 -0.37051678575152597
31.55483476699736 58.20885482420503 -0.3683932962652229
31.461028294418647 57.9444778952126 -0.36089993293498296
31.36425649198442 57.83051671985239 -0.36374020415742947
31.71110655414062 58.499145567227906 -0.374949110907991
31.634423313654278 58.26521529822459 -0.36515390662593694
31.571372603560683 58.20730103368062 -0.36684882540747515
31.538640747039697 58.11370935065727 -0.3638637184177074
31.50712127647479 58.02456137246493 -0.36132478523434497
31.485477042842756 57.94590287050178 -0.3587563019298841
32.55020019693501 58.11409441901139 -0.3862254317045332
31.782085448976947 55.771912268212 -0.38404668903201555
31.760340656532783 55.69507149158506 -0.38888240851680084
31.805634383587584 55.64342752522096 -0.38382090988219214
31.915414912660946 55.61430241641117 -0.36916389139805467
31.984805612950368 55.596694500242165 -0.35993338962236404
33.11204834864855 57.892269699039936 -0.3952404649451729
33.201958787960194 57.86776717836923 -0.3814542689153038
33.295111938181854 57.847710934999306 -0.36814610118777497
32.39520675903584 55.50235276639793 -0.393976796972241
33.34766247464923 57.82837149597609 -0.35959068971698355
32.48773906987148 55.479156643708556 -0.3792340509644099
32.58098181555959 55.45096465736485 -0.3648194975327695
33.6287931573689 57.7686613674256 -0.3955114237901871
33.688939797660865 57.72970120352448 -0.3813635270316521
33.0066458609453 55.4480986383248 -0.3613340505658621
33.20681125670937 55.51032244066748 -0.3776027693087908
33.16310662741185 55.49995383672566 -0.38890593743187757
33.989335921602574 57.55421167045283 -0.37718223430616465
33.27631264856715 55.497895631062455 -0.3626344732631305
35.97165221636838 57.019916147855966 -0.3676034315261795
36.14972494583662 57.11821501214821 -0.36055170925147945
36.11666447104104 56.966193071413024 -0.39317644022219944
36.103277969691355 56.93173347657641 -0.3851070538259961
36.12645718183824 56.979325270418634 -0.3973959846131317
36.099241614131316 56.89841536954096 -0.37954890559086696
36.07711187129474 56.8219643841407 -0.36400878693931404
36.139186361060304 56.60985208465305 -0.3621598428806161
36.806372557028624 56.83191705253314 -0.3955641727384342
36.818189517136815 56.8280079059644 -0.39764890433227773
37.08341581915784 56.75571325178519 -0.36405176778431414
37.153973339536336 56.712706650406766 -0.3744207073721944
37.15518699051621 56.65588915274036 -0.37283092674940294
37.24298456185054 56.64704265760962 -0.38744969709560345
37.20708009833258 56.645192804324076 -0.3813068341360399
37.29737693432343 56.63296436707942 -0.39629657044138794
37.32790253887486 56.34175797125182 -0.3964275477234778
37.28900729804351 56.20739002101521 -0.3890856953902268
37.333756032395684 56.180936533116444 -0.39682891476944615
37.74488204093283 56.5146968034292 -0.36245123505375865
26.89637871832293 59.113355276744095 -0.26537453911725367
26.88414294128204 59.08691968157905 -0.26536738539756743
31.67120085749947 58.912989050619814 -0.2618736343240868
31.659407781179258 58.855042957319135 -0.25927939946782197
31.475213478952206 57.910326633096254 -0.3576971390879056
31.447334863152996 57.84733626081275 -0.35683907634542905
31.730100963840222 58.24683676356804 -0.35574187561875253
31.924271435926553 58.316669043450965 -0.34438835917542115
31.845817205557246 58.2255553662145 -0.3445061335206859
31.955821428558394 58.24613909946297 -0.3367744730970871
31.907903076024606 58.23621528548246 -0.34003149028841473
32.66911925234095 58.08366544304742 -0.2683642772888595
32.3364812628425 57.22738193406627 -0.3361099411967894
32.33559187484891 57.16688945286211 -0.3325412701114583
32.300447865712286 57.1128272721971 -0.3339114679253968
31.785356265332062 55.756663475671346 -0.2771883267487182
31.765716615431096 55.69060091385838 -0.28053285469062006
32.7337339964988 58.020997696943404 -0.3580132130635399
32.35670248356937 57.157718394470216 -0.3292117768752059
32.31246298505695 57.027333386151135 -0.3276517876196091
32.33323170089805 56.957034464146915 -0.32133632643965027
32.31909978385243 56.891665872597024 -0.3201375352090601
31.813728329744126 55.64480571549411 -0.2763919935190813
32.81646953150621 57.96918706733472 -0.3443027255286445
31.918939018551338 55.614999028094665 -0.26591420788544534
32.91455265710406 57.93918611707065 -0.331462451670866
32.02042235471146 55.59164973268655 -0.3214998376927334
33.00258427163236 57.91442536320905 -0.3202910848306618
32.10771502402447 55.57019423447139 -0.3435528177328809
33.113239295871054 57.8928387836013 -0.30750446059535635
33.05836469797505 57.901125236041835 -0.313537420216255
32.20195532540309 55.547573476416666 -0.3311750743272897
33.206349778535994 57.86501638029069 -0.29585485198624883
32.305924739650074 55.525314469682804 -0.3175301505820197
33.30190538376875 57.841664403553324 -0.2846949535045537
32.3884738551896 55.505113225723456 -0.3068949898916054
33.398577162085445 57.818556851783924 -0.3157632820250971
32.500273459308 55.48254582638644 -0.29244659340362694
33.488263311302845 57.792963977496505 -0.30139616319245693
32.60755846848089 55.44618198304067 -0.2972626322662731
33.58236348892856 57.774634745578915 -0.32733513545712506
32.693479728131116 55.42112805909825 -0.308343134052602
33.663861296170914 57.753054184036145 -0.3161876508636639
32.77559505520977 55.39800424067736 -0.3074195032112791
33.75762699360235 57.63540961195039 -0.2889318631148668
32.863373077157505 55.394749624591256 -0.32067483982907474
33.201125555946206 55.51108722624122 -0.3169619452573251
33.17352576915941 55.50364214773523 -0.26113004554821234
34.118446062052904 57.64474484393249 -0.2625892157642221
33.93893181567212 57.38145641296661 -0.2876997000305226
33.2752957073479 55.49731738332655 -0.30337853211050386
34.1500874958115 57.636601908055304 -0.25927114296008547
34.130236661815886 57.409519725387334 -0.2742597872038002
34.115789231007604 57.355364891052105 -0.2646531982499134
34.02040661099957 57.28402587102333 -0.2602407867179208
33.35820971116125 55.465799586078134 -0.31994170146100326
34.15264321032846 57.38133526344044 -0.26660035252699965
34.168167252126 57.24493551565965 -0.2855438914298819
33.45038629490352 55.44153493021598 -0.2998663753442156
34.25681114083592 57.25160901280577 -0.278070904278627
34.21061766772524 57.22649088340014 -0.2766871199458619
33.5373970157526 55.41690224623876 -0.29810158461858305
34.47845902593073 57.50855322435323 -0.2941727414322944
34.4345115346909 57.47196805903413 -0.2678839877343586
34.3298043232873 57.24681152569714 -0.27046057145999663
33.645191469264134 55.39254888371691 -0.29334705016186513
34.59833787591672 57.54009873374869 -0.30533930812526017
34.55644906439895 57.53162871193637 -0.304966191116921
34.49043745633563 57.41755040747411 -0.28660675485943043
34.47278797662947 57.30157733791127 -0.27465865292103314
34.46487756209434 57.238225169138126 -0.25893064998712423
33.741910178654244 55.36567309819333 -0.27747527817025197
34.674214325641195 57.51175743269313 -0.3064880005390343
34.663249297711474 57.50501045719031 -0.28547451196108337
33.83189100748576 55.34277769110174 -0.26346698233677796
34.76357056006649 57.47846688553469 -0.2851554985689718
34.76176650212253 57.467016853162356 -0.3031954419700887
34.85339905479938 57.455811422735614 -0.26851530292682246
34.83019187217174 57.4354519416783 -0.3052293850417917
34.981370184854704 57.37253309580476 -0.2947868733009906
35.05312607339217 57.3877292367508 -0.3033196356743118
34.99726874159623 57.37405988040513 -0.2960977045882162
35.15739798085038 57.37231705575083 -0.2877234768329094
35.24966926287656 57.34866689333444 -0.28676527264301505
35.334935404198475 57.32469705497497 -0.27652090589252143
35.30366144859302 57.180655934803916 -0.27656547949772325
35.29673228796579 57.147394165377754 -0.26781075544597027
35.45471912371791 57.22166898353057 -0.2589575466210529
35.37896823066653 57.13588298856965 -0.27655688667110667
35.37614915338065 57.11440304691263 -0.27133696116067973
35.520913481796505 57.19118828927421 -0.26229755277597266
35.52967687616877 57.1747861337147 -0.260437877285068
35.46271038700823 57.06134576988861 -0.27326909848897
35.601857942233046 57.17509534739853 -0.27131906690398305
35.53713559764962 57.00006212658984 -0.2736751203175019
35.53277526525693 56.95276924831238 -0.26330128484951904
35.688955974482674 57.22853483950209 -0.2944082312755495
35.69166853406909 57.15803332498258 -0.2826141424997223
35.68816394984579 57.0615511059831 -0.2657333934323547
35.625585862690365 56.93315567083464 -0.27786745272966684
35.62768959063584 56.91384898126981 -0.27475514142165214
35.69831494179268 56.91034694768506 -0.288974188528745
35.72511711511458 56.87419857787671 -0.28862943494142757
35.052425601599495 55.02657818887993 -0.2604435428219291
35.97552451488354 57.16929576996004 -0.334252251680673
35.82518701175085 56.9146345197653 -0.31757200509238137
35.10660879250623 55.02257228798411 -0.2665663582235713
36.033915225141925 57.1563837248366 -0.3155881347257089
35.20485076090111 54.99883416307915 -0.28319081427498294
36.1301173600863 57.11255749227595 -0.3215502588851168
36.13332137290772 57.01440118695529 -0.31396354451067676
36.092672582945184 56.90051392302039 -0.265399337420838
35.31082041645804 54.96375226126247 -0.290623494606002
36.12669768199584 56.97528859083575 -0.30828393613076743
36.10378416584841 56.90643871385149 -0.29986202538677503
36.0758742393574 56.80371058912672 -0.31652844130151164
36.05524024393475 56.71281322497952 -0.3191369708961568
36.05238947828289 56.63832937838431 -0.31024991222738335
35.39890532923332 54.93789012601018 -0.29962736839466586
36.12566065844144 56.614852378623745 -0.32016145487113845
35.71245446569754 55.39740475339529 -0.2879510729108346
35.68213982494978 55.355658760483244 -0.2881921085217461
35.653615784482405 55.25771874657633 -0.29976851785307335
35.63921851742624 55.17399082383024 -0.28309328200489137
35.6059712334601 55.070744640242204 -0.305093836186385
35.582415675510774 55.00172098372418 -0.3385549281741506
35.499054216343374 54.918947446646996 -0.3188396083682983
36.204164664885106 56.61364308739257 -0.3182426588933397
35.80102800447236 55.36902773055677 -0.2871485515832061
35.75625448434026 55.37857257395102 -0.30119688735439754
35.64143296906242 55.13557958835682 -0.29919392069594836
35.610923614098226 55.0583903323991 -0.3072856111902535
35.581115518452755 54.96141610373932 -0.3184571927576545
35.56353905549161 54.907084046897744 -0.32412653556113935
35.842840158035465 55.361236898345695 -0.3047590934662195
36.795431005019736 56.822549072885565 -0.31591519982267763
36.86069920330494 56.81150496535718 -0.32767305086365794
36.96186909006212 56.786024085602655 -0.31282718519822195
37.0423898516165 56.76035145119624 -0.3005827200819441
37.151137683304604 56.71048982993967 -0.2855344524619733
37.16744756721353 56.65720450918686 -0.28648883294461125
37.23285183931443 56.649311674150184 -0.2951184018511129
37.31444591005764 56.63002408722628 -0.30573683175677324
37.4167685790605 56.60252730261203 -0.3190782575192475
37.34020210793389 56.30324719424246 -0.3055818555346374
37.30536715424895 56.24484943747782 -0.30067090042535705
37.52627221805419 56.57301936209151 -0.3334577475000072
37.38762404204959 56.203645939667226 -0.3119686027003266
37.62115430265295 56.54839469320867 -0.34600763134024376
37.45485539349329 56.17375325684471 -0.3212776558146805
37.684382054094065 56.53216793230043 -0.3544080567651935
37.65178500507945 56.36976635143189 -0.348556548105536
37.6605829995694 56.36065204502623 -0.3497181277872048
37.586978902236 56.10338663919113 -0.3397166957106919
37.56897145589586 56.02603521611147 -0.33783295481081715
37.54441074815981 55.94411129278779 -0.33535172517340806
37.58152847333191 56.02029689943369 -0.33959391374440584
37.5462160868847 55.91970359472889 -0.3359244098317223
37.52381929243934 55.828913345960956 -0.3342959989999977
37.49853627395989 55.730058822380784 -0.332816613544008
37.47404158280854 55.63205282656357 -0.33188058185653235
37.46910180634576 55.564430463704305 -0.3330891249506005
37.51898244302509 55.53438130685963 -0.3407227977659792
37.55933403301111 54.39656426705298 -0.28787155380127666
37.52983588539741 54.32735188899016 -0.28883405551780866
37.51072682835674 54.27140908208803 -0.2901184056850593
37.62426367556369 54.40381130885392 -0.29332204617677243
37.76603183179715 54.348617270694845 -0.3088292547312176
38.22883335227437 55.32316449119891 -0.31691261912176466
38.207480334815244 55.245557816215594 -0.3167829222578157
38.18429901023237 55.14950064741581 -0.31715293103083836
38.1561865769065 55.055182696432496 -0.31722111430435895
38.13460886915763 54.97456957787631 -0.3176993818029615
37.852487731718924 54.3403691416148 -0.3170523002639592
38.135819390561764 54.94114192826134 -0.31894202859756104
38.112918794922365 54.860547838423194 -0.3195285263840967
38.09169291846605 54.762556342967166 -0.32110089540407855
38.07109078072696 54.66283091755943 -0.32303661189940475
38.04284807061568 54.5649945516367 -0.32441204787751915
38.02209268180819 54.46277683519066 -0.32691806519338107
37.9893751043878 54.365162477174785 -0.32835405176315824
28.89671532437581 58.95804541492569 -0.1963477426567341
28.996378763047733 58.93432005469008 -0.19270875948631175
29.099228730490978 58.907950811448934 -0.18887307595412006
29.15548230249433 58.904303901449914 -0.18702746771361395
31.699548820322637 58.85809676609675 -0.25742808717422666
31.667322663403475 58.79141306115933 -0.25545039288557675
31.641390819178557 58.71911862811881 -0.2529620280819185
31.314191258255406 57.8422737504117 -0.23266279912141002
31.691813257281094 58.79815229302726 -0.25456586559352373
31.66272566049381 58.70108407903065 -0.2508777692830491
31.645665651205032 58.60600186176181 -0.24683967127119238
31.578592004234718 58.27314091983206 -0.23438109273010316
31.56043640249473 58.22854802630741 -0.23340619764543735
31.53077476329869 58.1362496969246 -0.231082329945631
31.49077840518021 58.02061333652794 -0.22860349560784055
31.471288967702353 57.9708519884986 -0.2277828559725486
31.37684507077364 57.83344346531958 -0.22840869734242708
31.716646512950188 58.49720717026026 -0.23751415939690818
31.620119667901978 58.27724948437251 -0.23219955263270808
31.555741023595225 58.175558104372016 -0.2313221731840685
31.52782972650754 58.10143157761185 -0.229764593582712
31.50114635573681 58.02333834264166 -0.22810996303809356
31.46737854815607 57.92012726794933 -0.22604358965553845
31.444218122707174 57.85057992364535 -0.22482907739460045
31.73524595892398 58.24519560370119 -0.22418510586889717
31.86158987227615 58.229496218503186 -0.2163728511344698
31.938442050980797 58.258966846620126 -0.21358453758303508
31.886261663111366 58.19234238489479 -0.21319972358584816
32.30054429696493 57.10726087610051 -0.2388248999649707
31.77876486033191 55.75615787344706 -0.17175866692986597
31.763052772538543 55.69051680148755 -0.1738424506176472
32.426804956920314 57.20187593674687 -0.23089843426452322
32.41544870484953 57.13787478902377 -0.22896413725567938
32.35078154090648 57.10133574456515 -0.23362141198960573
32.351352199669776 56.957525423295564 -0.22775392692941498
32.28548976943528 56.894982956352244 -0.23215607639039115
31.81317233277516 55.639561950475716 -0.17107749850659718
32.834214763558535 57.954354312885606 -0.24568516788572553
32.370912366159494 56.9395424847664 -0.22508696511507648
31.905159377798938 55.60264532591372 -0.16517139091247918
32.9231154484595 57.93274785367878 -0.23743969640498558
32.00869316801646 55.58416561017306 -0.2170827357046679
33.000430009301866 57.91868183986207 -0.23075132878522486
32.10910918043015 55.56581877315233 -0.24709272049664432
33.11910433263128 57.88882072743833 -0.21995667996832247
33.07716968287603 57.8958786532497 -0.22344784466140172
32.194182238447304 55.53197456717217 -0.2391283465212371
33.20807329640814 57.86500698476962 -0.21189671012763367
33.15121508683017 57.87245068295527 -0.2163470251919597
32.344408389152136 55.50741204812122 -0.22418735833922981
32.28293914776657 55.5107559270852 -0.23048924275134858
33.30490943761104 57.84027620955213 -0.2033682259741011
32.39740285310473 55.50292924003167 -0.21881102101206662
33.39694665522497 57.81439739482227 -0.19521859521199653
32.496885977099694 55.48161374912926 -0.20923731251574043
33.499531249423306 57.79160688579487 -0.20175530839071895
32.58572666241483 55.435710270223865 -0.20181843723820542
33.58756970201437 57.77309498111889 -0.21862127534114595
32.69062774464621 55.40398019548561 -0.19241783094492496
33.68747922010433 57.75204622440398 -0.20609666762711165
32.78811727476595 55.38514401194354 -0.20807166669996066
33.8124163352786 57.72881019130033 -0.23124028917982192
33.78550451420701 57.72768178909843 -0.19375326321656905
32.87104043468615 55.39748632932129 -0.24648495691286798
33.88581139339912 57.70815005245924 -0.21726967423790136
33.854215847094956 57.707844431812276 -0.17309071027314454
33.979688040140054 57.68107326123371 -0.21460200057600876
33.19305867883682 55.507876217434585 -0.2272367001500608
34.082302623078135 57.648653024852095 -0.20464348574814228
34.11156460292656 57.609650245000125 -0.25689005804620524
33.97814617795602 57.323601175738645 -0.21930360593196074
33.27627643886582 55.501913968542894 -0.21652907446838685
34.18315954932897 57.62635308926824 -0.21806119907280064
34.11052669007215 57.55216989452607 -0.24701500038284235
34.08766298143937 57.46164639523144 -0.23310136135976967
34.067317742740535 57.35862580317381 -0.22370456182091447
34.04959446302333 57.283179877996574 -0.23457143660396979
33.357859519078175 55.47014284936737 -0.20310824606740485
34.28331130303214 57.59534032270044 -0.2166459450125417
34.18173450745913 57.33250629370229 -0.2541594265992042
34.1023886535183 57.27422956252457 -0.2498109114222518
33.81436118829659 56.36078447849098 -0.1998519484316003
33.80006404325091 56.28030348427475 -0.19063325521850802
33.74708250581795 56.24585201912229 -0.18247886427706866
33.45012116227858 55.445272002060676 -0.19534580982730138
34.372109670607664 57.577033065572124 -0.20967385989253973
34.32410165436111 57.403877412789974 -0.20852683141261635
34.22865000250933 57.261809586558925 -0.23577330667285157
33.54749795275 55.41709018244633 -0.2131439901585036
34.4673393709926 57.55342349644379 -0.2031371416678128
34.43916500680122 57.41609379864674 -0.2554206587966645
34.40386967603142 57.345837978698256 -0.2418095755761837
34.3555590879587 57.27536463282414 -0.22438928483712173
33.647796546972685 55.39130816203122 -0.21814814830253723
34.59980180165146 57.54169027035902 -0.20236966341700147
34.55674762755551 57.533938160218284 -0.19832346091930067
34.50555324250955 57.43668313469485 -0.2575132635808064
34.430277960906054 57.208145687096035 -0.25347277558355663
34.39510098439213 57.17955943071748 -0.24871059766325837
33.74657930211589 55.368297032965636 -0.20664970471229283
34.66639167342095 57.51630549443459 -0.19116112533390012
34.67666943959822 57.50103609051148 -0.2024769475408366
33.83949699760211 55.342727176229985 -0.1986722095892979
34.768038616405676 57.47989528464418 -0.18982955382228545
34.73723774172606 57.47558193194792 -0.18383999954778246
33.93267300342221 55.32781508441034 -0.24725761218366554
33.93061425901707 55.31688003582307 -0.22052660631320203
34.84941399625353 57.452094232796526 -0.19018264253206385
34.83787247836151 57.44230707309899 -0.20910377949599634
34.070996058047086 55.281690036615245 -0.2089566226543047
34.03035618476219 55.279180056307396 -0.22686137934296396
34.96653090387114 57.42593226763421 -0.1615607273086354
34.13502734960172 55.26845637760021 -0.20711053841169058
35.08925008711523 57.392804171597284 -0.2096249496760079
34.2237522708328 55.23371507100824 -0.20100820991451673
34.24331109558287 55.20374481631761 -0.22635019958533054
35.15663770929888 57.37591200640247 -0.1995593952797247
34.32637364854205 55.21859192755839 -0.19630397252681192
35.25011110986343 57.35384143712108 -0.1899108272020399
34.42081230879233 55.1891149537086 -0.20377076092311006
35.344899292288304 57.31160330903298 -0.19304721462361774
35.361598918776046 57.23848704277956 -0.2505900160610841
34.52387486657621 55.16130495008905 -0.20709907799669638
