ply
format ascii 1.0
element vertex 840
property float x
property float y
property float z
end_header
24.659871404919443 57.64291043613823 0.07162950735885268
26.15738856941568 57.24815761028501 0.044113751337568056
26.236705368140246 57.210974006537725 0.05487601658490284
26.288172102843564 57.18638299430314 0.018305352294867967
20.39019644681802 58.87632729891087 0.1507372843112022
20.434272678333716 58.882036297332725 0.1346325608185596
20.49196087957735 58.88740226951293 0.17535916437639704
20.517655259894028 58.89024650816029 0.18215164414912544
20.43534382123078 59.024497931922916 0.15571178430143046
20.486233265496438 59.02314660000119 0.14268731748726682
18.978020607510857 59.97835810816699 0.20476709404190696
19.073654519944586 59.98239856719323 0.17456652956065402
19.19399813954818 59.9703546568693 0.16818683056457637
19.231337252540555 59.94405909007128 0.1499948983381593
19.406777633386845 59.93384593739174 0.1716730280631998
19.46255570290269 59.943704759526284 0.16877050664472018
19.547555372759774 59.945126341216024 0.16409046010204684
19.31272768430721 60.041801504195845 0.13207392266244594
19.395033119095135 60.01876577361752 0.1662679417029895
19.51931095044544 59.99205556342158 0.19196976515475994
19.604274888320106 59.96054985556704 0.20379637438771953
22.401831461971682 59.5048316958268 0.07605416644312851
19.323705205783327 60.51814732425263 0.15523359524430957
19.411607635903195 60.46602470131759 0.15584430714682046
19.507536291729163 60.47515708885419 0.16870340588774937
19.09448550391804 60.682188255097074 0.13426239455951533
19.348171526628178 60.53486752047796 0.1543610572799166
19.43282181217493 60.54087752535699 0.16294616323212924
19.096437870815187 60.7126636340978 0.15768050229046537
19.128206097994426 60.70286477549356 0.2016363232857108
20.901222275897716 60.84221317684434 0.1743807445831961
20.941347135050847 60.817641252479525 0.13216084793567767
22.91487754062553 60.41554665297751 0.10939062409001715
23.939889172140116 60.165143609570215 0.05809584814018887
22.915100326334684 60.43079377021227 0.13545284499369878
23.058861297928857 60.463633868230886 0.10660129206332106
23.84115313292513 60.27674944906954 0.0752305295188494
23.870970193165242 60.26734152036063 0.10996795351992678
23.958219923107094 60.18556391680346 0.10217635733682157
23.866613572819446 60.32071874737303 0.11884889855684766
23.87779358191186 60.329561258169896 0.12533646448656866
23.67385878681862 57.651259650486715 0.14402822681523308
24.332087780844606 57.47614316062017 0.1852431417434947
23.66818013970597 57.660726432272725 0.18662112711712284
24.328726150979197 57.48767441290148 0.1544743732737185
24.46945060615792 57.470225921244214 0.1324397593242418
24.478260134770977 57.4547847628021 0.13414679868709434
20.729753522854544 58.614625361517575 0.2626682648489628
20.821638459961296 58.59400438915296 0.26229289239514664
20.889338409437737 58.56918969392627 0.2642555896444188
21.023053711694153 58.536839378933124 0.26569010358654394
21.08713700434459 58.51775060879556 0.2663807337834071
21.168323666585007 58.493879768629284 0.2693370644177571
21.3020708602903 58.45873832428819 0.2674891012744806
20.707000365699415 58.64900953008157 0.2711098143186634
20.797458572332218 58.6173941871991 0.26412474171791456
20.898269784835417 58.580955850164784 0.26660880747426535
20.982625882877144 58.563360112894244 0.2638520001959807
21.115903179655678 58.52287266101801 0.2677108569724945
21.291166573651523 58.47528679846074 0.26509977542266044
23.03829151019614 58.03775788801585 0.18277658351378182
24.533118684055232 57.68579020206773 0.17640402010196943
24.569843459360875 57.68114529403163 0.16619016369585113
24.657498523504035 57.647412563692384 0.17649231848066466
20.385008772714794 58.858980384163296 0.2887137932034671
20.45602998593459 58.880422470285524 0.24868720396948735
20.4306664094943 58.99232541008763 0.2504001414792227
20.471133606998748 58.9387665331949 0.24472368981924586
20.433892538673323 59.03960365119232 0.2648960121424163
20.487032058314636 59.02615815624121 0.234892116422887
18.74596023121154 60.00448118881279 0.2274162216973673
18.903694951655922 59.96885008127903 0.3108197424043607
19.06340339580386 59.932405125018846 0.3210305647813476
19.203740724862286 59.91710605495101 0.3004017994400905
19.488914247656126 59.9403400259035 0.28740059592876127
19.54368864306161 59.937805359700285 0.2930044152487275
19.521646299930374 59.97260185106493 0.24825346060415915
19.558443774104855 59.95731215028225 0.25676776568762405
19.435677950345692 60.47632106541303 0.24712775629077238
19.50990247114024 60.455120689087444 0.25421960731473636
19.288448778001943 60.59076655948688 0.28739703040967635
19.388124435821602 60.52948019199625 0.29338554090466495
18.949981010073223 60.79971073264569 0.257872637614433
19.36826814362052 61.224628382812156 0.31350555346464654
19.448563046132215 61.17748371236243 0.2734957783769556
19.54753484725124 61.11404528094488 0.27997685492998675
20.888114529757033 60.82726418174732 0.2616953285927558
20.944214571626407 60.7721250746857 0.27597290756080484
20.860512692946926 60.87069188634188 0.23256925168605674
22.914808417290725 60.41989694043594 0.20871010868725348
23.20033614171362 60.3525287009229 0.25142687442896156
23.943103150390833 60.164219458788274 0.16864732106644997
22.911480189809577 60.43485984139869 0.22646892010114245
23.066522434476507 60.439899643405134 0.2112982205970893
23.108132382839553 60.41949718620784 0.2220313902920244
23.18664074851059 60.384665962932026 0.25233279183610646
23.82999221205939 60.2457830236115 0.20579101627990448
23.869357089433343 60.250404215586734 0.16751248440026142
23.952533409507225 60.17804342325103 0.19858856128595362
23.86898616837173 60.323789995872566 0.16539054758665547
23.879879938945813 60.33258609907691 0.17030567288418585
23.66827002905102 57.65430860335717 0.24851393707697178
24.33747996331171 57.46202402173427 0.28140004121263745
23.660650427278746 57.66043852031023 0.24145516731940236
20.533173483726017 58.644979663155745 0.38615338225650825
20.580314741493442 58.64849771135007 0.3722918453010435
24.68655756860211 57.59704430601464 0.3154467951018344
26.32484617169923 57.163325124614005 0.2660691251984487
20.629293777782202 58.666145229713436 0.3247934565017316
20.6727565468339 58.672068686214175 0.29771512528951677
24.561967764741947 57.65202861228359 0.2685436450912584
24.683186378928305 57.61275450612049 0.2791449832405502
26.23130013036731 57.215687816331304 0.28417015980928767
26.285751981532968 57.187658285432896 0.2544916469328925
20.390502337439663 58.874470017192074 0.31192841025921747
20.44804948508225 58.87214800065437 0.35439892638675763
20.48748892611333 58.89457933180095 0.3739474970494231
20.525351245747636 58.89089270517387 0.39286113343947443
20.49214908563321 59.04015945740306 0.34030001432475765
19.220588208429685 59.930064753079684 0.32259500418147397
19.243028317744688 60.60884140716888 0.32387058319907497
19.35332395873017 60.5784726255641 0.3289570594526534
19.345531410205922 61.23027987161901 0.40546438068830737
19.40447318441847 61.19738727102143 0.3581361589558477
20.956150329650097 60.74450551316633 0.354828040696804
22.91172214709743 60.42977139560518 0.2684270482841757
22.910780603018317 60.4320847246359 0.26437914714138855
23.062648942849666 60.427292086271166 0.2703680566077725
23.212756478325467 60.35899807742816 0.26230337464493986
23.848695393105437 60.24280377652969 0.24893016047122585
23.909484744058627 60.200797826274815 0.25401762338523953
23.96578274169576 60.19489273054879 0.24522247551658632
24.34002867751324 57.456386098968785 0.35300585867507805
20.53586670596684 58.644702640563104 0.4196835627758557
20.56890444643017 58.64562618613888 0.43172593601137516
24.58517858801424 57.62204148089986 0.39682475240373555
26.26143983041532 57.17763633709909 0.3487328046884602
26.324086126336415 57.15673843926745 0.34629603849519514
26.368802083486703 57.137904847049235 0.36682048830541575
24.579019348971432 57.63605831230375 0.36563564062964093
24.672112174859652 57.62267761614768 0.36795934141382464
26.267522926145567 57.19815700850294 0.32049612470389716
20.463175485139807 58.8592723504095 0.44228792188999483
20.519683778017814 58.92260787551222 0.46400825861227235
20.59457622472185 58.926676430081294 0.4348258437389766
20.64183920409359 58.94317540944287 0.48644292987862936
20.519373062002416 59.03839077010134 0.4347066973541665
20.586079869755444 58.998398173040876 0.4622847525323014
20.678895784497946 58.953641400005296 0.4781205285515131
18.712884692690157 59.97562608304521 0.5102214184390516
18.75446616564752 59.966606007877985 0.5217985551978332
18.93144716303023 59.945638247646286 0.5145887604451764
19.135361657112668 59.91678176270498 0.486450490120121
20.93968603237045 60.7263667748991 0.45237154710562144
19.301508393007815 61.2553453013495 0.43559852852858943
20.92916575775969 60.74577008529431 0.42754126719859387
19.25851539481528 61.280507405256074 0.45786857925772884
24.580612643691662 57.62445667099654 0.43773700961519657
24.688994857599823 57.595645781600474 0.4649666255563236
24.884445159762357 57.53054856549891 0.4891804923279415
25.106395804958936 57.48037631738313 0.4869430132658543
25.161453727677262 57.45578066275968 0.4927362200787564
25.22924227412235 57.45221955490572 0.48419326586901146
25.57542867740736 57.36474379398395 0.49204493206368527
25.640714734025106 57.33872556299756 0.47211367279574235
25.719019458679302 57.31766864378748 0.48318246931900055
26.31609090435991 57.144141814006296 0.44550031556326963
26.3813184735867 57.11988945203438 0.4533729861654979
24.578194462531055 57.63037122115577 0.4417611150384396
24.668416979605258 57.624312817058744 0.4422460861924041
24.89840487568021 57.54827782069945 0.4754705345000865
24.941180663483102 57.539342412869374 0.4859573392347971
25.20059413754508 57.485781284305276 0.4716025266970637
25.252127273331258 57.467959308204804 0.4642099675629022
25.548660440721005 57.37809209346128 0.47923985408593517
25.671769528047648 57.36077322430973 0.4825076331838809
25.729475423260382 57.33610836116067 0.49507420297637905
20.376516607550386 58.83910113054379 0.5292527012594678
20.41283952554172 58.84556560799309 0.5203420492929786
20.481378043195644 59.05131853428575 0.5313291974661485
18.66779653026238 60.005068086937506 0.5866676527788502
18.873594936474568 59.98927305255094 0.6119043098918262
20.90960945027236 60.73619595332005 0.5229562275740584
20.87574599014082 60.753431194079866 0.5542810160820557
20.901961465176036 60.74944641204899 0.5035282766941312
25.19812298097394 57.444986404852166 0.511375892512578
25.53696393616189 57.34742252725346 0.5112745554809482
25.765214144421194 57.31910748111827 0.5673419611828372
26.345160879216124 57.134335711344995 0.568718302165306
26.405289810718948 57.1070774791718 0.535863362846212
26.45336081293545 57.072875404161046 0.5668015224597686
18.800093272431933 60.00335137737688 0.6515020593776987
18.885574300313834 60.00165179282023 0.6621162387857059
18.99036572264367 59.985734588238024 0.6520078772548793
18.92237569363262 60.01988792081566 0.7051971707474686
19.108743816664287 59.9915759795181 0.6630631148037391
19.129518779382035 60.67957239277417 0.6678135654961105
19.24116525289716 60.63036094896797 0.6568317757956884
26.350267113094972 57.14172587938865 0.6199969875884402
26.392697030469755 57.11427044348111 0.6420509005626843
25.68200138629998 57.40454021862506 0.6953574868076179
25.3864314975781 57.55378702688906 0.6694261158115833
18.71100470344509 60.07754938870521 0.7988647243962121
18.839387102368185 60.058339758709316 0.8115155522882942
18.901176849660747 60.04895070682692 0.7879697626086773
19.081561771260805 60.032421453166116 0.8074788381626719
19.26055933712297 60.01882270044858 0.8122402510669321
19.39575201032027 60.01404935342854 0.8096045989440472
19.515372729164895 59.98848473793283 0.8004017287601546
19.57860991116374 59.99325692398214 0.7924465738713544
19.059011938580788 60.67767210255215 0.7711288361245509
19.037027127185432 60.71781046932108 0.7288609528687597
19.10184932390566 61.38625957833045 0.818454211622593
19.214343347951342 61.312952081669 0.824489359274731
26.360959795370473 57.12722752502956 0.77536165139307
26.40379745331496 57.11204937181832 0.738915345185289
25.699845992562445 57.42685072049005 0.7156595955470724
25.760704562776873 57.3872348977776 0.7317502288168071
18.746151773265208 60.0814464158211 0.8479111808675198
18.921286438194112 60.05582487225358 0.8267773919945972
19.016732112726945 60.0490287430441 0.8451274722025386
19.12905137118993 60.05371231558237 0.8658279143191315
19.22148633272751 60.01277725470494 0.82051538837775
19.225835232906874 60.044437591696 0.8360417721824063
19.054939667875296 61.4138814163661 0.8459014835954364
26.207974248314432 59.60298478472494 0.7957165482589569
26.077694881253862 57.231241695325906 0.8840384801933979
26.146168869229196 57.22062677395842 0.8855464832015798
26.30282487415245 57.154799341615444 0.863120892388971
26.399830182329218 57.11108892672267 0.8138699577836023
25.96256224858802 57.298650520870986 0.8161533506895852
26.059333837640988 57.25715211603669 0.8735873619750633
26.13786598939832 57.22643768468999 0.8824592585454164
26.416267096816433 57.179716196729714 0.8769838172765707
26.835840220895587 58.97461756303381 0.8497851323220409
26.87362502172033 58.95753666356442 0.8650712701820137
26.856316087129535 59.03966445974107 0.8518932556285925
26.89682438868482 59.04284079501395 0.8686228135096993
26.884510550469905 59.15329821343671 0.8528892550307561
26.918848638597872 59.12075451982189 0.8617905679679666
26.956457444750765 59.24057398506891 0.863463852819777
27.026131731993836 59.2607453013049 0.8766220805952503
26.7346806304714 59.44250623717248 0.8422512413572247
26.91647550375352 59.320796794233765 0.842416717585947
26.96023206480553 59.353008467793885 0.856283064356012
27.039095508567243 59.3026049590626 0.8810041909838153
25.978160461611353 59.71298182897287 0.8288650463874531
26.144010630905385 59.6675459707762 0.8448779589876017
26.219496580847803 59.634503944850515 0.8487838567670619
26.35893709808923 59.60093857178013 0.8753593759300032
26.61837237272296 59.54336678506002 0.8797434136115834
26.73856851012827 59.4717132457568 0.8668914608095568
26.800396173040976 59.48622864867815 0.8733755368069833
26.89920016922207 59.431454197266184 0.8638894808152278
27.004354962719336 59.40411718452068 0.881154955884329
26.04751087370885 57.23101496486277 0.8990104326992644
26.438816475477605 57.160579952675455 0.8962901965539942
26.54521880280132 57.17233578709028 0.9206912384571173
26.602814579107676 57.135241434366044 0.9377686937305212
26.500315071795146 57.29932644202779 0.8955459221781477
26.55509733629681 57.26823540893165 0.9148129979608532
26.636239282445803 57.29317972279237 0.9405559476505703
26.596448066876896 57.37692727044262 0.9183355755066366
26.644603000655284 57.30830556036193 0.9351729518547998
26.624188240085047 57.43211520166126 0.9206005428619985
26.68466613167155 57.44113328308246 0.9404908137321961
26.757157479280718 57.577258811031285 0.9026408869967991
26.738526234757455 57.58627468690825 0.906058040407658
27.08928148755317 59.18561382877691 0.9018608966759498
26.654645995847176 59.56855210523026 0.9105782418865288
27.0633093792616 59.400376909327825 0.893236482900389
26.659788275701786 59.5987354821436 0.9232721483603987
26.866262574789303 57.45894569779021 0.9949785355305529
10.827942266176825 61.764050535674 -0.3525285334771414
10.792460353859301 61.65731532395256 -0.3528244191205975
10.772066689495109 61.56966962189857 -0.3528289163644632
10.744552883217978 61.4632722392349 -0.35294788112518416
10.73184687145825 61.37632039389569 -0.35277006314051373
20.62733308184292 58.65159076311843 -0.352896477381879
21.43861733287404 58.44380089558752 -0.3528983635384332
22.341212158151507 60.58456235313639 -0.35209749072398505
24.34016214620467 60.060988779825564 -0.3525544993446167
24.342227420243713 60.05545600589757 -0.3520910265508641
24.689579292239 59.96341159319124 -0.3521279684030564
23.812700003925745 57.62635689790269 -0.3529307537658126
25.081837623961572 59.87518798488712 -0.35258049568779276
26.26928319221413 59.57781731007034 -0.3523782876981683
10.78683799065257 61.10460002953762 -0.3491365100747455
10.771775134195375 61.062973401335974 -0.34947816067012877
12.89236167843526 62.9970208702156 -0.2990142297571972
12.043712480767814 60.81514957375196 -0.30377930686722027
12.302153051135917 60.73518492762795 -0.29439943703332033
12.715183329458158 60.63342582012952 -0.2794224346303663
13.09703504589394 60.538899405058174 -0.265673798660486
17.5462114984417 61.804122769778274 -0.34962470857352923
17.641535739195092 61.7805238618602 -0.342904861396762
17.733013291365136 61.75812133254655 -0.3365219131468746
17.836659428756327 61.72855475464152 -0.32908778381087145
17.959491847700598 61.699072361359995 -0.32053715242958536
18.075085264168337 61.67266060958542 -0.3125529826639701
18.154922793108362 61.65290387758522 -0.3069582390206147
18.241549683489453 61.62889709112936 -0.3008437646286181
18.358801213565446 61.59835692828532 -0.292611666097415
18.452688997644245 61.57886339524363 -0.2862215600470434
19.41250440455591 60.17374891167373 -0.3161669124013876
19.3852645075935 60.11519980262107 -0.31701805967407726
19.592313168034728 60.3360804250846 -0.3042764865597646
19.548050875186505 60.265366945755154 -0.3059056192633695
20.42755423094413 60.565272822755645 -0.345648319259924
20.046908464049736 59.320252742044055 -0.3406780194847665
20.162470743478398 59.28967930615901 -0.32410457950494403
20.269731734585367 59.265480138590966 -0.30878594877274973
20.357994312690764 59.20235705961262 -0.2958803387840398
20.34545485511771 59.13512983612982 -0.29730679553224904
20.36662866620554 59.16772393841836 -0.2944431461950989
20.343412778339594 59.08268613855205 -0.2975661985040002
20.323497298817497 58.98684700392201 -0.3006842256452113
20.298852449925246 58.894112239522116 -0.3049497834030379
20.273870191546653 58.79438536423648 -0.30986167288866984
20.34619052598245 58.728764875538 -0.30091718000427353
20.458740165346704 58.70022490341139 -0.2857952455733645
20.565864294072167 58.673726165575516 -0.2714796256776896
20.65639324396242 58.6465915995537 -0.2974076526459925
20.74089419374923 58.62370628325177 -0.3196027399004315
21.6754624898995 60.75811527751561 -0.3131298981260038
20.844053406023612 58.597591882084444 -0.3171851828424475
21.801237262949208 60.72882161082903 -0.2957351111220996
21.752179091620782 60.73658360012291 -0.30190848848779767
20.935188987183366 58.57669552077773 -0.3023093025159531
21.861905538014135 60.709071608806205 -0.2867083485556951
21.065843833559217 58.545836305589646 -0.281267432041837
21.029872284127986 58.55022358438989 -0.28723433532317316
21.956654274429187 60.685162640963476 -0.3102505084265822
21.140801200356155 58.52487296504594 -0.3113796790143929
22.054820313962487 60.658225742475516 -0.2941219564192764
21.228950652638773 58.50109534047296 -0.29361677349585535
22.145337313682788 60.63772486213323 -0.3068675999794537
21.334989876389837 58.47426764618914 -0.3065998792590041
22.249180830263647 60.61200190088215 -0.3023195200208329
21.440430023838474 58.448117000205976 -0.29908228926605396
22.35665473992044 60.5829262994904 -0.3089818847684588
21.52489166155586 58.42564208393584 -0.303669466260303
22.445786032690442 60.55957067293247 -0.30459616635507303
21.616273520886935 58.40236329616682 -0.29415821395076824
22.5447299188753 60.52901742926988 -0.2912421176532075
21.719687293605812 58.37519351531127 -0.29586102100736805
22.63421880070252 60.5153872001426 -0.25371549025467816
22.63174057066126 60.502459228024705 -0.29344698139445485
21.817175455272483 58.347453561579236 -0.277883536987088
22.752752467038977 60.49690448523786 -0.2997512691417583
22.73864459870517 60.46746679931902 -0.29276464697831517
21.93135111553305 58.32418010254751 -0.25666999145695457
21.907953771870815 58.32263097781409 -0.26181316460432413
22.851130846927862 60.49227830731892 -0.2947642409641101
22.784517655847967 60.456023818985905 -0.28765319572914133
22.978657957506844 60.511630431746575 -0.29745504910311793
22.987445786742498 60.48222934707256 -0.2896463553734204
23.005394367182486 60.479697384598936 -0.28889272105534886
23.04880542264319 60.44682118377717 -0.28030511087517757
23.17468607036682 60.43542980082013 -0.27936860842137906
23.13395755797129 60.419052028026904 -0.27404234309541864
23.2390279977285 60.42746097504463 -0.27950618047808806
23.203286114887653 60.36681761956727 -0.2620691906037581
23.34566797135028 60.38946060932043 -0.27504417459120645
23.440440454648346 60.35463231264329 -0.2728588260765236
23.538558467323018 60.3286711615714 -0.2751774434425065
23.63583247988993 60.30372419196608 -0.27964993148700434
23.716630153279528 60.24443891514896 -0.27566190529379336
23.717140287556685 60.201833148945845 -0.2655879994158817
23.80790782330085 60.20232067804543 -0.2790903673208397
23.90546393966539 60.17753517298353 -0.28929014427923794
24.006407856325907 60.152152805202 -0.29659219585555285
23.125435172401108 57.772743937250205 -0.2546000302805468
24.09990857688478 60.12714027204118 -0.28630013024964496
23.198794433120078 57.75860721062919 -0.260904523979041
24.196659409459087 60.10002008014408 -0.3013333831729549
23.295663174640502 57.73394098501552 -0.27240369619078014
24.29137559636516 60.07252750929472 -0.31274695168147404
23.39464802922542 57.72374138971277 -0.28197118968048107
24.426200953284066 60.04833242575632 -0.3082415593247976
24.38977611898371 60.04711943707425 -0.3008968295050821
23.495700372784004 57.70768302651756 -0.294970724657461
24.50244247373914 60.022704942378724 -0.28904026694888346
24.46278328547432 60.02553431927042 -0.312461082368016
23.612782419087797 57.69103481748192 -0.2891666647303249
23.563174240963722 57.68797899459972 -0.27743266147132944
24.589957406829964 59.998077572352244 -0.3016237643383521
23.692751123725518 57.66483309817888 -0.30284973590701014
23.71125738820957 57.63621484105967 -0.27938934680422484
24.675670857582045 59.970650556398716 -0.3067983969838938
23.785116260183223 57.631571158478145 -0.3118214368757878
23.746334738354548 57.62467020235258 -0.28578063540097975
24.792050998375032 59.956795621842616 -0.3036260037313377
23.892950367235596 57.600952025432235 -0.2940113300788875
24.888397264366198 59.93482026276223 -0.31990331555390644
23.98042140215654 57.57632201942604 -0.2934074029027156
24.97503497587293 59.90013332187081 -0.29487222426131715
24.083645227139044 57.55102926336695 -0.3059572879086434
25.061524456669652 59.870765045116784 -0.29533904692970636
24.19175632463624 57.53394690926595 -0.2951037550354257
25.17264248531948 59.84509145319222 -0.2885662888861671
24.38343359998107 57.71683685877294 -0.2947527996913648
24.324577208450368 57.6753857625221 -0.29195733126561607
24.286066411164775 57.580774177997164 -0.3005675819656836
24.255800649039994 57.523299436661254 -0.30526443727312724
25.26798191701877 59.81858978085683 -0.30542390521652385
24.453299117105306 57.69379239377485 -0.3086568886940334
25.36914834286568 59.797336837039325 -0.3211650208590903
24.551080135549995 57.64883629326437 -0.29639884083679363
25.464240051174457 59.77212813710046 -0.31856076280501466
24.637792004059527 57.62690320972413 -0.3019420644720097
25.562085124918323 59.74778398681061 -0.2873145842447324
24.74866589659376 57.60193757052445 -0.287752341532973
25.65916804459249 59.722475532298326 -0.2732257102863017
24.83833826567368 57.58241757817523 -0.30199809126349847
25.75725353712723 59.698108884481655 -0.28571192657142214
24.940812074039545 57.556218916200095 -0.31882520038745193
25.85360392555209 59.67514396854684 -0.2980927712714336
25.049492238774828 57.53030882527324 -0.33661884417003995
25.953747906156064 59.655427265549044 -0.31114069682476697
25.13603483744023 57.5068355565966 -0.2743489202596847
26.09188694533787 59.62450934825868 -0.3291682348860335
26.03396864163533 59.63495651813067 -0.321539559337602
25.23414595232657 57.481541350953144 -0.27216929403443524
26.161117307979865 59.60981915661027 -0.33826914814339204
25.3227548264514 57.4585815172227 -0.2840408710965298
26.23910904044039 59.58994320316708 -0.34849063896250204
25.409565060097282 57.43947384185174 -0.29546947046054617
25.51074919895723 57.41229215606834 -0.30920261191017284
26.457915103641835 59.54100270983029 -0.256161836838484
25.619214178787217 57.383646742626226 -0.32393998519198003
26.536337531422113 59.515510028156136 -0.2638775486825397
25.70876157436094 57.36419492131226 -0.335856144666576
26.65065607511538 59.48621308224058 -0.27523914178644443
25.79380468434607 57.34308331106797 -0.347389392706082
26.688694043012138 59.433829566270326 -0.2787291083475329
26.659051308982626 59.34882400190596 -0.2752296073591164
26.63135084071324 59.25351810159986 -0.2720643542756061
26.606122205455744 59.159693061436876 -0.2693585506923412
26.576395204776976 59.0617996712573 -0.26641956354181606
26.551394120295928 58.98942665661321 -0.2640744824948644
26.642285066317093 58.95656028202714 -0.2735084637519424
26.22634431385167 57.71936444925635 -0.25753467214380443
26.02597730289147 57.28167026042642 -0.2573808900583957
26.243001505484447 57.681423939516776 -0.2605289647372868
26.203269673461513 57.59947881490841 -0.2599083688338844
26.179261946889206 57.497999278293875 -0.2617687412917165
26.15042124204217 57.40423602917454 -0.2631081822552908
26.116750840409686 57.31239009528453 -0.2641534077923917
26.086505878036547 57.26672168528731 -0.2635351914387552
29.11554251973648 58.85864937617276 -0.3140853520242315
29.20464935597669 58.834898016900375 -0.32016478078511856
29.31753675695449 58.809612546079755 -0.32784282474481174
29.42438057370914 58.78353406032644 -0.33512960088873667
29.523079375403096 58.75678990157374 -0.34187017170394735
29.645650849364245 58.728474838646854 -0.35022984364682574
33.90315376837854 57.417950359867554 -0.26165703032122456
33.8738455456527 57.34573381646924 -0.26111843973909366
33.86173089914202 57.233313958029754 -0.26135184558347474
35.89423667319692 56.7065272706862 -0.32898377977661936
35.570495831617755 55.41435997123059 -0.32734561924321154
35.53654820120881 55.33074096770165 -0.3269145639438574
35.50375868656039 55.242774348773786 -0.32656288852673837
35.506892011710846 55.17149259042972 -0.3272068499298328
13.582268000670885 60.43164372989239 -0.24816670883820136
13.874256469035176 60.35627294640042 -0.23765909426175605
14.20443502869934 60.27848337592099 -0.22572434595692886
14.485357527864963 60.20893882042712 -0.21563876394369322
14.738868355841488 60.14425627736002 -0.2064548780431523
15.82836607760522 62.22963755239958 -0.1932862731129334
15.688435335409288 61.98881644963466 -0.19346176107456245
14.957075011408278 60.08670587516207 -0.19862234505071
15.795141016046747 61.975587321822566 -0.18982159133890236
15.950372960780022 62.13187836260677 -0.18769369765641541
15.956368565117124 62.04151492928756 -0.18589529895543294
15.901911601292325 61.975591319805844 -0.1864625092002672
15.23126115247835 60.02443842835994 -0.18873868153544882
16.125582473227855 62.172369062161536 -0.18301114778134894
16.051624889191963 62.16117798984681 -0.1850694188741918
16.2415740383439 62.164471192906696 -0.17930825335234427
15.368716347131038 59.97998157599743 -0.18379533051446031
16.281622095539166 62.17500045425926 -0.17824802974672507
15.575847645048796 59.92764662417243 -0.176309703486106
15.755422270798377 59.88031731345488 -0.16988526095385997
16.695086319358552 62.051999087424434 -0.16324194401069853
16.805592192274744 62.04009437554741 -0.15963156063824357
15.913479329424995 59.836959519601756 -0.1641646420152074
16.868077051456822 62.036395616886466 -0.15769441176526097
16.089570607883147 59.79284000530438 -0.15788159704512728
19.46205600029685 60.25825072610242 -0.17933705727762775
19.60228141446313 60.33428096836974 -0.1721468260707696
19.5753578044775 60.267108502631906 -0.17210200571803605
19.5309904819958 60.15262751684963 -0.17221883146756092
19.494808100341643 60.068289405971505 -0.1727617097462172
19.62274564186226 60.30618718896176 -0.17004445456250394
19.547851789774025 60.1002502677805 -0.16989901420581446
19.546188747726458 60.080626350116496 -0.16957025134174328
20.356614945003955 60.582251517063035 -0.24401189212655927
20.0496983466193 59.320855149852505 -0.23191813056777183
20.14990513742878 59.29158898356873 -0.22114541715606098
20.24572593548731 59.26821037673699 -0.2108965169096042
20.352658403044558 59.24506565041849 -0.19947865795830744
20.354028762931552 59.18807285174219 -0.19906832528770385
20.34105940523495 59.11997035685467 -0.2002742557725885
20.339434773341665 59.076296755042414 -0.20047524061566804
20.321863513878434 58.987476512159965 -0.20262625701473488
20.30043924945852 58.8899202728651 -0.20560934153564703
20.271207018840425 58.78971806005326 -0.20985653719441139
20.346089607185515 58.729248827779244 -0.2028980511942258
20.445293777012655 58.703566401079755 -0.19295527258699174
20.55304016333312 58.676777059814086 -0.18221071122733884
20.664541747262177 58.649695693348306 -0.17116168012548683
20.749503263427048 58.627402075124515 -0.19911004784789257
21.676757298088237 60.75648501218263 -0.20108985703977464
20.832637334042758 58.60540772505909 -0.20663406069049065
21.76666827715251 60.72703628773583 -0.2219483712058381
20.944213782540814 58.57519014969154 -0.22207810711919904
21.868059238228412 60.70353148351545 -0.21108339745765348
21.818051563935448 60.70971495908046 -0.2157246949190884
21.05137825927948 58.551872144227254 -0.20826722482186
21.029823195044944 58.552673593930095 -0.21119405395062127
21.959832016142855 60.67868791390128 -0.20110772940123114
21.12943808144247 58.52933448413928 -0.19855667667657567
22.058785743229365 60.64736381813167 -0.19008945773367478
21.239330179762 58.504460571261035 -0.198420054324163
22.15799392047889 60.62814763029226 -0.21080038793861708
21.3291380697242 58.477689074398846 -0.2053234693689255
22.2488007176901 60.60541096064321 -0.20733760358769154
21.430711473146797 58.4538543420295 -0.19698167527093016
22.347056629783882 60.57672464034329 -0.19262740849565205
21.519513868849838 58.42943366557468 -0.1946628212528529
22.43991756928301 60.55430957463583 -0.18877886022063492
21.63095579230267 58.39859640384486 -0.21273470575113068
22.54224900163096 60.52600497465843 -0.2037343826904323
22.183652550468462 59.595628372989715 -0.17740844921852855
21.718438110005046 58.37608745037932 -0.2109439373813604
22.670027301938216 60.505116482433024 -0.23580262712215466
22.640540822172376 60.50105551748574 -0.2084965522599254
22.26209103291509 59.5663853366686 -0.1569292415398121
21.855645142954746 58.351381915532045 -0.16539883154743554
21.8147959099404 58.35129120298839 -0.2011888126833009
22.750521227074284 60.48920767046672 -0.21864578122848008
22.74098776093422 60.46631529386755 -0.20364187399826955
21.925713801371227 58.3273398296027 -0.18219566964697362
21.896441912854595 58.327259089020366 -0.18424845223313105
22.893253794135386 60.55102599720727 -0.22470852945735853
22.84728959191047 60.49646913243195 -0.21450183261251227
22.784612484668745 60.453009283993666 -0.20706269234592223
22.01131665842288 58.302832363821466 -0.21710895817641873
21.965100293595963 58.30601017561582 -0.15380001226437423
22.98657660254883 60.52181375311531 -0.21201679964552447
22.111077043248212 58.277264216836656 -0.20477247025874457
23.05201897585943 60.46743134108571 -0.21211430374248574
23.057731740844208 60.45309736353052 -0.20039292813049997
22.201818970963274 58.250837934843055 -0.20945215259847108
23.15172708942768 60.44310640265983 -0.20885774824771158
23.136538018654566 60.423373911676194 -0.17371461214555636
22.308836037761708 58.215381985612204 -0.19026398058289648
23.22413701009474 60.42948314065702 -0.21008035311650272
23.22541415650394 60.39219800490668 -0.21937938854084385
22.402936162728214 58.205483884618594 -0.18441961708519486
22.498289346668745 58.1655708958704 -0.18557737768443816
23.465439270384874 60.34805846143168 -0.1880998281875415
22.597907741031513 58.14304341985905 -0.17857169428570063
23.536343962002885 60.33109045132244 -0.20039292543319684
22.693954720418265 58.12026805151712 -0.1745285797637135
23.633653092618783 60.30629431268371 -0.2042333725996958
22.803172560351094 58.09819548721919 -0.17203234312723983
22.786180733494675 58.09295335075097 -0.17442295951506578
23.717985721660586 60.24542845657523 -0.20075745594807876
23.728836462241542 60.20224540339832 -0.21848364444464174
22.89364164341981 58.08597804745375 -0.17087625189509562
22.83943706697131 58.076474289410974 -0.17559503394381493
23.81008133645929 60.204773977074005 -0.20409747046595136
22.93250230331367 57.85417132580431 -0.210168110247565
23.90640103687428 60.17989411741768 -0.21295710661758582
23.00800781094141 57.82163008145749 -0.21076702131415676
23.037270136252715 57.78671897678428 -0.1564206910453337
24.00214036654431 60.153440159401136 -0.21989269458817737
23.095303753868848 57.78420103260732 -0.1983582771210702
23.056808714234396 57.778419781334726 -0.15825579492429545
24.107516395909595 60.12216826050621 -0.19037075249474208
23.19481859315091 57.75839613843428 -0.18901870107023327
24.19152749524801 60.093538425243246 -0.18978948219310215
23.29172033316714 57.732826813781834 -0.19851849872126986
24.288224215846476 60.066538750840245 -0.19903034777118006
23.389398225406456 57.70857426147543 -0.20920989279761965
24.4394489665197 60.04265294495051 -0.24926681676366985
24.38488880938988 60.042246867529926 -0.20881099365571537
23.545227341587445 57.706134537369074 -0.19534466768164438
23.489327970378845 57.70405441020175 -0.2173344884110441
24.476463533359116 60.01416722576286 -0.20260901638230475
23.610202922537685 57.69388850870207 -0.20290682060735266
23.564954917217374 57.68772330374403 -0.20035168904762882
24.600596260904364 59.98349187720376 -0.2075683512194106
24.558181961035572 59.98929261326922 -0.20175928972145696
23.67646686638209 57.66729677256893 -0.18854638559353298
23.726199441649815 57.629870779660585 -0.2252640419197884
24.686885523894453 59.96168669748155 -0.19585675747883993
23.781478696522743 57.61822113308293 -0.23283883314604734
23.78494744178085 57.607325611945846 -0.23511596913085558
24.778791773133168 59.94539321177551 -0.19616455300987004
23.881580919830242 57.58787881253815 -0.21684881287396326
24.881467236689208 59.92908888608773 -0.21139902055055895
23.977484173532673 57.570332617615385 -0.199992380774736
24.971877939474375 59.89832844542135 -0.1860844463886539
24.09142884752876 57.54431396494655 -0.20346923790315086
25.07641920564465 59.86958723495988 -0.19822662745834962
24.182454128268756 57.53812196763641 -0.1939172380046778
25.169226594680254 59.842276848624486 -0.20915978505496874
24.377715899841085 57.71813322023665 -0.19303842247142175
24.319397219034684 57.67890372152739 -0.19174643158505036
24.279005275677164 57.584423943412496 -0.19661541561202162
24.248804769164565 57.52515136583655 -0.19328805419342351
25.313625914484646 59.8125913148783 -0.2270299725080706
25.26408064016217 59.82204561820143 -0.22263520538552348
24.449808710377813 57.69265478850038 -0.2040242670207729
25.38823949046833 59.79289886495447 -0.20669239246723334
25.332795641496016 59.80110577067479 -0.23078648935778165
24.53472047311042 57.657328866904976 -0.19713277871538146
25.456047702770274 59.77795964062131 -0.19371907529772014
24.6476850096039 57.62631374626718 -0.1957995447083445
25.561068080124357 59.75104064196683 -0.16922037832914144
24.748378624387488 57.60209964396137 -0.20860237766834108
25.65826761168247 59.72555641705149 -0.178359199562139
24.839575600646562 57.58132659293543 -0.22021217909024676
25.744336580326106 59.69850988756851 -0.18643228591183336
24.944705380274225 57.55678605443615 -0.22145719061392785
25.85178553258232 59.67839789835776 -0.1968328213605708
25.04072226882053 57.53138555288326 -0.20240992914921124
25.964110845666863 59.656192597210534 -0.20774475979159324
25.130259761981662 57.5072915336138 -0.1673912439800202
26.081221148646726 59.63190448931666 -0.21916881899195623
26.03218426492159 59.64388952791143 -0.21440092585353696
25.22573785052322 57.48186460409465 -0.176909872278134
26.156995002593654 59.61311841894618 -0.22655216621308524
25.335034137083674 57.45556352521785 -0.187707846329921
25.290407883575245 57.46364056747427 -0.18343109256724507
26.23202409630974 59.59291016259961 -0.23387280902300847
25.43545317639394 57.427372451926644 -0.19788640379158728
26.33772631949286 59.569836931630576 -0.24429265310877138
25.528011514369783 57.40660392696541 -0.20703047074627218
26.412043541769926 59.55178620337145 -0.2516206864082468
25.62413473539443 57.38015511108686 -0.2168106420094941
25.72129529765462 57.35592723427279 -0.22659700569193372
25.819254692284034 57.33356758955832 -0.23639434119180333
26.707889094795913 59.4784846109459 -0.15211024615814692
25.926964259691115 57.30748984751376 -0.24726909300413222
30.789724490829474 58.45600572037339 -0.1574271504925592
30.95901286597981 58.415933004636585 -0.1629999474260413
30.534012471818333 57.33543439579383 -0.1551109246775887
30.515048818724004 57.25738214394265 -0.15502795566216288
30.611382807885292 57.37268407088625 -0.15730771485080752
31.142043986523227 58.37273010834822 -0.16903550513074778
30.749393936182667 57.12995680001611 -0.1632946383937053
30.74831903167206 57.06066296341839 -0.16374644006170255
31.304571415186146 58.31473363232759 -0.17446716376295376
31.27463819359967 58.23141739319544 -0.17384584265808023
31.255344980591627 58.133545104342076 -0.17364032204129165
31.2128888815243 58.037657609853355 -0.17271096995232632
31.193165819834846 57.93959458451699 -0.1725612433678753
31.17552446431496 57.87115813136615 -0.17234547475035927
30.65885989732955 56.362840728486006 -0.16637167658020627
30.856114741957267 56.56345241209542 -0.1708622852796735
30.82237678360016 56.47048779841546 -0.17055830262622468
30.79417437158415 56.374583702333496 -0.17047032676976584
16.2659464725389 59.74992484795316 -0.15152893642158596
16.41462362666754 59.7110569995964 -0.14623126636766554
17.331516339298435 61.85140371470416 -0.1399531984542636
16.555590585833876 59.67397204211473 -0.14114962157534075
17.45593313780116 61.828104967976614 -0.13572174951870736
17.54441627521814 61.808598246658335 -0.13269454292192304
17.66847775827626 61.77054725362852 -0.12816816313961688
17.733305582310052 61.76148728607996 -0.12607246638133135
17.86566163233909 61.72831880681229 -0.12142521436452292
18.00290951275007 61.691235814312776 -0.11655789782340217
18.097165833509884 61.66448582369788 -0.11322670100037072
18.170020352430917 61.64828870770393 -0.1107087622420202
18.232059277534457 61.63728070968191 -0.1086736312581886
20.03942508526251 59.32264140414642 -0.12506773999487555
20.134964219536258 59.293688614359205 -0.11822727150663692
20.242609512655257 59.26413155065763 -0.11054518920553563
20.362159046595863 59.20271024497052 -0.10196402231080404
20.347902687051626 59.13167915503815 -0.10287955172400695
20.362587243989395 59.15027750543868 -0.10185053212700293
20.342151406284277 59.079306339554925 -0.10333970144419286
20.314908709906856 58.99280103396184 -0.10552861824742896
20.284322723338956 58.899354443559496 -0.10823490867332378
20.25768948004319 58.78912859054232 -0.111104276187101
20.36338257556289 58.72218055260586 -0.10448172003810935
20.461956240457937 58.696824749648606 -0.0979471470570213
20.557777299193194 58.673350278683266 -0.09162189985309574
20.637458338533303 58.65000571107375 -0.08646156466960722
20.736852623948636 58.62809979972586 -0.07995655581231828
21.68921304475747 60.751110085756025 -0.0874383371308837
20.846282220905263 58.598884809764364 -0.0928354489127533
21.796743832798004 60.72781065896827 -0.1440162550434603
21.75972382760964 60.73131794121812 -0.10612415802934794
20.945863708423694 58.57589668205482 -0.1051645433885858
21.86634651499328 60.70632392715474 -0.09896396740205293
21.827302370253804 60.71236423633228 -0.14079760741469483
21.075354036270596 58.544816275251094 -0.13159777527417904
21.03298729390868 58.550164263178885 -0.08846356117454662
21.959841300920772 60.67962684178728 -0.09333967290371517
21.139107505970507 58.52691317612981 -0.09283067304092277
22.05722639585768 60.653890370912514 -0.08906482812001684
21.23193089711862 58.50442646346052 -0.11710812106908353
22.143958919884856 60.62829915328269 -0.09729241249055273
21.330191080287335 58.47978467674302 -0.10820318720426406
22.250391734894404 60.59950201042531 -0.10850856873842779
21.43302779019914 58.455141165522456 -0.09902978638407008
22.35126264618308 60.57690768098148 -0.10214326988623834
21.535174845736535 58.43050968787891 -0.11231971523951526
22.45371097384683 60.54540553018087 -0.10956547680654644
21.626631422612753 58.4095983351563 -0.11078811346297855
22.539265823979708 60.520167844592706 -0.11696837653526648
21.72277547476764 58.385386930414256 -0.10376334886504254
22.63736222700796 60.49406448075494 -0.11075828577894002
22.244271911158926 59.55880447040596 -0.095742214001975
21.839482163844448 58.361234889826044 -0.08207082726737581
21.80656655723474 58.35992489674453 -0.10059786474471626
22.76362746803243 60.48879458475272 -0.10100076170212055
22.735778484004047 60.4659054143094 -0.10759207877157662
21.923149640558833 58.33674889584716 -0.08279562032227666
22.898812929355348 60.52613688229854 -0.10301348762118069
22.846547007551354 60.48963974959811 -0.10739466824710134
22.790194099939136 60.448532255335834 -0.1280047677374654
22.01376418746239 58.30622822878368 -0.10454988517580904
21.986828991804686 58.2982071184976 -0.15152287410895746
23.000570575224312 60.516901159802465 -0.09502074094190163
22.947447965600844 60.47630852464753 -0.09233328997372413
22.109741554308894 58.27446587066998 -0.11424088514988323
23.06847283683046 60.466203843754926 -0.10813591149663765
23.04754086362934 60.446979456216255 -0.10144922195963332
22.193409494359592 58.249168122224155 -0.11387037896106308
23.153420674242415 60.43465794308067 -0.09580823475162653
23.137831084947333 60.418406621678486 -0.10262223957528906
22.341127736096933 58.20692653915053 -0.10122250798310183
23.209488220269836 60.41059921285278 -0.1039597660216704
23.21172237977903 60.38493640223213 -0.11973711541925505
22.407040147932758 58.20121116806566 -0.10889219462267327
22.49784533005946 58.16739232752959 -0.10717891556376284
23.482073169492615 60.3408730236019 -0.12470098858293613
22.598377546538526 58.14644610666421 -0.10306881680083749
23.536869308593733 60.32138368412203 -0.10065814162041166
22.73841163321838 58.12300177459778 -0.13350032609153115
22.69205125246689 58.12013767144004 -0.10037254258632311
23.63042706830185 60.2939423754496 -0.1037177640915872
22.798782131757175 58.101086443569685 -0.12050317237235655
22.78762084820213 58.09080522510759 -0.0912394372366371
23.71407406640558 60.24145935277424 -0.10605331113692917
23.72140448867258 60.202323721275626 -0.08350248994010526
22.892363103511574 58.07618254995125 -0.10287640770642904
22.841762784576442 58.0732712491022 -0.07849524896759065
23.805846058280533 60.19311552722597 -0.10559363791648904
22.92451010441472 58.01417313486541 -0.1312308152918337
22.93303614855726 57.85135501091459 -0.09860013285588642
22.910747854291895 57.838659858698335 -0.1464133097705714
23.901654406528667 60.16901412004409 -0.1110221900525365
23.00235183525915 57.82856010943802 -0.09978006571951696
23.031260555906925 57.79286697652911 -0.10991762568004566
24.000473643158593 60.1447083645825 -0.11885161511619227
23.100835203301045 57.7883703122787 -0.09027264696398457
24.09263243653173 60.12112773067676 -0.11679787822603732
23.19928094197254 57.765439627241726 -0.09472630387639566
24.1953974719372 60.09649981570722 -0.08192415107185114
23.296167551793015 57.74506196120682 -0.10018322755324996
24.291358498438647 60.067882634037105 -0.08710450979445969
23.40023979360324 57.72156957833043 -0.10807559507791968
24.428927347153156 60.04432846240382 -0.07052940865872817
24.389557094050353 60.043512664261726 -0.09923786636507946
23.52538940943655 57.71594941857792 -0.09742209834217258
23.492316589754445 57.7147252000971 -0.11975738909222874
24.50653241769291 60.01698332848874 -0.09772891387027624
24.472608969258502 60.0209816617821 -0.10461539525937943
23.596912230126758 57.70169217283337 -0.11967036542969509
23.553824334549915 57.69386925956094 -0.13370201399438056
24.58265370630953 59.992410121692096 -0.11599297035158612
23.689210087009705 57.660342799874186 -0.08805438995088807
23.72399114480062 57.631915865383235 -0.09444877581713096
24.67344102227869 59.967220686168936 -0.10336679661385283
23.788937488851843 57.61842707879274 -0.1188287441851345
23.762815706025624 57.616067709744236 -0.09873363483176226
24.787121700253714 59.953428412028 -0.09828633193240739
23.891474298464296 57.58520421955488 -0.10376736377360427
23.87946645883399 57.57507998820105 -0.07078644534782759
24.885288678604745 59.93642696078116 -0.10685676368802702
23.981281847906434 57.57038152281389 -0.1078543355216609
24.971132260688734 59.900402449472395 -0.1137771005496194
24.08145545367575 57.54750642468834 -0.11168023573538705
25.067522469472273 59.87233230199351 -0.12217562845934421
24.183462321204725 57.533103758845456 -0.09280034273287005
25.17155561765732 59.84660842847089 -0.08966439473801077
24.384773184144635 57.71570918392339 -0.0945510463308813
24.323641677137008 57.67674847221989 -0.09255619699587121
24.287295731227733 57.57985496751431 -0.09657879838069713
24.25450245225678 57.52028293078521 -0.09851404401307035
25.29347918624892 59.821880409194115 -0.09792822038584195
25.258245660399126 59.82574144081228 -0.1106154250847564
24.444469231355725 57.69789975412504 -0.10026999174030447
25.361437465520403 59.8001560186002 -0.09501974963677444
25.325373433647695 59.80500734920785 -0.06354706712289394
24.559843323954457 57.64466103612546 -0.11261578003649007
24.524554672517045 57.6500357312462 -0.1095201541400378
25.460806128532358 59.774834633335836 -0.07199924192783914
24.64656076745363 57.62728915082314 -0.12054844140853727
25.566265937726136 59.74641401940815 -0.07840316341361223
24.755599342366953 57.59995394951961 -0.0995320821360964
25.667011184366107 59.721752271606746 -0.08472363689840717
24.848229913195997 57.576935585101275 -0.10305065984124935
25.767669793163073 59.69782084675191 -0.09109227208596961
24.940457105984237 57.553384092390495 -0.1020984164363133
25.859399802945646 59.67361397828953 -0.09690920848192422
25.038338429675072 57.52754680734544 -0.07113952174767564
25.9582417735007 59.653518444618605 -0.1032628255807764
25.13697276562344 57.50210891683223 -0.07757086384452462
26.098268703470055 59.62276463505794 -0.1122945951292906
26.039310462934026 59.63309303158946 -0.10846439944471924
25.22590278475762 57.481622914784474 -0.08331484041882121
26.1434243444573 59.60914814982797 -0.11519209391410984
25.339373504363504 57.452324651222746 -0.09078377756678307
25.290297345050433 57.46354296731796 -0.08759397790383919
26.251374242675944 59.588936769330076 -0.12222734561776036
25.414447748349513 57.435732955126994 -0.09565132987197857
26.35606118432256 59.56533265051495 -0.12904849907878277
25.52495884447487 57.402354883085806 -0.10313266555402628
26.444210523905852 59.543329885112655 -0.1347989188894706
25.62815813143131 57.37730268495395 -0.10994452163324744
26.533582550495375 59.51975476380556 -0.14064446163793393
25.722175741156658 57.35504082085025 -0.11615055306512528
26.629447659707917 59.494828233071914 -0.14693370675927336
25.82658729880982 57.32865587367152 -0.12311642627367025
26.691863733554584 59.438898585252616 -0.1509131476603401
26.661895275509817 59.353895310926916 -0.14871135331950472
26.638475286072683 59.25248469265889 -0.14703193254388275
26.608239682073382 59.15234453440435 -0.14503756216420613
26.58367277774417 59.06040269382055 -0.1435448254251612
26.561262005961023 58.99401927404131 -0.14222732252789805
25.911455981814758 57.30982584200799 -0.12871044009973454
26.63787628798671 58.9554284569838 -0.14750543673805583
