ply
format ascii 1.0
element vertex 857
property float x
property float y
property float z
end_header
31.44968511245042 55.923629902013815 0.11994385211300496
32.42521249085129 58.08492961821754 0.17301777637697593
31.60420959385882 55.905858425611356 0.12200284549798104
31.58354235412287 55.89619152380401 0.16320537427581588
32.51557483432729 58.05489825132622 0.1723499641317255
31.683711629925543 55.89191325873633 0.14205026285413955
31.65436954968603 55.876704178302006 0.17440368342016274
32.619535352177095 58.03136387266402 0.1444771597832651
31.75160002088809 55.85204920082418 0.16125058225412017
32.72128113202613 58.01753900635116 0.147123370449885
32.794225932348496 57.94913176033023 0.1476092686093581
31.917196410871835 55.63925326127018 0.1990692776897615
32.893200501705465 57.909881282551964 0.14978126035240535
32.01448537805936 55.54825949276046 0.16919588072241679
32.98958073758957 57.88663620587927 0.1509583179417946
32.079740602422895 55.53540874789504 0.1577174672212157
33.08701825447858 57.86391981128468 0.15217879065202514
32.18567072450289 55.511723349297725 0.1449787664178487
33.184992728463044 57.83893023852051 0.15478686313491208
32.286923420230416 55.501008661917915 0.14704467186572318
33.283879131584975 57.8154630804149 0.15751078766826945
32.38906324273444 55.4974106591288 0.1489932701467248
32.37772782599953 55.486138857546095 0.14917279489552784
33.42083208371235 57.779446880845704 0.16131689548527428
33.37270118280612 57.78807718937432 0.15990259837865695
32.47807883840552 55.4635031971326 0.15181254642060416
32.47270878906239 55.45905091787396 0.15186025478123633
33.49433393877196 57.75973000479488 0.16339449384028412
33.4469762984602 57.76700561546569 0.16196777769125206
32.57613193470879 55.413226649445015 0.1553814558280523
33.570911000673156 57.74425698915728 0.1656644793966424
32.66689401312593 55.38559066994703 0.1580951289328637
33.663826428031 57.72522561747499 0.16844109059053305
32.77179776499785 55.35532763076252 0.16122199311357827
33.77528649535121 57.70248556487277 0.1718113617849987
32.85626116881332 55.329567519038505 0.16381264446616117
33.88833749743072 57.677008350820614 0.17523553335351402
32.95802393052052 55.318985744440056 0.1663579914163077
33.987871470928695 57.6514241579715 0.17823770399873032
33.19244981955785 55.514471854015945 0.1665029741098208
33.136497292476186 55.48138440034364 0.16596936920370142
33.10213113224529 55.386466717356825 0.16771604695263645
33.06648280091403 55.31604133411338 0.16889097261737065
34.06079804166386 57.629785731813186 0.18041351691996096
34.03617541879155 57.444729174265994 0.17770698380623315
34.03209286454441 57.427614263922926 0.1774227973387957
33.953745147638564 57.191195660315444 0.17318610475510635
33.227787047575454 55.502746754328264 0.16771008678448665
34.17097070981039 57.607138436803766 0.18384270495613533
34.06434398604389 57.408266246625395 0.17835191308662598
33.96925840033053 57.202737737322686 0.17377427855098607
33.36294153083437 55.450272485716376 0.17250419480423704
33.32618071558885 55.45601031524545 0.17141532931014505
34.26140668070817 57.584898338991046 0.18663790430864327
34.20161830199394 57.38082380431606 0.18278840391084375
34.14623270091862 57.393133510225496 0.18100647407115114
33.43866705118561 55.42657993631831 0.1750638638604882
34.346365486530004 57.560829022216815 0.18924717424114432
34.2634111448095 57.36290760251251 0.18475295978270476
33.53504030816057 55.40475256058627 0.17812062224967604
34.45756129918194 57.53082565549544 0.1927059028218511
33.64676859369979 55.375509814500376 0.18178463278839732
33.73756287248605 55.35531281990636 0.1846873811458031
33.84053135906293 55.328746450434096 0.1880808008666164
33.940874158873456 55.30544208650118 0.19134260375596587
34.03478375878577 55.280692852911145 0.1944720974232322
34.99421744656795 57.40246398341138 0.20983796059798068
34.78362084694449 56.98273682891353 0.20084265628832185
34.15025822257033 55.25396941586733 0.19824530469767396
34.10177855026293 55.265435077586446 0.19665980184807244
35.0052000282523 57.20736825594926 0.20910100103805376
34.22909934485577 55.233671098921704 0.20088149887347348
35.05712571069606 57.26114027082735 0.21112708055281862
34.330606920526996 55.209321409980156 0.2042401076939749
34.407175364631364 55.191610614039384 0.2067694840714823
34.50364206495777 55.16470103394886 0.2100513224710208
26.699006622046085 58.975357774697756 0.22532677058176484
26.839928332272954 59.12825963842618 0.22199177413774276
26.828824327562725 59.06392251953945 0.22175550102403632
26.793951639448 58.98409423985717 0.2221963398688436
27.39237532276303 56.977972795213724 0.3108644252525741
27.397740028695342 56.929521069110116 0.3104493390604509
27.444606831788622 56.740541877986615 0.3073518034253996
28.43163111711994 59.05354857771763 0.2786648280807863
27.50088674280869 56.72888696368187 0.30342459243102615
27.505607123661346 56.69985420471057 0.30317639371954086
28.501557169235895 59.036883345526945 0.27399947432632854
27.603359467081315 56.67617109482082 0.2964043473479562
28.593442069113365 59.01440878087846 0.26787092044282146
27.706410077327277 56.649648378558105 0.289287326060204
28.70565844861914 58.98510783146535 0.2603654942827802
27.798749733649885 56.62388291251083 0.28294014407827073
28.808199741418598 58.959192916514674 0.2535798658808688
27.905358130157673 56.60792780845202 0.27557227568858444
28.901738672312533 58.93814695557949 0.2475345136844133
28.01574844630899 56.599811471501056 0.26790737041295276
28.99279995640109 58.913867842953294 0.24154258977165574
28.09160785529622 56.57272798776153 0.262785904072655
29.096730963144264 58.8926258977887 0.23501683823232003
29.076966708569312 58.893524789946305 0.2361307153159232
28.795545774612535 58.085541300412 0.2951717335390116
28.75275958450506 58.055905465373534 0.3104474505772241
28.184455309736613 56.526667511747156 0.2566506626896031
29.202433268829978 58.86315523038479 0.2402723118914982
29.14584978368216 58.87336713969118 0.23159195015333414
28.931994139146543 58.11648156786149 0.27383328801095397
28.877659061361026 58.08780902917134 0.2381875502102924
28.261255278409347 56.50433784441613 0.25149964548129466
29.292799789111328 58.84559765693343 0.2642793897796665
29.149615282341948 58.475053840835876 0.2941353546649128
29.14337451638143 58.39764002611472 0.27935458730958385
29.126465132120828 58.30366214482349 0.2792115422260196
29.072330018291517 58.185705247507755 0.26281618632465575
29.00552957685435 58.13739235561615 0.24885439873317625
29.389412789292223 58.820945935817775 0.2567792070159073
29.175215560773847 58.38819079068233 0.2117538456162558
29.1265869789674 58.2633084166577 0.2845811895481234
29.112479041955574 58.21862167996207 0.28360344591556497
29.478609107036327 58.799439829179754 0.2675068689057095
29.589054690408744 58.77456577519249 0.2792768628704696
28.79806113905151 56.614307912174944 0.2504556072809827
29.685577397575695 58.752881381166574 0.2710201844326726
28.872890971009056 56.59815622494551 0.28004288880872485
29.77995779882191 58.726429075180334 0.2627365806433485
28.952315517231657 56.56776348117211 0.2724060799389636
29.89265994295378 58.70255719244459 0.2536864567208491
29.84690353980171 58.71039584051212 0.257175953688735
29.042239636397277 56.54395457941816 0.2636663745477038
29.98432434395115 58.67724760823411 0.2688617805553084
29.16594903883081 56.51745945227667 0.25165604241874007
29.11949817442884 56.52556470598486 0.25618696791129747
30.07406061062815 58.65150231126314 0.27129961098432365
29.24854670405034 56.49418210610488 0.2755720608006903
30.173056146106628 58.63034333250237 0.2618069811288709
29.350094152801983 56.46759368436875 0.26183032645283544
30.270409911333424 58.604839955174626 0.25259377024845286
29.863641126823428 57.46288173698021 0.21715975220331465
29.447158630042626 56.444563474618576 0.2528467225103791
30.365056552050206 58.57503626394324 0.2447214372093464
29.920906042445 57.43632808255053 0.2539436739136606
29.82590849450168 57.08220509705254 0.259991162090221
29.53869334730769 56.41829890417004 0.2435531705442545
30.453688015770513 58.552686661474354 0.25088122938368906
29.87148201222202 57.104985816654214 0.2591159485226213
29.867396383679786 57.09046744676348 0.2829036854992033
29.64100201624312 56.39610137834663 0.2735173678802638
30.56391669894309 58.5222593302794 0.2780387649847851
29.737596342208096 56.369752912216505 0.27295397620513195
30.696389200924873 58.507795876788116 0.2736618818432851
30.647312737180037 58.49944231193531 0.27860548346200154
29.83494882734654 56.34527870106111 0.2580740259376102
30.751408047860032 58.48476607165706 0.27154041448230903
30.760729062241133 58.466791772480924 0.2686422044279926
29.947681422191557 56.32385600353203 0.24503517582728299
29.92956191162662 56.31983178483569 0.2556638615618716
30.85389484484096 58.44735226393724 0.2586965692262795
30.820668229572473 58.4419117082914 0.28805328459778534
30.024359568472114 56.29734511163337 0.2539341467479236
30.02370054281475 56.2868677496609 0.2557673355348711
30.94908744546122 58.42220416070526 0.25940397339762167
30.123639352397714 56.26160621515342 0.2899189049917411
30.145211620401696 56.24381360804869 0.28920005614594824
31.04890247380628 58.41139741847301 0.2570774891229872
30.2332786853451 56.24215113754712 0.26599383799541987
30.167412569102144 56.23534366940095 0.28723049681930757
31.14416725766169 58.377345362081144 0.252367279069419
30.318387636841432 56.215301199698544 0.270754809411175
30.33024033903342 56.17318249130777 0.23818732279299706
31.240268875010937 58.34884495212814 0.2511430079832514
30.395118573808453 56.19919311962889 0.2616071688277605
31.337399569468744 58.323762808042154 0.24929763214103137
31.39892320214007 58.2929245256597 0.24800947900353895
31.380575714839967 58.1916860680594 0.2669808999051684
31.35179199280789 58.08683225270667 0.2647941187731274
31.321622474743794 57.98609820962658 0.2626674400057699
30.738724598225588 56.093963765764556 0.2452225596013252
30.781967533372303 56.089023285289656 0.2493195594678815
31.751366346412016 58.213993650149426 0.25161245172849633
31.745863822613053 58.19698282513311 0.27217484812706505
31.82634455661582 58.204381661250686 0.2575283267562507
31.788056696289956 58.18123575553199 0.2821169140548965
31.937189722456054 58.209743552702555 0.26834110176537584
32.06833769055205 58.196543666267914 0.2978999873273246
32.02859520374875 58.186563794056866 0.27124933052529177
32.13698432436504 58.166785823926894 0.25966790500184955
32.11513926152796 58.16220612465764 0.25172736635081716
31.339145997859987 55.975115549244194 0.24470210754661334
32.22652848936955 58.13841920171029 0.25845481676984505
31.39299323659259 55.94355488095577 0.2750151142555106
32.32410422159558 58.10911673871979 0.2641544715979961
31.489620567675413 55.916608272917045 0.2725162485768945
32.42637967346682 58.08734025872993 0.2712231065704567
31.607245648939223 55.94375600550787 0.2720084210365842
31.57557406889455 55.8987908608516 0.24080181930685443
32.516482714541716 58.06830079866353 0.25807263128686375
31.692772029517403 55.8892867657232 0.24233102156859618
31.655305700634354 55.872898691806604 0.22576760909344398
32.639474666055996 58.030854195184226 0.21554806798722656
31.751023302164946 55.85822452835066 0.2861134926561265
31.78784725132074 55.81281876983905 0.238596445457924
32.729873721097526 58.06858241422529 0.29692677878786267
32.71662865421755 58.00667597843926 0.26451184373814685
32.7978723481123 57.9591990319645 0.263337880921268
32.89052913014918 57.914954977106255 0.2601490391275403
32.0116192652278 55.54635576776792 0.2762317793179817
32.95342766701475 57.90182382505566 0.28258993968647295
32.095972114692714 55.52432860022303 0.2541460873040444
33.09047570767955 57.867960999760456 0.23602298625674448
32.18777696655432 55.50061204751734 0.25202728653572204
33.19161493198774 57.844143783621504 0.2418284740529789
32.284338724438044 55.49102201639356 0.26188540970513063
33.28669644522517 57.81931963181256 0.24731495769397951
32.4017560598116 55.49061348955303 0.3055498641750808
32.3843175981718 55.48162344784096 0.26054191321086584
33.397089713534825 57.79032912582153 0.25379375912026936
33.36550231856513 57.795666605378436 0.251849930250199
32.463135579437484 55.47324606477776 0.31119967797089876
32.47279283527128 55.45837237215204 0.2551562840666688
33.480391691973644 57.7693303929327 0.2587762120448801
32.588136648987145 55.40206987951853 0.24066042092848858
33.57309700328498 57.74826161521359 0.2644422270217548
32.6769875838094 55.37650289320007 0.24614906671659761
33.67695811702731 57.726676544027924 0.27089955935110344
32.78254474565663 55.34894191490005 0.2525923316253531
32.76770105814452 55.34720460792121 0.2519819791422925
33.77020966213352 57.70511869332624 0.276703854821554
32.85459823893028 55.3312445108468 0.25697326983051305
33.87212470556404 57.683216340305776 0.2831349592338106
32.95841366118685 55.311502030637186 0.2630636879147319
33.97009661320557 57.65766359078998 0.28927781611456893
33.14752938076718 55.479650433081424 0.264476791932163
33.11507627512505 55.38291968189456 0.2673630834356613
33.09099960773713 55.29676878501999 0.27041459233943277
34.118063738357755 57.62042271517296 0.2986483886332202
34.063661271795276 57.63468792021128 0.29520086978216975
33.230031172954035 55.50122629391039 0.2679634118397022
33.2163150429295 55.49850936915221 0.2673280405131283
34.18354302979498 57.60746616037835 0.3028827057469101
33.983595913354456 57.20203601359579 0.28446773066340547
33.329941240214936 55.45351774875096 0.2755735153064367
34.25474679127101 57.582300160187046 0.30733063964763685
33.451236686185055 55.41847303145241 0.28382706776833033
33.3918045786854 55.431595368482974 0.2799513363759365
33.53818120563944 55.396250295637806 0.28963733919336043
33.621425240254425 55.37737536748974 0.2951192929545161
33.73798935765679 55.347955362707836 0.3029551693190754
33.836067120706986 55.32444217040381 0.3095176315344156
35.071672287158975 57.385716998501216 0.21235826476765748
35.1415580478228 57.36100814776737 0.21457412896915287
35.23104449013506 57.32860931289787 0.21742371525857848
35.19086399140066 57.28877180239873 0.21583035760319494
35.24294155670785 56.87325267873028 0.21637275386529833
34.619981797989915 55.137359201046856 0.21391512170752489
34.712058608094424 55.115560664679 0.21697905513226753
34.81967802961133 55.087189623124374 0.2206356637884377
35.77513813541312 57.20585086692169 0.2353456412480154
34.92570384056977 55.06033717006922 0.22422173031771955
34.99358559813523 55.0443789952428 0.22648527688554362
35.89984509201044 57.175150355280294 0.23947291941366736
35.10671478513488 55.01661168987212 0.23030546287811934
36.036223070069255 57.151333983110916 0.24403146332681105
35.84631689117626 56.775335340815616 0.2368934588010285
35.234493479439976 54.98267461055674 0.23467661669001558
36.101353252169105 57.10593410147504 0.24609785652860552
36.08544159608309 57.03313888704396 0.24535207821638574
36.03964134222015 56.90773640207737 0.24355511156675572
36.01755939579175 56.837154301978 0.24274113972802427
35.98508912605044 56.73478291251612 0.24163512204210716
35.97832985510744 56.66986784050019 0.2414529827377133
35.31750313497359 54.96178158169998 0.23748567239034582
36.064769520478556 56.63520953802645 0.24443416321705555
35.39356939425571 54.94515143990078 0.24003268891938387
35.64206995245946 55.373696484762725 0.2404365749085632
35.61794677282919 55.27925624232348 0.2410807731745402
35.593136021315395 55.18503399163808 0.2417924518190205
35.56948853965394 55.08934143158382 0.24266339758804414
35.54404560778411 54.98406273539827 0.24374629268234557
35.49991833442702 54.92504770337867 0.24352195949200459
35.75403900743669 55.39121427795723 0.24367979862732544
37.74281141314753 56.94818501369321 0.3016851365590647
37.62313108095995 56.444302910263985 0.2975862446253855
37.60335591756572 56.37532284412421 0.2970619739849596
37.62177754356596 56.40887276863734 0.2976146128145969
37.59612384450498 56.317279027524535 0.2969675362670713
37.57301731199888 56.236540254276605 0.29644278163043225
37.5455231122927 56.14574439320773 0.2958608011518775
37.530137774556195 56.05351575121037 0.2957587824001474
37.499499733918626 55.951955321464176 0.29526785973366587
37.47904837167253 55.848769142547965 0.2952056348991934
37.4537138541512 55.758787376827485 0.2949736564063684
37.4308875428374 55.67948865915231 0.29480509952227885
37.40500375852304 55.58898001881419 0.2946911330466414
37.42925679953121 55.61968965738337 0.2952282795624098
22.293405002582777 60.53244200530641 0.38928006107520885
22.27579764249279 60.50471621937556 0.38960906998438616
22.512849455204044 60.47774929929645 0.38125704337591404
22.684126681060654 60.509864716537884 0.375709755146994
22.61899507249954 60.48615410303927 0.37771556297376174
22.929571265838057 60.569132793286464 0.3677957044893857
22.882012227543218 60.45942021861457 0.3684701783502755
22.933338939119576 60.51800530642119 0.36724209810803154
23.8579374144859 60.216771840290534 0.33305883148327964
23.910837618155284 60.222231099388544 0.33134531852923
26.691117789711498 58.98127824344516 0.3861472635728066
26.792153604146158 58.96993227308589 0.3792524358714622
27.333911630936495 57.00717889688634 0.31501457346636874
27.364188480190677 56.98940580200266 0.3128506946922698
27.378228481647316 56.88048130587336 0.3118257341151881
27.367250698379408 56.824900106073414 0.31263897759790327
27.349971602474316 56.76846599465923 0.31392858301293347
27.369489020598113 56.75132291748229 0.3125979691510069
28.539813833909363 59.04192217125231 0.3790362092630086
27.625139627449403 56.66760930524462 0.40945528554880295
28.619619865399393 59.01494093900435 0.37071301303854165
27.69824555416147 56.64880224695898 0.4019386589036247
28.716369567131373 58.99148673234714 0.3612220523225609
27.803733013908534 56.61941048542079 0.39115784558662237
28.810852442264697 58.96595574200215 0.3518559926970055
27.9298594122696 56.60666677762044 0.37808678958010056
28.90234780919371 58.94624757997954 0.3431646950181746
28.013419723882603 56.594507134567124 0.36948678588322137
29.001152190322273 58.92096638895623 0.3336076730235251
28.712030217444635 58.05753598085762 0.39821409791964
28.115078969382534 56.567120560262474 0.3592142887626454
29.106197661247695 58.895926184916306 0.34904575387093584
29.09720835013023 58.88930359069573 0.36849810161272
28.78231388678401 58.09927078090019 0.3914511166597938
28.7341242569009 58.04744875719375 0.39481639589354234
28.174174725181555 56.524668767066395 0.35364817704212814
29.188500482176757 58.87517120457209 0.35944367049301185
29.079237078269106 58.486993239875936 0.38146353140685085
29.087390785340638 58.46008219504136 0.378423947364703
28.928509961385558 58.10979241260391 0.37341238247848973
28.883592165342797 58.11189611752379 0.3792274050317619
28.26716800014561 56.5057082956649 0.34427761686540925
29.286433605706378 58.84407706554756 0.390273597400859
29.132432512180138 58.57202658173651 0.38235211632902055
29.13353006772828 58.50900919022812 0.37708571064975605
29.12405972218168 58.388349670315634 0.36866139959529676
29.14535065833328 58.33011494985966 0.36176084785532037
29.02129656780268 58.12276291085107 0.3625624167905138
29.38411538758773 58.82454151298296 0.37881971459683617
29.14518769491398 58.27576607478406 0.3578076342501305
29.109687455800813 58.18954840119593 0.3560333392178846
29.078458073338073 58.1446075719738 0.35683848374845617
29.48824617017752 58.79628619860224 0.36609625999068707
29.582426791940946 58.77357358054883 0.355077280659316
28.792515224571616 56.61315572433688 0.3629891920243449
29.684028035924296 58.74928198900756 0.3506689370159667
28.876960332914035 56.59553683620155 0.35177707862157614
29.778331127239987 58.72030046204047 0.3675306043082902
28.968739231841315 56.56496951385731 0.3678948681628753
29.900210764198977 58.69752680609852 0.3533842773238318
29.861905637513743 58.70033664274995 0.36216140686221243
29.102369315980233 56.53794715968403 0.32256293640664513
29.0506951219709 56.54433268850969 0.36530971614824026
29.965680717484407 58.67813515892796 0.35478402517675045
29.166159908887526 56.51842394586256 0.35163903912017247
29.113733137929007 56.52807974925881 0.35402989008843766
30.071813350355455 58.65046062995263 0.36449934579605625
29.24516478783594 56.49423809884914 0.3659870432937208
30.177552979095932 58.62477319385265 0.36994767802813255
29.352538205893502 56.46908687527476 0.3711712359305639
30.26361232998505 58.598150688976304 0.3719327535342384
29.880839078005213 57.48959398712858 0.3717575271965463
29.445334463281092 56.446389813902066 0.3609395010861054
30.358161977453644 58.56868645298109 0.35747576934054126
29.917124912533765 57.45215479056115 0.3415353354268186
29.820254080278445 57.08974877112958 0.36482335578983294
29.539904122588588 56.41847053301496 0.3504533836989261
30.45938656449103 58.54364329342922 0.3477528442508585
29.876541301916163 57.11032476989183 0.3397269413687538
29.86194884211277 57.0863684053721 0.3249189769105031
29.642547821803163 56.39570111655369 0.3703291375765704
30.554537134700066 58.520679758556824 0.35722781839374895
29.741893687388217 56.37461492867023 0.36410210851624725
30.68928010840621 58.5006968222833 0.35339239652818866
30.652292146583694 58.49838337243983 0.3824739805686356
29.866770123930113 56.3540656691298 0.3781473664757339
29.835844619972022 56.34655589594859 0.3474760096307806
30.760948502242634 58.47899532126279 0.35018732467008595
30.74772519595956 58.46667638749005 0.3829078816982522
29.948846210379127 56.32417980741849 0.3755905587221008
29.915694332917056 56.32392023541704 0.3549468573116399
30.851026008201234 58.4474473237283 0.36391618188188035
30.82606041406697 58.441661419824385 0.36256720541560716
30.034296152444174 56.3031496125366 0.3614218309542734
29.998633303644862 56.29890549274178 0.3467280722270698
30.945687380407715 58.41898721300075 0.35715534788484127
30.94118744143835 58.398114920202346 0.3270852736488892
30.120252543316848 56.27847698887168 0.355586527152002
31.044882598798416 58.39976879747327 0.352002646238889
30.227935576063594 56.255148137016235 0.3380482233538198
31.14129151345069 58.36881069018793 0.3473656291607482
30.32143419409196 56.222266864156666 0.34288476766050413
31.239564579931752 58.3461652793897 0.34546663145355794
30.413569632859833 56.20266314906864 0.33342002260942794
31.33635472236045 58.32092900365397 0.34627343667570654
30.482202056445693 56.17714195528504 0.3304459929484914
31.396355512376815 58.28496695857184 0.3492472275965365
31.377114712930865 58.1789381937033 0.3621888377915574
31.3495794960602 58.08354417780109 0.34064701499710004
31.323249954797426 57.9897257050321 0.3359217760003471
30.742044501024836 56.10604777776037 0.3262727377051202
30.809381633850457 56.10465828489557 0.32399319904057367
30.776151347125246 56.10089837668068 0.3261446797602232
31.753817246272657 58.21044476019598 0.3400562120563666
31.73433100170659 58.196790063706935 0.3721793025807373
31.83213534642659 58.203667423753295 0.36374930441541153
31.787738039774005 58.1802510589796 0.3744476038658435
31.932125866188603 58.202552585652484 0.37473944376125845
32.02124361375715 58.18973593759843 0.3618731788076823
32.15005415287099 58.18736774619708 0.320921686379653
31.337520863528734 55.98327248050323 0.35189126823487515
32.250801384430595 58.174708242901 0.33175589153797846
31.39564838239466 55.959363734519904 0.3619163185889446
32.39227070099061 58.20014665240296 0.34386852866340556
32.335435623637295 58.14378474002759 0.3809497751114027
31.49463757852069 55.92681637561244 0.36993789071637073
32.415133012864445 58.169071963406225 0.34342149139686695
32.44106034965528 58.13190688425548 0.342907944180724
31.61461428575341 55.93000576397238 0.3335068133578477
31.577448669989554 55.90020946733541 0.34731315520736417
31.69473657813728 55.8929469132088 0.3669147544739143
31.74450267586034 55.872201385336055 0.39230299263449864
32.732952894606775 58.070102983965995 0.3722739454732795
32.73795940150155 58.023980972163464 0.3693642788801159
31.85899959635668 55.718667544943784 0.37229444022127967
32.800339328163595 57.95978400906707 0.3725528914611147
32.884823258575636 57.9144688515627 0.38031008631481866
32.00864475240729 55.547398906029315 0.35549735487295264
32.98184145900378 57.892167635167034 0.3640015287725932
32.0801010690021 55.530806386061094 0.351806164688404
33.089245505927636 57.86525134056531 0.3692207696834363
32.17842301606811 55.50498322585056 0.36297918498436677
33.17559621847199 57.848244741001665 0.33988241663826335
32.28445415983217 55.49408997034905 0.3733947425919353
33.27815178905607 57.819772793534234 0.33657816695308196
32.391095627071564 55.479981525333535 0.3845765586608021
33.402737268976324 57.79038991845039 0.34788350049646255
33.348919631879085 57.79900090707484 0.34282447621292844
32.48666947544315 55.46128264593472 0.3407316298498665
32.48074394161437 55.45595284815794 0.395536883139621
33.47841726458567 57.767238303673004 0.3546696036155903
32.57904495197296 55.407315391456116 0.35295248410673996
33.58383887027645 57.74431220371167 0.364532749467796
32.703480546691644 55.37565174905454 0.33611942539270545
32.6575237968388 55.38301405709431 0.332226748765316
33.67830627032615 57.72542093722014 0.37350633196409466
32.76506124996611 55.36176364614992 0.34170532361131223
33.76544968305013 57.70257468778363 0.3816905337782559
32.85296724111517 55.3328709112876 0.3504412093024032
33.88119202707075 57.67790170979887 0.3928146656064928
32.96426153734289 55.314146785986146 0.36025905161697536
33.987425042008894 57.65372084910079 0.40305380472475494
33.20070343188914 55.50877934306575 0.36565615683821995
33.14452857867665 55.475821033162134 0.36316061220837126
33.114572728607804 55.377278691643575 0.3674428473562421
33.085471656995395 55.30131177955933 0.3705530179159693
34.06317251445539 57.59266711137821 0.4094183803776449
33.221034510717274 55.50712444799167 0.3674788470021574
33.38062401498176 55.4387470472114 0.38530804103537286
33.33811955458064 55.44813115757649 0.38111807837810385
34.07748477597101 57.20445029295745 0.4050119358105012
33.44713583513069 55.42101293177999 0.3920869766476738
34.37400658609954 57.55653786331154 0.3150833087057985
33.53696189300467 55.40329600819382 0.40087342417133676
34.469046097501305 57.53044351403758 0.32121352698438943
33.6145050274071 55.38134076337025 0.40890028963189884
34.562333248609285 57.510008635360016 0.32733109335040733
34.64698754608747 57.486709333619835 0.3328435900263571
34.7507779159668 57.46292705239791 0.3396907147751551
33.92465317067268 55.300272999948405 0.315583474410836
34.88980165860954 57.43427516839455 0.34893253888496367
34.82696709102235 57.44241475687303 0.3446939374335156
34.0287174560993 55.27678291444665 0.3225309941968755
34.924837184530354 57.42336691702331 0.35122420777114716
34.93118417930018 57.38825402924018 0.3513191165164371
34.79843590174106 56.98091655605305 0.3400118746122732
34.147825278970714 55.24733284576011 0.3306105374568564
34.245567701176405 55.22439106898579 0.3372108970565558
35.15380529277315 57.35999722750603 0.36639953667413294
34.31038229845827 55.21219635416781 0.3414855215231659
35.24833533398725 57.33546720183508 0.37271339500995526
34.40443718662772 55.18506251108637 0.3480494083065776
35.37617465939251 57.319193572911864 0.38140708287606206
34.517163823139086 55.15728065953823 0.3557560696913158
35.443163550555724 57.299170273944064 0.3858798129561135
35.31201948183244 56.87629139959011 0.37548548658510084
34.60779142598662 55.13485998654638 0.3619611371506891
35.52201240215687 57.27950767420608 0.3911826994976265
34.7058939375974 55.10985323237366 0.36872603815277416
34.802528458478925 55.08659516286728 0.3753495650248958
34.90129654258815 55.063382007783964 0.38210132507341066
35.784239661977246 57.204161290397245 0.4088530937461309
35.01632897666485 55.032792025790926 0.3901016851334166
35.10591835161203 55.00721766547676 0.39641406025173576
35.21735107509434 54.99042584530327 0.4037389921577793
35.267638016278596 55.00352681491658 0.406358036399325
38.19041206771928 55.33007513212856 0.32267645907678644
38.16302269405805 55.27010122374244 0.32234002858066124
38.1425529364448 55.16686792222666 0.3226793466512319
38.11846380049584 55.06539150563888 0.3229575295778171
38.09510077999495 54.977543175452695 0.32317858823236156
38.073353588682416 54.887447504061925 0.3235335927359556
38.04525405094697 54.78646413209896 0.3238828493614615
38.02457380903937 54.69545484435146 0.32440524590008324
38.01435008320057 54.64382826063285 0.3247843275590774
20.92782022490028 60.98517968759204 0.4398495916404773
20.916276226114 60.89031317732638 0.4394876770654018
27.002165347697808 57.04845180313722 0.4740783986719993
27.11761552906277 57.03639600172394 0.46184681647747894
27.243010301004027 57.025025169977056 0.44859527928807663
27.31279376083706 57.01352766509662 0.4411969154380845
27.37289629018745 56.99019331139855 0.4348392234487357
27.376577108162408 56.92310205922072 0.43447896997555424
27.358966304124333 56.83089709953229 0.43654393222607946
27.345475277811712 56.7684527075568 0.43821999543965773
27.413885862150007 56.74377328026877 0.43114206447320735
27.49019086250694 56.71038526034164 0.42331979094144434
27.57472660104188 56.67878104407092 0.4146573303342044
27.742850653023197 56.63830561854418 0.508742063370394
28.700568637637357 58.99440934889401 0.4651594396280768
27.79813644250593 56.618826024716455 0.5012905363381461
28.794503841961713 58.96976998500472 0.45282580173065945
27.928643563330247 56.60666955080118 0.48324514201301294
28.892835654932036 58.944796549621444 0.44008970944551107
27.951616851706135 56.594649283561246 0.48023437442355477
28.986968050388114 58.92437529607976 0.428305177622766
28.72493903867796 58.11289128858534 0.48455498183883206
28.681371986002592 58.03632181664376 0.48634100704040073
28.12868946488358 56.60422986864209 0.4553804125032844
28.11799708326891 56.56775419701147 0.4575447879017098
29.0989375497265 58.895337017534416 0.4681890082766005
29.06173190246958 58.89989328247117 0.473191013991377
28.769812203883596 58.094400149765555 0.4760666111500077
28.729359825340733 58.05084688090179 0.4795045993781125
28.17894279238873 56.5257148065999 0.4499397192951866
29.18538149226594 58.869481098615154 0.4906955196598577
29.128643543705884 58.58264441941482 0.465870151665018
29.08630906009515 58.534389993501634 0.46670988495712873
29.071491270776477 58.46462411598556 0.4617054784739625
28.932541894912767 58.10436815410655 0.45080780458318326
28.8775139827633 58.11630763744721 0.4604327924220998
28.2472273493709 56.501416571832706 0.4410188137756922
29.286443186667782 58.840213597591394 0.47459392172877335
29.13043432295219 58.549225299191775 0.46208238859628825
29.12435713309564 58.38954071582077 0.4466877171519449
29.076804553354666 58.16099698651129 0.5085695029811552
29.02831901889174 58.12682128438639 0.45096374370535053
29.3781812044968 58.82179906151488 0.46116041368040006
29.150557266797136 58.27721633060314 0.46504215086972034
29.114306887120883 58.19256330293675 0.46466495300372024
29.077364069913642 58.13930749688825 0.5062408775446477
29.483665544197894 58.79206759497652 0.44493199806440775
28.680788177097753 56.58835025002384 0.45873594584669874
29.592269084456778 58.766630636434215 0.4597354214246424
29.679273450197265 58.74745334654756 0.4606223149786467
28.89691057566901 56.61471296837548 0.42049764366556175
28.88138773753849 56.5975726929639 0.46509860266419356
29.780504555205834 58.72107387050288 0.4740090555590216
28.956644868308558 56.56717277312953 0.46494579131108704
29.91437625189131 58.690939865755844 0.45279647580730076
29.868657956146162 58.69606515359303 0.45907094278004135
29.132479985633935 56.62507448336009 0.509408734671103
29.05479911784453 56.54403423464312 0.4639260694100822
29.982887977359155 58.67025360689476 0.4688079441650914
29.9520241799752 58.66631800806121 0.4946169947673743
29.198021555417426 56.616300712891814 0.4940283005286178
29.16779870006934 56.52985273680562 0.45080038910671716
29.109343840264934 56.52659819776376 0.4536566500774606
30.068440583881564 58.648577475628244 0.4580535877495028
29.259043308173997 56.597771019518255 0.48040746515477717
29.25121300630339 56.51339546257414 0.4657294721566345
30.158257943270616 58.61790990926986 0.4541525843971924
29.408038076887802 56.55208082851593 0.5054035158425267
29.34087882360856 56.47463895683332 0.4524655127278402
30.262432442082414 58.58649052544877 0.46199563174644165
29.48750403610305 56.53050419721581 0.4859013491837355
29.459296595929835 56.4559587975562 0.4601149472693764
30.35947294821621 58.56452583071532 0.472192539031258
29.534724379585438 56.52882802815963 0.4733359803664674
29.54400522783787 56.43076638642759 0.45873543011743634
30.45593791089651 58.54109595575459 0.45859383834828416
29.63238127434647 56.40127048001379 0.448127721066382
30.548865884133882 58.50998247875922 0.4461307985508052
29.734871540841326 56.376638654306426 0.4394626554628914
30.699883327117778 58.49779606837563 0.458370711511619
30.648029301210045 58.491932413902575 0.45694997146023664
29.849121057249018 56.35885878133954 0.4141957649982716
29.828325449775217 56.35807166607669 0.41933751241042416
30.77650451826591 58.47176181862569 0.44817714899307703
30.75238457366504 58.46622320935268 0.4476039627435522
30.856155021004987 58.44336773902645 0.4383042323427977
30.82150726769466 58.44714275818374 0.4400885209944527
30.949455919756343 58.41599674517409 0.4299485929210022
31.047267083703343 58.40323469372146 0.4273755995946651
31.140354359883734 58.367136241186095 0.4203653615111871
31.237100198814485 58.34361327439584 0.41878343241661387
31.336820360465083 58.320378535504325 0.41947128750132545
31.398185025960125 58.298393416647414 0.41892480995161874
31.745221481488233 58.20636675921922 0.43856697502515785
31.744263601942702 58.194892366653576 0.4359674492904184
31.84422845039385 58.20875141473544 0.4540340944585367
31.789215813392705 58.175997953841204 0.438700481997887
31.970102278647566 58.231697111405644 0.45363120155390146
31.93134314106086 58.21234434121743 0.45818261965680795
32.038549543740835 58.22076393098451 0.477521930397935
32.0154308981688 58.195773803715376 0.44405131405716813
32.14478206652805 58.19723439458493 0.4821538970337321
32.24504167404345 58.156285403321185 0.45002416294495007
32.33541275888368 58.15015956946369 0.46412972776522
32.29124647978459 58.09608428074793 0.4491279542615846
31.535448094141103 55.91023430688947 0.41208288600951826
32.458033560820475 58.168139582430705 0.4527437909372598
31.614470606234967 55.9145667406859 0.4209170091355734
31.582906954254142 55.898222851009216 0.42054678732634154
31.688748875314257 55.89682001307132 0.43470599056605463
31.666342526812805 55.87658452067175 0.4359998822321599
32.70870820901373 58.06222093404568 0.443520591939468
32.72952534367772 58.019866617077966 0.4427855325082296
32.797764173013874 57.961354834220764 0.44838122190869756
32.88437025720988 57.91695683574797 0.4586267557564452
32.012728351571184 55.55182927566939 0.45443151158373873
32.97653839452487 57.89649731474765 0.4724843743608913
32.091136383613886 55.528925141058444 0.4601433134231754
33.09822605238239 57.86637932477565 0.4914977669029327
32.18255945211121 55.506615270966314 0.4597966621703671
33.1923118235939 57.84350389321326 0.46507004956891196
32.29228200347462 55.4969154904036 0.4505355268066742
33.28526178918944 57.81593567970486 0.4278090048590807
32.407916936294136 55.490387449967756 0.46476772441154435
32.39137910481926 55.4844364212288 0.46363642212728695
33.41107630288528 57.78178658193105 0.44302850324265897
33.36769257097386 57.793328039866324 0.4377394055312498
32.48654538024 55.46192048519432 0.4779348461680367
32.45963931831346 55.465508502599896 0.474240778397625
33.4789369952227 57.765871855194895 0.4514660917032397
32.5929505960956 55.4020912316513 0.469581853726884
33.580092233506946 57.741920433261505 0.46413234223761735
32.660201137221165 55.381791090938755 0.44583226322705727
33.68093690025629 57.72449899690674 0.4771306707498858
32.79092917920219 55.344918783630796 0.4373181216232567
32.7321904595843 55.36168453632085 0.4297592682390118
33.78179816338236 57.70447808888927 0.49012379237328574
32.87095679744836 55.32363706935791 0.44752479392461664
33.87819096456293 57.68125010298803 0.5024869506585322
32.96357505934418 55.31287216471195 0.4580850448715277
33.14349711487529 55.47653686264045 0.46237900406054655
33.10863715451351 55.3878082667191 0.466411848753431
33.08893804728923 55.30501290327781 0.4719712612773038
34.09665778071816 57.62667998164605 0.41358927052493866
34.09397918694879 57.56851090972391 0.41202522242183925
33.22899315393584 55.50184950632024 0.4698398323621592
33.21362427130275 55.500100486797265 0.4682316705878382
34.161225902829706 57.61009826364829 0.419845599637264
34.16497842717862 57.55557177394436 0.41910723416294304
33.37137200074693 55.4446639503669 0.4908361728468361
33.324896210131264 55.456709973157594 0.4845273294376007
34.18807476581822 57.49954820904367 0.42036514776900613
34.1672074352672 57.43946751656557 0.4171748348360801
33.44260385551504 55.42379474344851 0.5007391094240143
34.2791940870491 57.47555417116859 0.4293673424176784
33.50114556679129 55.412663986033415 0.50839446682895
34.38608570335571 57.45090362830628 0.4400258127420682
33.66462246817086 55.36419827993441 0.41426422985330646
34.44317715824126 57.26168170061521 0.4435913927598686
34.37859209440825 57.093672026730204 0.4357738530901779
33.72847961629788 55.3534184452352 0.4204638320441487
34.64856836897452 57.37839347112834 0.46624568749816275
33.83457914058877 55.32514890659519 0.43139911300342015
34.7787085974462 57.443144886956574 0.4806235358407287
33.97490959735828 55.399046441497994 0.4396886680282207
33.9277214103748 55.30546854382435 0.44072964595979913
34.07692522604379 55.341396557426485 0.45202664853660013
34.03897045446434 55.27787788890761 0.45214389532254395
34.82735760996872 56.98571485829905 0.482368052058742
34.13699873990961 55.297580015524765 0.4598081488365008
34.246112621945116 55.32091925347283 0.4683761692721007
34.48992614968989 55.243196740437504 0.49464844407254516
34.51312316720592 55.20746242808447 0.4986162102466811
34.63340225592034 55.18764659390513 0.5106182292443351
35.90871543976418 57.17340562268507 0.4173023839114809
35.92884165956529 56.76861349265077 0.41821194959620034
36.10851722517863 57.10391436794014 0.43083029512589543
36.091233224130285 57.04023576108778 0.42945462174961435
36.059482203407484 56.905212248262174 0.4270918573968643
36.04043912389971 56.828114565306485 0.4258204014892859
36.00764484806361 56.72798908658557 0.42376115229903544
35.98289983980479 56.6678025925248 0.42225032214116043
36.07314269554804 56.63273563120041 0.42860915741551864
35.36352836742329 54.9778295690085 0.41306211747921473
35.650391650412836 55.360354844331965 0.4196582306983464
35.62866288989236 55.27437343368928 0.4205794519048459
35.60652157725459 55.17888867666037 0.42187382506487014
35.57662713790026 55.085627390768096 0.42278195305160815
35.54744418921114 54.98190531494742 0.4242279856101612
35.53029499119188 54.92025592567724 0.42518808782032314
35.756242889245 55.3895477945678 0.4257054758825861
23.866622010739654 60.21662096010369 0.6011683880970615
23.92307232611408 60.22043286743077 0.5975732641863093
26.694539992640763 58.991063549060684 0.5474813203426597
27.018706180379738 57.06233796415228 0.6083710107123921
27.083127488224278 57.0431465074114 0.5992524484781253
27.244662689736202 57.025626288046844 0.5764445822021187
27.337004408730742 57.0083602707053 0.5633995653621916
27.35814339002486 56.99034155055575 0.5604102330303528
27.382760360399143 56.92994703667001 0.5570402196559746
27.357473098837872 56.825080632868925 0.56103421368032
27.35204620071106 56.756811843616326 0.5622651419437933
27.39550392634406 56.7486892643961 0.5562341149504344
27.49289492878305 56.72873438259266 0.542723650604451
27.49530840625571 56.699322075274274 0.5426845636659567
27.603870586112293 56.67110759848963 0.5277795531763786
27.721771642388212 56.64652656818824 0.5115701816535557
27.675152267230896 56.65153205949274 0.518040899648509
28.72869819527125 58.9856555277724 0.5638137074385846
27.831616120175333 56.61309205508515 0.6061610951627774
28.806185726380665 58.961500703761445 0.5506964089267982
27.90292026443961 56.60279765506432 0.5938971103424634
28.897538022880436 58.942728359602675 0.5364057964236705
27.98588578170386 56.595343352851174 0.5795528821270638
29.003958107337628 58.91633106458206 0.5463137632345287
28.697957768511788 58.039060492569654 0.5696063272845734
28.083852561712295 56.57176167477818 0.5630168592233168
29.096378412729486 58.89608799947067 0.5970077788379722
29.090857519457398 58.8921557152826 0.5972953293441313
28.789657257548217 58.10025460434886 0.5570125796342568
28.74680425373415 58.05304881515043 0.5612089982079987
28.17463123881012 56.524913122211935 0.5484664123461326
29.192788173299252 58.8703311950527 0.5786619495963
29.111799857847206 58.58303261919288 0.5519177912570427
29.090205623039928 58.51856056128904 0.5473459064836057
29.06713923022129 58.464625667651276 0.5445566496756264
28.916801068065297 58.11419280226084 0.5339236577681574
28.91470968971305 58.09114793596043 0.5962889488052106
28.261554162932917 56.50461818174306 0.5339729769814618
29.284582906549115 58.844865731461674 0.5612550202704212
29.112597309868544 58.51469869536662 0.5430433863124302
29.133831713726984 58.38001927487438 0.5625352712830761
29.12793099530799 58.29179294054484 0.5523994121019992
29.081954934332945 58.18369139089895 0.587102662135536
29.01660352502602 58.11902024720449 0.5629193627251218
28.960048213441794 58.08774470424628 0.6024210722980682
29.383504083243885 58.81783711792167 0.5428273905793127
29.156466888144777 58.335768786081644 0.5915875655986079
29.14312877703391 58.28908777434519 0.5819442540337224
29.110541671619256 58.21841334800791 0.5853950794293485
29.48318712294189 58.79333881962469 0.5680604357017498
29.570210860504318 58.769810173718774 0.5660183376894743
28.790942008793532 56.61289558691409 0.515503131628549
29.677875229367444 58.737071506067004 0.5647404652792999
29.77709324024945 58.71632445540601 0.5459744961033739
29.01364613486263 56.61812897569433 0.574318886868131
29.905331615927146 58.69263959456821 0.593456790972037
29.870041448175897 58.69155934689083 0.5633285410761881
29.05465011587355 56.607145871483624 0.5779383295928541
29.032160614079785 56.557781940113685 0.6083543186258985
29.986300750203153 58.664004315008526 0.5744779303903186
29.946589401448374 58.668296618001015 0.5606779947976216
29.155120807246604 56.534351690069805 0.576094379156582
30.065309451141893 58.64527897826504 0.5586688719866058
29.241884272286466 56.52120796489739 0.5533218500703533
30.161711849727514 58.61997883065226 0.539513384814907
29.33608651455964 56.53839586383751 0.5261664327161206
30.25511373789925 58.58636799490596 0.519600875257122
32.17269808947747 58.22828416749325 0.5136893207999427
32.21044744190512 58.18497671533475 0.5129764404397037
32.347666912557315 58.1314564747545 0.5306685353849262
32.46541712645337 58.17087084654319 0.5605409557367463
32.38572347758625 58.11574647573244 0.5358312667618942
32.716746677434884 58.07224682702249 0.5703275556718432
32.72010133460967 58.019015702237795 0.5529802367859419
32.78349621464734 57.95520465286899 0.5608730762672451
31.950366751856418 55.60814184669561 0.532430436510134
32.892991549859275 57.91498254912827 0.5393364700622711
32.01737504932271 55.55198998477279 0.553801763230059
32.955636511724556 57.899277619051944 0.5501840161034997
32.09375270420393 55.53192876906746 0.56919622518237
33.10030928875776 57.86548826109548 0.5787005931308914
32.19388488090722 55.511950630635475 0.5630304808970685
33.1934174433283 57.838751523038574 0.5952522897116528
32.28456197314124 55.50101577836067 0.5618150355499074
33.27159218451292 57.82112011566493 0.5305295122138142
32.40527253919763 55.493424028692445 0.5446903515381937
32.370440445054086 55.49106225052917 0.5401041333668923
33.40427229402473 57.78782680979504 0.5377631329172623
33.36905190137957 57.79448251746562 0.532214917353624
32.4750596844883 55.467847110189865 0.5588581658158417
33.491068885764975 57.76262245611364 0.5510976454158907
32.57879965045569 55.417980237542416 0.5819346949751634
33.59687599531823 57.744413130532266 0.5681488945875922
32.682537701576514 55.38755172192123 0.5838515912015622
32.673224403143294 55.380764708251476 0.5336439463821833
33.67901829243461 57.722461702184106 0.5811164536953434
32.77832353906654 55.35035531149422 0.5283562984318081
32.76652120952724 55.34899648200234 0.5270440419937419
33.7769329160144 57.701889027353445 0.5969512662493801
32.874048856261886 55.321222588773075 0.544203739112902
33.8493374671416 57.69043381331957 0.6088798363362797
32.9718545962623 55.316015062497556 0.5575468338169978
33.985235563940144 57.65728627416223 0.516373434620559
33.18570473103466 55.518569313178055 0.564244502733046
33.14676925527406 55.474246320442425 0.5634222402890348
33.11756908586559 55.37524923035683 0.5702307537414283
33.07786198417878 55.307621505529816 0.5726013117106694
34.08097080305392 57.634327119466676 0.5288103120693669
34.06241291018912 57.63122729587846 0.5261662373126098
33.928527455980394 57.22758622054042 0.6100550040302753
33.21413917179086 55.5116286113051 0.5690517767961556
34.170765216163666 57.61404079011333 0.5405764876913581
33.38219820865117 55.437642771000924 0.6008580047290373
33.33591111218334 55.44952285145598 0.5929639441564416
34.25004768961788 57.59037346269238 0.5508551662936103
33.42535139689953 55.42837305118025 0.6080596822987875
34.35724749614238 57.56342748430194 0.5649714927167483
33.56525080042145 55.39205316823571 0.5174884698928711
34.45218786062645 57.537650702412975 0.5774882124881879
33.63765374904502 55.373771020710336 0.5273754513964901
34.54388002326036 57.517380086178484 0.5897393512776159
33.743651147110285 55.36114977884257 0.5408158296314209
34.65728444289136 57.49089244484578 0.6049139934813388
33.834061485506375 55.40265717911895 0.5484259101377316
33.79633691609659 55.35392121636791 0.547575270778519
34.22435506696245 55.25793172072615 0.6059095950047981
35.17112680830837 57.35191810953905 0.520260147600257
35.26340281010955 57.3422835723307 0.5297666030195572
35.3020849192 57.32899813563225 0.5336520749267526
35.45550754050106 57.29029311786671 0.5492747188185971
35.31765915417697 56.88231888390688 0.5335743544708078
35.52779174725386 57.27784290281555 0.5566923971049879
34.79675081225316 55.12313523923559 0.5288927771782161
35.70864821532058 57.2340433922736 0.5752125095403319
34.942689813761326 55.10688717924016 0.5431459231181636
34.98608511845323 55.117348257614765 0.5466268428046822
36.0423389053699 56.90397471787829 0.6090538997495849
36.0265794020556 56.82859666139631 0.6075573569019899
35.996079859051335 56.734179548992714 0.6047571168369272
35.97915239778075 56.66639513768717 0.6033819340390909
35.64401493830273 55.361773215090736 0.5986235229560336
35.62384748424728 55.27538276057113 0.6000361385241878
35.59813310553386 55.18150166343875 0.6014063560032474
35.57394817137354 55.08604378018972 0.6032231041546969
35.54774628250605 54.981049701654264 0.605514529759334
35.509394967893414 54.919426265350765 0.6048355135340618
35.75992819915345 55.38737688983239 0.6089584821727636
37.76226826614237 56.94526754785576 0.5447571965469981
37.63169231194827 56.45301920661696 0.5366456805774381
37.840433139818074 56.96769954172058 0.550201252214233
37.62941633164858 56.41788395024318 0.5366661813760635
37.61365374834237 56.33683290802793 0.5360670629691029
37.594353809982486 56.231793220970296 0.5354877058672588
37.56189509677415 56.14148512601506 0.5340221281394215
37.5395499569487 56.05007443727991 0.5333700518760857
37.51598203211368 55.94726344963821 0.5328791347761944
37.48596533753099 55.84569983036634 0.5320709089920813
37.458165837044085 55.756170673218335 0.5313888158171481
