ply
format ascii 1.0
element vertex 811
property float x
property float y
property float z
end_header
-4.196803653519062 2.2037077847450197 0.2774928805985253
-4.226427648078604 2.1421170611328852 0.27692950372579533
-4.274281060059899 2.135175157048568 0.30321740061756686
1.4148393753466024 -0.31151469486601147 0.32857306747815307
-4.370934534732427 1.5732421303726183 0.31879349796251677
-4.394824512671821 1.5484041011679124 0.2821465872203237
-4.414381633652903 1.4482240392313013 0.29294991662351266
-4.4196325584389164 1.4758145055459992 0.3047578839056758
-4.436725823876905 1.3547897469535881 0.2953754608733629
-4.460879823731806 1.3722617698977426 0.2890997780826312
-4.427412302343252 1.2665745244387938 0.2900567070736151
-2.5516322896737504 0.0755981185459329 0.29957900936671733
-2.5604466619533115 -0.04320680522044151 0.31914189222410033
-2.5633722791707667 -0.049197799924244334 0.3253934968928697
-2.701058392067297 -0.5688360928321783 0.3525975440808217
-2.739431794389532 -0.6371389999649923 0.35514978254410323
-2.903493081544121 -1.3875120189376793 0.4000470471862906
-2.901117539978665 -1.4751342273685462 0.36947644902224275
-4.931127581461584 -0.6892931042712116 0.3415591045591453
-2.922886159599334 -1.5480516722976059 0.3279004931956049
-4.996235004857851 -0.8342504128128214 0.30698283565627893
-2.974582259585022 -1.6192300307959389 0.32680429535933164
-5.051095955564026 -0.8871409909371055 0.3527049246421845
-5.0827216138490385 -0.9255421860064998 0.359547128795289
-3.055938721401092 -1.9552971614868098 0.38882290620664206
-3.0698388807586063 -2.020368482896256 0.36104861506360053
-5.1084670159674985 -1.4236619875327923 0.3647451008409207
-5.147757308664497 -1.4654118823861413 0.37121024710115696
-5.2087051113676806 -1.5712084564198021 0.3306077418800984
-3.407137479480204 -2.3984827647758857 0.39557224214521985
-3.4117712475141486 -2.3678135763164496 0.4097557439851301
-5.141905141833666 -1.6619112000388492 0.38795130512119363
-3.4170439760593547 -2.4697757807372716 0.3654257100050237
-3.431851682485692 -2.5546533400539735 0.3718896926594977
-5.129385994307563 -2.156526517444523 0.36467163429643773
-5.151875332595605 -2.1860383118752518 0.35384867680124577
-4.2018542770573735 2.209481185727204 0.36921946696676716
-4.244350400295492 2.1512062919563997 0.37617781733267086
-4.276600026338093 2.1381722677336708 0.3602221336483743
-4.395371475850406 1.5050641823067583 0.3928550206234623
-4.38420606648755 1.584053097732407 0.3534067081410142
-4.41456969482809 1.447835162326926 0.36485178406326074
-4.428108849730638 1.4529087957664975 0.36147477411400536
-4.428730332087968 1.3843660408792857 0.3748308926821147
-4.42156032459437 1.263510022458662 0.40340661112132453
-4.568699240307815 0.7211233479783724 0.43646131925680304
-4.583436049100177 0.6600615307370348 0.42864222043037925
-4.590210534076695 0.5694380700315811 0.42608866784104893
-2.6931978895275117 -0.5730544873317223 0.4457645188916915
-2.733614490169491 -0.644531155035492 0.4520911038192352
-2.778729500180618 -0.7306022573713808 0.4976768194161346
-2.79714793260558 -0.9153675668297401 0.46127469836154067
-4.782479091077411 -0.10098709266060246 0.4542005332932051
-4.818079385109986 -0.10471179059559343 0.4470074252191552
-2.8039763352547005 -0.9425289424820178 0.4763302206880836
-2.842693170003762 -1.1885963351606346 0.46548608919332696
-2.8642691135547236 -1.2642050727476961 0.45791753315269906
-2.8944230274252174 -1.3728716109414754 0.4525415127720151
-2.932425504239074 -1.4952525445057694 0.4785101071786828
-2.9584687067064257 -1.4599124239882133 0.448354889445602
-4.919698387104743 -0.7598493438365257 0.47314531013471717
-4.929774459995588 -0.6878531316703844 0.4301397222011013
-2.9657855305805416 -1.5428277559522383 0.4828400487111255
-2.9802745515308477 -1.5111893801421707 0.4947817473692872
-4.933534295913658 -0.774348646180719 0.46963670912825733
-3.0011444942891017 -1.659576755350045 0.49510244051006425
-5.045715831093268 -0.8749349825668504 0.39470672810659685
-3.0120297417963657 -1.7488107674675313 0.48959987414878
-3.045876850995423 -1.8422439807330802 0.4674556564425894
-3.0659639272182995 -2.0046100369889137 0.43188125608365296
-5.218293804532285 -1.5763396015896711 0.47270233910432735
-5.227570333735225 -1.536647188899728 0.43005286854141267
-3.406455505513364 -2.3351362767548025 0.44938656969502366
-5.185967391705978 -1.713654034112335 0.4073659206935479
-3.411432961301624 -2.4621430862694274 0.5149140282752496
-3.430553555827846 -2.4131081576528404 0.4816560283017776
-5.213098262656694 -1.7491135536026625 0.45341773295707244
-5.2276269038070025 -2.298466944258527 0.47819313463157415
-5.303473285163149 -2.398838151671196 0.4520752795112956
-5.34794520617407 -2.461517166070311 0.48402226311868624
-3.5810965627381335 3.97534426570527 0.48496811636031995
-3.6283598706378264 4.023493210411182 0.4340811092387978
-3.5719315926663495 3.9532954893893812 0.49544354422009357
-3.9642162239500367 3.321547226663455 0.4495902455930741
-3.979006450832622 3.1750413539484788 0.4380620342936384
-3.980250027296799 3.233339462075069 0.4447693979562845
-3.9857471164646645 3.098977882045691 0.4354835812708751
-4.010494175871347 2.9971076592552093 0.4357396647034771
-4.044074942235136 2.907009961217125 0.43989140527758963
-4.061405343360241 2.819407712030878 0.43588935911707727
-4.082391340844567 2.7102666801964834 0.43756279265693987
-4.114861577721319 2.6622275131267714 0.4819306301458924
-4.218372905612536 2.229439221874559 0.48018593754747596
-4.2400999467851745 2.1536489569874404 0.47317842143485245
-4.278463439513408 2.1361688735650004 0.4711896111520422
-4.560286104783354 0.7291986286986083 0.48045523473023044
-4.5904408280756215 0.6630653210671594 0.4715747960558843
-4.609516328927763 0.5798474764632784 0.46517564444199627
-2.786803437356795 -0.7981928195773569 0.5104052840704095
-2.799483352526961 -0.890847578347518 0.5456185386161889
-4.830482914749214 -0.14022756533086822 0.48702505521262757
-2.8150348001055012 -0.9662615412105489 0.531501200400356
-4.84564230649295 -0.15417101900432506 0.4968455808786577
-2.8415390406299865 -1.0686519247182 0.5631691676388202
-2.858982835146197 -1.21199502095219 0.5763763936397351
-2.8542782605471464 -1.1442546501341193 0.5799119537421655
-2.878056324539257 -1.2650110655417282 0.5643977529144457
-2.909108966500064 -1.2732496031534979 0.537412160217623
-2.925575240623049 -1.3390524760047449 0.53730634271946
-2.9401998684577864 -1.463704596240177 0.5515807214663377
-4.901901127309747 -0.7459755892686692 0.5292560793820942
-4.953002803618114 -0.7038280389097891 0.5352265293235889
-4.975481425098102 -0.8031587160389102 0.5394530160189402
-5.204705324981278 -1.5940989789653692 0.5291014682332448
-5.214427137858933 -1.622928479687961 0.5665959665151311
-3.416725569013753 -2.446179343601223 0.624650590602118
-5.248310402564947 -1.8014450222358274 0.5729635815304065
-3.4292682409834323 -2.5411476459516846 0.5818597629565685
-5.302100674429946 -1.8836521942411044 0.5717577328775791
-3.441733677707692 -2.6187023999220695 0.5777090139692191
-5.330059322932533 -1.919073736883876 0.6065739456517895
-3.572888241082951 3.991321994867074 0.561179820996167
-3.580171238850188 4.012008416172936 0.5587761369251587
-3.5733451153438676 3.9657701651992125 0.5108025891893321
-4.119114786277734 2.6620044611716853 0.5335918886940718
-4.944682607442484 -0.6917134767474529 0.615526547273451
-4.928617418152776 -0.7624081953889095 0.6373966146770588
-4.978694207116119 -0.8115830834454121 0.6293088126959814
-5.01569028735354 -0.8497395347163843 0.6434983798389857
-5.0938491191326065 -1.4685320015708447 0.6576533190386069
-5.124649206504827 -1.5039579040960718 0.6841361038903664
-5.166686330972721 -1.5637216762248192 0.6591810511004099
-3.4062276264052125 -2.3782642191116707 0.6739691161893486
-5.219724927851882 -1.633989153963882 0.6147765526162059
-5.298218036394315 -1.8625674789641622 0.6187822019103875
-5.356406272130369 -1.951130335961673 0.6267318122122559
-5.382785520084946 -1.9832546648454 0.6471856346619093
2.7446595945835597 2.824974484492402 0.710897635328619
2.6945717577999106 2.8202232603508044 0.7210590246116878
2.6185365703845003 2.767536870036948 0.6969455699391514
-3.555286378062915 4.007395309561694 0.6223643884788996
-3.5452533783945848 3.9568861719646407 0.6082454376948716
-2.9864522973251724 -1.657363553391553 0.7415828620164803
-3.0103935637548442 -1.7038316692424627 0.7540996035670943
-5.136360884657549 -1.5187837974541514 0.7061062498052045
-5.176354784099731 -1.5679037037338193 0.76788912000656
-3.407769691523309 -2.4275174279215443 0.7443580551752408
-3.4244461585272843 -2.5031433245060484 0.8067188878407163
-5.039990426139841 -2.2698801658381402 0.8092101619261756
-5.077140671555777 -2.3383353198743535 0.8158887293494089
-5.108443311882445 -2.3266068160906928 0.8151392308637093
-5.110811938679672 -1.5039462467659919 0.8119172385204972
-5.121330956871459 -1.509382220053688 0.8137896919065185
-3.410271567977903 -2.375331389659287 0.8927361817685193
-5.193777651126285 -1.7108042941010357 0.8638360442502536
-3.4202667417403596 -2.4538851858998605 0.8574053782176797
-5.234903423727701 -1.7560685887501244 0.8634066662382085
-5.050405649595632 -2.1900873655447723 0.8172549760989266
-4.9520558960753185 -2.243785612246608 0.8819959346995467
-5.012662385255095 -2.262232144696835 0.8665501946843761
-5.08845817656543 -2.237067424587652 0.85294619084448
-5.057193276594047 -2.3317739248774263 0.8649063283889336
-5.132914877643112 -2.314465435414051 0.8533508024980302
-5.110470724419185 -2.456299394159963 0.886591018349113
-5.198445165475492 -2.404419077550325 0.9122277908020148
-5.1623198865271975 -2.528564686259471 0.9111188649205618
-5.094196325604585 -2.289255188551242 0.9589373374172445
-5.053351227229491 -2.3749981915602323 0.9622879410630476
-5.108353390673471 -2.4334496104726133 0.9756659834296137
-5.165335542209199 -2.4237998662655 0.967002002824732
-5.260177701742454 -2.510336567317891 0.977049053324925
-5.068997470424376 -2.3984160464075286 1.0272576612192494
-5.111995180950887 -2.445187777120598 1.0406672609744385
-5.1674718819310685 -2.457841065793776 1.0678135038548466
-5.223689242872105 -2.509521011613776 1.075045805746239
-5.355811135865224 -2.437291158886878 1.0855257659777156
-5.279618379964919 -2.5622538402795847 1.1102311204812416
-1.3608078383488287 12.913624556537878 -0.23403930433787717
-1.4530142595623798 12.493986343138392 -0.21841095154456308
-1.5327218120388362 12.15725908475004 -0.2059135388906329
-1.6076591239081977 11.848001237135389 -0.19443605375271406
-1.1472489497921958 12.943818494932616 -0.23412489406503761
-1.678159294936912 11.56023477583202 -0.18377350040233342
-1.7489255225876652 11.246221557400466 -0.1720964723058876
-1.813876486530265 10.953577148617182 -0.16122052883304994
-2.7346430288529384 7.129265017156691 -0.230811091560796
-2.756491376261356 7.059718949084988 -0.22584746386397542
-2.7891803360858645 6.918336878262272 -0.21568033644794093
-2.820507419069856 6.774810023362077 -0.20535418151076051
-2.8773937825838427 6.617257646062146 -0.19421170045607733
-2.9338909596914067 6.572137686007007 -0.19135377388292574
-2.95006784720211 6.448078628554606 -0.18237563123755474
-2.9749610837801144 6.336647504958408 -0.17440483618567604
-2.9983345026446035 6.217151522622008 -0.16583486567537586
-3.021304089806108 6.132448583615169 -0.15982719984216504
-3.6158161938617104 3.671111845472762 -0.17933411870082905
-3.623611692761627 3.6048588322876407 -0.1705271838791822
-3.6516954103167447 3.517224130512508 -0.15975113306206823
-3.6791223158233324 3.3729399571057472 -0.2282762064052719
-3.689675108411794 3.307090116033386 -0.21782274582496663
-3.5396939199656816 3.5628353475941728 -0.16100784852014582
-3.696072265605331 3.2573298643367075 -0.20986577059120531
-3.7127926504518634 3.193437656264674 -0.20032234760644396
-3.740091537267771 3.100460855680609 -0.18684835740960198
-3.7615156157445813 3.0058667579397245 -0.1729445055971217
-3.7896590152767717 2.9064344557221204 -0.18369932587928778
-3.821992101248491 2.814688637233526 -0.21918888149400995
-3.845095251399972 2.715239651848549 -0.203096819889253
-3.877644206609585 2.6223718401177942 -0.1898805643462263
-3.9020251774831913 2.5176166014408397 -0.18804426781804934
-3.9163243140586914 2.4298701680061097 -0.19397468615421792
-3.9352197775556776 2.369008744912111 -0.21522589377306717
-4.057565773953449 2.0547949575201603 -0.19230528058535412
-3.4141489174134803 3.481044617923759 -0.2322976234838825
-3.9205817472109032 2.390386962812609 -0.19613143023250895
-3.9429740588910427 2.3172757361399934 -0.20656008910470525
-3.964719588512734 2.2297087449868194 -0.19389983007760725
-3.984460568499795 2.1186343879813654 -0.19069929666754343
-4.0372382280932015 2.0426892351615065 -0.198358968199915
-4.077466878108611 1.9467622788242496 -0.197012142137164
-4.101063347528454 1.8510496752203922 -0.18839974989693475
-4.125944672448902 1.7557947128959706 -0.20386786137253982
-4.150300473251586 1.6551660022211188 -0.19966907277960738
-4.17402468007401 1.5564276152120382 -0.1947028165491672
-4.2001778748568555 1.459808413162812 -0.19248289543322228
-4.2245194199136336 1.3627264940636619 -0.1916009906488062
-4.244538869189651 1.2942708601721948 -0.19281597131889078
-3.3538148419097933 3.4466492735582355 -0.22357650225925035
-4.213328175849234 1.2375859487481764 -0.18142146957038363
-4.236796483048243 1.1506560006440154 -0.18471354957835323
-4.268030333572885 1.0573557288483209 -0.1914860805984549
-4.282327724850125 0.9561754385735722 -0.19520708395148495
-4.309889485506742 0.8571172306416004 -0.19851990162338706
-4.3369273264353705 0.770602171694582 -0.19970985413817977
-4.366399294260617 0.683480835592907 -0.1994232616455922
-3.022496123024325 3.9823862208700627 -0.20572825539890793
-3.0617151430124343 3.9104291345438114 -0.19605585384060442
-3.0888184112713852 3.7846684577883947 -0.17849941842909894
-3.1378077427576474 3.723507763324447 -0.1707775276382359
-3.183089787852857 3.497549995927745 -0.22621603989791728
-3.2415095563407545 3.4258810065658816 -0.21549579337155478
-3.2725880522255073 3.4039458782908287 -0.21271678107610303
-4.333390035079116 0.7482655565849079 -0.18740649700271905
-4.370759354330073 0.6369935791269776 -0.18925519961363407
-4.384439499419649 0.5688707796792835 -0.1964895376115769
-4.411828215488788 0.4739520503797131 -0.1854955591333522
-4.439445012315566 0.37210156448830967 -0.19153589979393604
-4.463835911393151 0.2766716790555773 -0.2044629655864545
-4.489869911075191 0.1739560269968089 -0.21906537141950694
-4.508262518206727 0.08813505704825908 -0.18663069053257225
-4.531670461982901 -0.00912756405427917 -0.17218059572142497
-4.560870317578376 -0.10014176585838519 -0.18513961903198028
-3.167937125662786 3.511733497167258 -0.22827812532577052
-3.20013767558357 3.4430388478847638 -0.21706218996170157
-4.563080527975957 -0.14699213525272903 -0.18980449023849827
-4.5847247923439705 -0.2105895673738678 -0.19938511321305957
-4.609221316196661 -0.30383558859445414 -0.21248359620683677
-4.639601110842371 -0.40741608957014974 -0.22784992369730955
-4.66560145454385 -0.5380971660758638 -0.15757698846021406
-4.679017341025262 -0.6042916107695617 -0.1649252792803556
-4.698749372974795 -0.6967630437102212 -0.17546339816205614
-4.711899183484039 -0.773927932952778 -0.1839792314427735
-4.796380173061876 -0.8942880061137479 -0.20506543899493712
-4.823086815271225 -0.9795981919111012 -0.21612114165227125
-4.847006189845384 -1.080581378631331 -0.22841876475478623
-4.6825215660141195 -0.7250204487202461 -0.1760188871607043
-4.944075269610192 -1.4836723616922824 -0.16040797141127405
-4.955455399026301 -1.5937439113322858 -0.1695591776961461
-4.936402925691726 -1.6880238205164797 -0.17510335647172387
-4.972889315601126 -1.7785522520896773 -0.18504114150947348
-4.995972526541867 -1.8646655990011063 -0.1935729450645
-5.0228988923078415 -1.9692700643663132 -0.20389361166591674
-5.04396319531532 -2.057721599367013 -0.2125181698225393
-5.071000533738466 -2.1569676574772254 -0.22250432676306148
-5.091756442645099 -2.2501426653086947 -0.23155350208540992
-4.926819840322192 -2.4274665439957133 -0.23384469789404017
-4.854972659716504 -2.4461470903029934 -0.2303687978474685
-4.76183781283307 -2.467446714468803 -0.225825030202912
-4.690381642996349 -2.506785173580117 -0.2245163212934208
-6.712072118554893 -9.308042500703094 -0.178381597321694
-6.897648336116369 -9.6953235090031 -0.19398965694894027
-6.6294108778969365 -9.304318085710525 -0.17600217796546674
-6.5153258889055845 -9.329586962832563 -0.17363325857501766
-6.423113191811492 -9.360220226867728 -0.17203204014808504
-6.326021896312266 -9.376758717484167 -0.16995994637668915
-1.7088893264306477 2.4968860710599947 -0.15750691608338402
-1.737397653035097 2.4365613617544053 -0.20687625846672936
-1.7605657729933806 2.340868940514409 -0.18456933141097898
-1.783570775131182 2.247123228613082 -0.19528814871596323
-1.8077763090740206 2.1451387584652215 -0.19418832740548775
-1.8305207315894763 2.0531513276662317 -0.17063781212266782
-6.2290293375039925 -9.395235788329758 -0.16799561496260662
-3.5534634764845574 -2.7947380206473547 -0.1961411838991513
-6.135804574081758 -9.412266243239786 -0.16612880699224097
-3.4878861007347215 -2.7846166298917785 -0.1931426120848576
-6.007978748964045 -9.456693734009358 -0.1642190768974759
-6.067259030668518 -9.45234683164121 -0.16553274685660802
-2.4523929522297214 -0.387422638773832 -0.1643814672137341
-2.4764471029614907 -0.4881705828237273 -0.18700737357565395
-2.5018336519552533 -0.5788270446946218 -0.20749922917250224
-2.5255847792866324 -0.6691890749198943 -0.19500083872759855
-3.1017598324677738 -2.0602417005902147 -0.22405714718164155
-3.266592793959007 -2.604264533834293 -0.16929216124024105
-3.3876920179030017 -2.8144981139649676 -0.19328256556411932
-5.933977450523132 -9.479642587544213 -0.1630770214182704
-2.529013980245264 -0.6922071618279446 -0.18866296370583713
-2.5510870875181437 -0.7745289041652239 -0.18279453815583613
-2.575545385183943 -0.869108371702261 -0.20169206352763897
-2.6019387764638764 -0.9744184709732744 -0.22292275908810855
-2.629540553743873 -1.0788510584958086 -0.16452236280603771
-2.656659353317324 -1.1730358125189644 -0.1804329855910446
-2.6747766312526875 -1.2554338906790121 -0.19445154308690643
-2.6892707895748695 -1.3538076566098842 -0.21126622874805695
-2.702883186931682 -1.4190940715527625 -0.22242851608962216
-3.0140409181701 -2.0861630193795886 -0.22577661389468906
-3.2903873866842663 -2.8389245401367287 -0.19328566512193834
-5.839137395208338 -9.499935232888555 -0.16140168523853654
-2.7101967113659584 -1.4510498739266133 -0.22791524649479322
-2.7423852463327845 -1.5931534420428386 -0.155598836678986
-2.7592914538508433 -1.654488394604251 -0.16400691306338083
-2.791004575527866 -1.746535930780549 -0.1767179640657665
-2.8203223206200994 -1.868266713502267 -0.19349643320134086
-2.846280637586791 -1.9587950282075075 -0.20605273178986616
-2.874173601039996 -2.0682650418345077 -0.221233079105711
-2.9304628816434075 -2.106714982203086 -0.22719330887407613
-3.229991536818331 -2.8342978127098686 -0.19144077692206923
-5.745757992489959 -9.525574339622647 -0.15994280935747296
-5.652723456924459 -9.546746577911 -0.1584080843937533
-1.4036397959136042 1.1460344824382893 -0.159681523475997
-5.565744826294916 -9.589640268455343 -0.1576844766246911
-1.3939343169419751 1.1463076048699363 -0.16219874762649528
-5.592607771055128 -10.027010546663574 -0.17090052409213585
-5.512473088069205 -10.03829532490378 -0.1694814495224311
-5.417251448615679 -10.068875817569829 -0.1683377366333056
-5.320006793913226 -10.091908037474429 -0.1669623116732924
-5.265077621387343 -10.117238277692467 -0.1665510260787042
-0.07893849541030651 0.4550016051610213 -0.19759771524650588
-0.1152999659343319 0.1806323634732262 -0.19793483495443326
-0.12751730420638063 0.16330757689324293 -0.1967000855945425
0.5736033824646047 1.4382478212538832 -0.18713829330699105
0.5839989991395824 1.3602717232929211 -0.18570326944308296
0.09466023952273206 0.19872168572736293 -0.22727941613229968
0.10692365748321686 0.17830174042523383 -0.22950671631481245
0.5928952216225967 1.3068800864145134 -0.18503689359146824
1.5814547215708696 1.7643942741000231 -0.15643953970505137
2.079078688367515 1.6813223464796043 -0.1925020245527217
2.3803186686849385 1.957939323972039 -0.2257945495441896
2.336510075830322 1.8209395750629431 -0.21742511089275768
2.300882450831222 1.6532245361673228 -0.2089948601977195
-1.872553213011667 10.710392795793235 -0.15220187225916604
-1.9283647500425891 10.480879126490303 -0.14370367950759289
-1.9815790074872393 10.265040371414816 -0.1357090243296279
-2.0320833691231206 10.058881823636908 -0.12808225677820595
-2.1804370122368018 9.565691876005816 -0.10999677552928229
-2.274418868648974 9.26184456482319 -0.0988859903347555
-2.134850355756523 9.574165354628967 -0.11005304436537162
-2.3542824882577196 8.674172213612648 -0.07677815102359699
-2.4033121403409075 8.528916183972532 -0.07149812995709302
-2.437206145014216 8.380653022514728 -0.06601379026742434
-2.469891439201381 8.24023310364784 -0.06081912511540605
-2.5010799790915 8.105660576631912 -0.055847140508857
-3.043227048299087 6.031700148244814 -0.15263697757079986
-3.056943471387269 5.955163577914833 -0.14714928943145827
-3.06225132830047 5.729225609129202 -0.13060972033931523
-3.6126512048233916 3.6631424422684074 -0.08310552042960835
-3.6390336070247358 3.5956778343490834 -0.07696624500009878
-3.6610316391312896 3.4876124088901452 -0.08132596679037
-3.6781936178111643 3.410676008261621 -0.1027676625572093
-3.6924152317953465 3.3052327644709463 -0.1328873180843918
-3.713650146149878 3.2278948383083295 -0.12360974034858778
-3.525632852723072 3.548474707907322 -0.08804651405059254
-3.713742555259908 3.1992673395919207 -0.11976834331946844
-3.737829013400942 3.10674272394422 -0.10881014921058811
-3.767381974019119 3.011106541635662 -0.09798593913319208
-3.7932680210084824 2.9027977116988923 -0.09762569266817804
-3.8142263431617947 2.8108309740296615 -0.11059947382732886
-3.8384990674488773 2.709970540748258 -0.09973378767417247
-3.8712941222410633 2.6303561381020737 -0.09876580582456347
-3.8882481772754383 2.5254615514910776 -0.10932345711699644
-3.927279816960801 2.3840052692615745 -0.15452785179708473
-3.9453553143140585 2.3410208187221695 -0.1498806075905585
-4.063688790452028 2.0368348591579615 -0.11603255685600532
-4.083056836791524 1.986210252795591 -0.11809750652115798
-3.449217841246038 3.498955515761965 -0.10453315703162032
-3.8906443600344023 2.472998589622468 -0.10186572352017988
-3.9038161483180494 2.4141788599672194 -0.09890337147607355
-3.937416564235572 2.3199197761449852 -0.10943932762169063
-3.9649547452714344 2.224245624150542 -0.10497208646846161
-3.985639419316433 2.125474164003985 -0.09306045403524042
-4.032467508659123 2.0514028674664395 -0.08408136791567848
-4.07411234377162 1.9554242998254607 -0.09503932504320826
-4.104800774613902 1.8461186535793455 -0.10956401607335785
-4.127367348427855 1.7502212547026526 -0.12457080037640426
-4.152078750811018 1.6538602682546433 -0.11861915025942786
-4.17682772195835 1.5568766764240924 -0.11542053690210917
-4.201366180815559 1.4597065894412273 -0.11295885487373279
-4.2268335530117 1.3627929911089738 -0.11218186055090039
-4.245985356247656 1.2903682828423846 -0.11415191309849186
-3.367532266458998 3.447947950413506 -0.12740727866381013
-3.3542288300567935 3.4325165431751756 -0.13554473561421
-4.209548783760176 1.2323872921269665 -0.10203881356536178
-4.239070300144715 1.149282157114103 -0.10660047244741659
-4.269096999148296 1.0558763881119317 -0.1085304658908947
-4.2831229744225485 0.9586387941392527 -0.11474246521663468
-4.312307216526536 0.8590524419572485 -0.11662287822490426
-4.3383612652313985 0.7718516958977903 -0.11464877697728419
-4.369649331116714 0.6911682439376481 -0.10514087982653351
-3.022763520638256 3.989886581472504 -0.10426517468994932
-3.0625442001320096 3.9232355495214586 -0.09761019859206709
-3.0901373293346146 3.8005567376834977 -0.08474728012497708
-3.1335689940051443 3.7296559993472655 -0.07782765435758697
-3.1677963441675017 3.6411688120599637 -0.06890173886926386
-3.2349759968249137 3.421346324208403 -0.13013478384187227
-3.281392651084994 3.40764884087206 -0.12960001271275412
-4.330624455190251 0.7554537799736769 -0.14750475188558515
-4.364909894543299 0.6525143371048827 -0.11612814960610025
-4.38404813240599 0.5628295678595908 -0.10708064381729256
-4.410383745531886 0.46193972888085 -0.10002321347116318
-4.432803796470124 0.37500168800687705 -0.0947758604921526
-4.4592847831475035 0.27529829115741766 -0.10479182154838028
-4.483719362592819 0.17353199116651963 -0.11523766012146892
-4.506809738370092 0.07493546414428964 -0.09053011253578934
-4.530246874684185 -0.014946121182781491 -0.09965152887858815
-4.55009496062542 -0.08973051133623411 -0.10749883464701183
-3.16601198487792 3.5162699629732543 -0.11996264893471555
-3.1862014053607366 3.4642848071898156 -0.1348700141381204
-4.537263771506546 -0.06324901756459478 -0.10388917199315385
-4.554777086883433 -0.12344151134715498 -0.11053223088382656
-4.576814673510489 -0.21117477332091084 -0.11991710270098944
-4.604018898046135 -0.3117086029112044 -0.1312174334627328
-4.629989589560588 -0.4074747454655707 -0.09733838619812744
-4.657428596088342 -0.49959367912648234 -0.09837073411959553
-4.685188412727674 -0.6064198855739804 -0.07646888263530054
-4.703304969642865 -0.7102787926579119 -0.08480829045240575
-4.729739453161343 -0.8013438225900094 -0.09325141077067604
-4.806792180968455 -0.9149760280850823 -0.10804838479166347
-4.826478895161755 -0.9861757493059156 -0.11466664775159309
-4.845482194132539 -1.0744748444565164 -0.12244576132903305
-4.86903311950683 -1.1715073501400013 -0.13133162709792084
-4.886989322189739 -1.240403355236057 -0.13780134772546487
-4.89206792197255 -1.2793363899104297 -0.14102716025781387
-4.91562893347349 -1.3679375442399222 -0.14948505403412704
-4.973916306278612 -1.763755318686248 -0.05797689886372549
-4.9806490160355885 -1.7934990460294291 -0.059838951569148716
-4.998809450552585 -1.8625130562782426 -0.06430763843484895
-5.023319333909119 -1.9635403813875294 -0.07075923890543297
-5.056652068572076 -2.0814443297521414 -0.0786022479868347
-5.0747761701210505 -2.167792409895065 -0.08400577258037399
-5.103850958178844 -2.261271471644508 -0.09042614177103116
-5.117622611326604 -2.3603946519701005 -0.09628098971879497
-5.05632777003553 -2.3971778879983408 -0.09473961347345931
-4.960364100984563 -2.420496390401884 -0.09071010896454192
-4.860257381080034 -2.447862342912159 -0.08686441281429254
-4.7636990733375075 -2.478283601372418 -0.08357996335776809
-4.686666080217599 -2.5006330240803374 -0.08099406551916337
-4.69436808402902 -2.595106784992258 -0.08666509185411629
-4.848352061261938 -3.010661249720827 -0.11752504335275264
-6.106362953997591 -6.296696350448183 -0.0805606108753416
-4.8015587614705755 -3.0420002771695778 -0.11710710512371637
-4.797318563451672 -3.1553707153628006 -0.1234194690986765
-4.800326222196373 -3.1942856329988354 -0.12579411487312292
-6.010634566699835 -6.323819703057185 -0.07839506479796905
-4.769096270225395 -3.247646248320245 -0.12747782102016753
-4.826963624073695 -3.4423067445406614 -0.1413654708958309
-4.842587500621486 -3.522520314815843 -0.14671415414635403
-5.9128182469879595 -6.345150785534245 -0.07607308696127184
-5.814291394203472 -6.366834699259554 -0.0738126331779329
-5.723975423410669 -6.402320574682244 -0.0722121513389901
-1.733053889888969 2.4387907279770067 -0.11347291790786333
-1.7583740006072939 2.3471900452466885 -0.09475513859961736
-1.7831081082271905 2.2486084830460724 -0.10638305449812054
-1.8049096184101354 2.151275884936627 -0.11350175652642867
-1.8274853933719195 2.0592648642601583 -0.0970706587976251
-2.3521802953646875 0.0653390991381595 -0.06817504326647457
-2.3747347026737895 0.02162218987017339 -0.07569094861533489
-3.509183862649761 -2.796275371740812 -0.055490914837540595
-1.8090564497107666 1.2946144614575459 -0.062490425950269005
-2.3003487049801876 0.057420606267402086 -0.07549377444328707
-2.3527792501716385 0.037288600772579894 -0.07429953682496208
-2.381073422759109 -0.10801620486383379 -0.09157415407950799
-2.4016093438547412 -0.18848699585260542 -0.09281345074321047
-2.4262972694421077 -0.28687804752125534 -0.11552901701459899
-2.4545402825154587 -0.389085598043317 -0.10764547496165071
-2.4789093488385747 -0.488080113583804 -0.09509773986367127
-2.503649897852596 -0.58383792212421 -0.11603589725002454
-2.522448742819007 -0.6580020163488827 -0.09469814888487911
-3.102038458257165 -2.0566812807517074 -0.11099929571074814
-3.4134570982427013 -2.829506955546745 -0.05541819879983692
-1.763303229078023 1.2857042444362117 -0.0735468542382436
-2.202192336117772 0.028945392978535045 -0.09314748392983545
-2.534955676300335 -0.7143357137834796 -0.10392613767936075
-2.5536638569881482 -0.7861172894781412 -0.1157040232690253
-2.580137088173799 -0.8840882617692094 -0.09987184065266148
-2.602017934520418 -0.9727428484246652 -0.1135561116396263
-2.625008325018518 -1.059185450945057 -0.08324094802697875
-2.6547497288145854 -1.1629281293436466 -0.09715123712825925
-2.680367582268244 -1.2526715619048516 -0.10926623639680537
-2.70328359670727 -1.3612645687872515 -0.12400360435972192
-2.72056007550375 -1.4514475405924772 -0.13626953390872998
-2.8086357921212772 -1.6834864281182835 -0.06929846309839426
-2.8737436936647 -1.8416334114355595 -0.08584424068647463
-2.9007511434044546 -1.9178135573745891 -0.09381718865041126
-3.004767035301211 -2.0847044880969046 -0.11207051429193941
-1.829655588534645 0.6760249267841336 -0.06217595776393782
-1.9123062935572768 0.4736572133010746 -0.06535622421687452
-1.9559037251075646 0.390301302114055 -0.06797501071736213
-1.9893201532414142 0.2927260592544152 -0.07674189413592906
-2.0149414145135114 0.18882390338570199 -0.0898985507112101
-2.060980919307979 0.10713075092649915 -0.09504719375691896
-2.1039231395732525 0.017873951236710983 -0.08367678337682553
-2.7273521290368365 -1.5033231615063516 -0.14334268278631712
-2.7351736359446273 -1.5537770294867206 -0.1028038999316453
-2.746479356978904 -1.6562337324050829 -0.06612654037323963
-2.7908217570922553 -1.7462545340831441 -0.07548399147066563
-2.8478648171832996 -1.8109727597574412 -0.0824894452387251
-2.9433570068372292 -2.0938487875230107 -0.11206169160529102
-1.5408491670948996 1.0911058334963373 -0.07499095097992604
-1.6002677932597795 0.9768892086440564 -0.07855579051336549
-1.6392329695642787 0.9210898633064899 -0.0948278672972014
-1.4541241411173067 1.1320723376016564 -0.1208297916739214
-1.499069356149867 1.0679637052667859 -0.11004421603104671
-1.5456924240405805 0.9821897728647234 -0.12055490193477343
-1.6083562660075184 0.8676273569464007 -0.09308311467657156
-1.433052430549967 1.0179990023543217 -0.13260218072597596
-0.07929788208168898 0.4614102630395197 -0.09701560325939061
-0.11060966338760059 0.09958686433992447 -0.09793280081851512
-0.17732361024149323 0.04374872008660424 -0.09206102024343003
0.0036016670640699466 0.14124762468581276 -0.10942028404221289
-0.03731938948433555 0.12736789464513154 -0.1052529659317203
0.6208964167563789 1.5359578991808196 -0.07333920943503759
0.12977817934521596 0.1211881051678918 -0.12333701631456455
0.6989112086198253 1.5702776163885512 -0.08061860023914073
0.9240091224857028 1.3871807125468576 -0.09244798416087598
0.9050950363137327 1.372668666048872 -0.09053872815080331
0.984707791808928 1.473242296977567 -0.09984920566535506
0.9644949217184462 1.4307344893650846 -0.0969524341563009
0.9273100841097142 1.3543388361569415 -0.0917527615025324
1.571891438021245 1.7471181961173898 -0.15506672672000887
1.3465291011763663 -0.05945664627996994 -0.10517857915156763
1.2941418596433047 -0.09959566490603122 -0.10123918916093781
1.2342482707469014 -0.14436656431742345 -0.09679625590575151
1.3970221265774825 -0.03362847833644911 -0.10901520808696026
-2.53086903388715 7.980929346381755 -0.051240659845380815
-2.558676611131144 7.870046599665283 -0.04716084396348025
-2.5860310609499786 7.7630572871616605 -0.04322382865916967
-2.613091645792827 7.6459897095899665 -0.038903928409757205
-2.6394099702846345 7.532803181721748 -0.034724683664557054
-2.664484832983472 7.429509253608409 -0.030924057088329612
-2.6883654982474234 7.346088759486 -0.027876588045765996
-2.711342262145521 7.252593548570755 -0.02444121440379693
-2.7340526373610565 7.161005425790619 -0.021074027018088498
-2.756387232092634 7.057359747602713 -0.017245977804936696
-2.7889928520219684 6.918710364452042 -0.012142869071600601
-2.82031303462877 6.80987847390534 -0.008181544098437993
-2.8865958082040453 6.61009203994755 -0.0009877402598160306
-2.9500616771287986 6.458569758872422 0.0043566530556643016
-2.97507720624352 6.349920773884403 0.008342533211081346
-2.9991093547195375 6.247176192136428 0.012106444413799052
-3.061983738896582 6.066528453140604 0.018547327926591917
-3.0217824370631527 6.151331315709968 0.015611921564492572
-3.045574383216893 6.091317975223216 0.017726688921814712
-3.6271906149075024 3.605179569683793 0.01492432443426444
-3.657535099020953 3.49805354173603 0.021761933718837195
-3.6726409317825848 3.3987618755615863 0.028359690227682713
-3.6961981503134846 3.306794760857904 -0.0015379969483484551
-3.716104510057165 3.221024741108465 -0.0008806775281395424
-3.5348677461479356 3.549418433314923 0.021017349939261312
-3.7184673127851697 3.1929206418995975 -0.005270916537268799
-3.7450050388122156 3.1054960824670004 -0.030885179013254854
-3.767640367991547 3.0134466792373926 -0.022721963798623998
-3.7956472124838627 2.916710130518898 -0.014520366075960037
-3.8193169423041855 2.8152683878943088 -0.005851228131540945
-3.844235776938774 2.7126987385066013 0.00262002286746494
-3.878807827553921 2.6100033813770103 -0.010240273950472042
-3.897580230803843 2.5221918846059665 -0.015855746890468758
-3.9133596958545738 2.432642171335204 -0.008692697706796773
-3.9422109101782885 2.347623516679376 0.01477245831856222
-4.058679183308977 2.0623038908596927 -0.011400178909786868
-3.4516957669645354 3.4947360761074346 0.026732246246631453
-3.9119979130348166 2.4114093253720172 -0.00195594200075061
-3.9392600564987683 2.321631791563082 0.0017345378215534515
-3.958886034403136 2.2250409709436707 0.010666890907152164
-3.97894406096901 2.1340208774332132 0.0059137799244511485
-4.035701329588372 2.0406124403171733 -0.006948425837780645
-4.069556129380196 1.9341850686899424 -0.021851971729432942
-4.092539918954614 1.8448817253056515 -0.022161678716496783
-4.114230001105131 1.7465144253050209 -0.016564086910019676
-4.138553659471395 1.6497196607478322 -0.012508346448046756
-4.164366489975713 1.5528480740325339 -0.009511424281022918
-4.190608696179993 1.4558994492791855 -0.006952238094625085
-4.214238361562337 1.3695741239658141 -0.015870766949805284
-4.241593154571374 1.2862137386999506 -0.0035485752735558707
-3.3691476569117254 3.449262606584611 -0.010611736524036589
-3.336608814771125 3.427503315754241 0.006016767717489699
-4.211495915809451 1.3390236302507335 0.010195300945520847
-4.207443051953122 1.24645409503302 -0.0022434699079520865
-4.2318311262130965 1.1515131076877732 0.023654745268585457
-4.262961633095567 1.0431192966830092 0.008635565593728238
-4.272989461819507 0.9497781553834826 -0.004408311561137371
-4.301262606671621 0.8604967497464523 -0.005144072738828359
-4.340492221931899 0.7616938208382575 -0.012283276766145934
-4.3592749814348855 0.7024226001153044 0.0010922434368345335
-3.006706738859293 3.9777489975066516 -0.001431908475585858
-3.0558464076110647 3.9056663487318604 0.0032956928384243883
-3.0896109241200183 3.7983144331186978 0.010752473087331536
-3.1231919337430463 3.722535925211247 0.01585558394770123
-3.1496576546868993 3.639820272866028 0.021539006731807323
-3.189132747505 3.485320466830361 -0.05253669220451265
-3.225834471072161 3.4218427834179606 -0.015544616383103213
-3.276889826205848 3.393689511654485 0.006476916972609707
-4.266403530131208 0.9283686398672063 0.02233581585976714
-4.298110595167234 0.8421043771289223 -0.01185054850173034
-4.317441748403567 0.7747783706091786 -0.010126542258939802
-4.356586791863796 0.6575694940481405 -0.011410665565565359
-4.376814377653439 0.5668755285949764 -0.021502686762341336
-4.403053670439332 0.4787777388633402 -0.01784963529609046
-4.435126093332352 0.3702697659172248 -0.0015394165423978368
-4.456622961876865 0.2730453483079599 -0.007308428716315096
-4.483206116634076 0.1773538450738208 -0.013997263793985235
-4.50562467355592 0.07810492632424793 -0.020683479036202226
-4.536065865673985 -0.020254652268039575 0.01269965802050306
-4.557747593348168 -0.09982278129637723 0.0062759466218514776
-2.9813235360617285 3.96981813449288 -0.0005790849248904495
-3.162988871670548 3.4981228050715094 -0.00020238084265210288
-3.1844544600265494 3.4575425357000533 0.03432039314096473
-4.529010670309779 -0.04167574057725454 -0.028763957629344306
-4.559734794109795 -0.1315326600082578 -0.0065512126889726435
-4.582713424667006 -0.21878413492363036 -0.007282680150778681
-4.610627925492874 -0.3146046641690714 -0.008663600553367873
-4.634330771312748 -0.40941927389086263 0.02321940010764951
-4.667020789588793 -0.5153357408779871 0.01697307068697762
-4.686609834478007 -0.6042115835797062 0.012209468846491468
-4.70203069615355 -0.7051958038330848 0.007170727621744984
-4.731736500342568 -0.799397573231917 0.0012956180406050594
-4.806490328944791 -0.9033893547073679 -0.008181514071143467
-4.8241186746887275 -0.9721163045729762 -0.012256808834604463
-4.849240392365722 -1.0740941680651586 -0.018293561238336337
-4.874835033697495 -1.1814362237868992 -0.02467269242819818
-4.898141981468862 -1.2733356500625 -0.030281731543768467
-4.907326254908337 -1.3179613843288014 -0.032887880061796715
-4.923833756998405 -1.3815632631719665 -0.03684229636891791
-4.940199377892883 -1.464319632382484 -0.041689581223622915
-4.959845155938655 -1.5841639618889738 -0.04853051710692803
-4.942469276934883 -1.6802212572162578 -0.052015254397841965
-4.945824452618716 -1.7051212295235854 -0.05342931508564498
-5.697093201276402 -4.64319216128433 -0.025419650525556517
-5.714853565453106 -4.730266808081147 -0.02816431505753013
-5.744302299765266 -4.842695394131462 -0.031959472880992185
-5.7703799282055765 -4.949992141110518 -0.035489499416817616
-5.738690598872971 -5.019337509270911 -0.03625600878591044
-5.672099010215535 -5.044905013906368 -0.03482549583198001
-5.684057790115379 -5.1558990624803025 -0.03806440592174064
-1.743603776853776 2.4030725311145202 0.004084138267641653
-1.7645767891935504 2.3437592121278894 -0.007504910565006601
-1.7873220167966728 2.2473828754579848 -0.015458552569064865
-1.8117770904722688 2.153496445055689 -0.010094851903639165
-1.836149341804072 2.059431361883532 0.0060882851946547495
-1.8607888133555142 2.0011988473320024 -0.00927803037868806
-1.8745575588715733 1.3290097568459165 -0.027150838933766436
-2.35001316086663 0.06902788112389757 0.005936424043562032
-2.3753526357264168 0.025010098390207958 -0.012480219715624172
-3.4923229098180495 -2.793980141345501 -0.05494685552028282
-1.836542950248107 1.3039400781382922 -0.009243461304789244
-2.2990575698449263 0.05609086246416184 -0.010325158893740624
-2.3546811669956105 0.042554738495366395 0.0020187255705089377
-2.38185563093125 -0.09775103291274445 0.004256765999402105
-2.4044252713922347 -0.19016855319568315 0.0018885504949273171
-2.4296585114205627 -0.28450521168168796 -0.008332691665831712
-2.456096024797466 -0.3792316735207 -0.02255578673750322
-2.484074633385243 -0.48984089340867154 -0.008903462342275875
-2.5098385311506135 -0.5833585856756816 0.009928980982627227
-2.532103953716931 -0.6742834765580181 0.0026021413520893114
-2.5469550937717553 -0.7313354073181693 0.02621130086728772
-3.0953001641785454 -2.066879836192647 0.00024276313993058796
-3.393815526789476 -2.8222791326697205 -0.0545176976156925
-1.766632767678538 1.2837574514724266 0.00019863222730029384
-1.9063845133074715 0.6668804078764139 -0.014735664928397077
-1.9325858996795562 0.6066307649184038 -0.014811002575822019
-2.200222051099606 0.028699839668131943 -0.0075819172335514495
-2.5409041011053297 -0.72265311174732 -0.03879042937534122
-2.557232849959046 -0.7818277271331067 -0.015533649193021845
-2.580142535044755 -0.8644264780682247 0.0016441715510498306
-2.605320026681253 -0.9728790744298672 0.002553978673894168
-2.6323093614435495 -1.0740911286254022 -0.007482490826984253
-2.6549741709997354 -1.174103409233551 -0.017473659015943707
-2.677227772723363 -1.257732464598477 -0.025870043584920302
-2.7008980766363493 -1.3500972863654577 -0.03518482189596575
-2.7139492897791615 -1.4338246089627062 -0.04363819238670011
-2.8652174947674043 -1.8433109848851028 0.01798109102086176
-2.89740109288906 -1.9266944567618782 0.012177751259418633
-3.006952337076657 -2.087055089444852 0.0002868667246966883
-3.278785721508811 -2.6882623923105218 -0.04345221788300961
-3.29160596193186 -2.8260635427461986 -0.052654695784512776
-1.880305331013423 0.6634324841745491 -0.008919443772512359
-1.9236379046707017 0.5865695879527092 -0.0071680232717235975
-1.9205034404676484 0.4784063457704293 -0.002297369810085076
-1.957070178353207 0.3877209392917035 -0.006017414335237489
-1.9897545654301116 0.2948884395516055 -0.011215890792158276
-2.018270268896607 0.19107825666324318 -0.009966103693905659
-2.059529147862889 0.11335869165671797 -0.0043897333971422425
-2.103406128435083 0.02088179648837274 0.011864218005743707
-2.721070526510126 -1.486734112934217 -0.0031249085574941438
-2.730756412306706 -1.5546133137670528 0.007089894363550994
-2.764245543368703 -1.6791701332298359 0.02960853077204393
-2.799439676134619 -1.7545860520169516 0.02440266185906928
-2.844407821941873 -1.8164812258111753 0.019947336179855314
-2.881423748452503 -1.9010093752770396 0.014030022524430086
-2.9145166147825496 -1.9802325036092927 0.008486312118403144
-2.9458267599838295 -2.1090994491943427 -0.0003237259627442146
-3.234459356097298 -2.852575014470453 -0.05328293044197098
-4.169223898597879 -5.422846044260062 -0.00688046302887052
-1.5208831649741263 1.1405100687273357 0.014295844673926555
-1.5427930791234667 1.0979844445907239 -0.0022835460224347875
-1.601570817180077 0.9759247541526438 0.010833529661615111
-1.6494772295627684 0.9167351855140848 -0.0032510425623839267
-4.07841479987391 -5.440653726843971 -0.005628054886510123
-1.4762584257499978 1.1471417785846714 -0.014253111253989037
-1.5159550065556995 1.0429478033178972 -0.014762370877855882
-1.531739678028731 1.0031844055207935 -0.004566401304757578
-1.5940616664285954 0.848641181596375 0.009925633170657026
-0.00654589902757019 0.4351823234522628 -0.002811411158847421
0.6954025979741965 1.5967598794261681 0.043643250392446445
0.1836128218118045 0.36737996500788694 -0.017176611173170486
0.7648940880200583 1.6192943977607663 0.03993464524469712
0.2742700602613688 0.31616185999133906 -0.02398465883891583
0.196100393691919 0.15823866827423394 -0.018131715514849198
0.1603001538991311 0.11214545881691418 -0.015627603524111758
0.1494137715608721 0.013264701854905248 -0.015355809200796516
0.1339880734920289 -0.07511753189389325 -0.014961223023034875
0.3395270937277064 0.28172091914362674 -0.02889750820643533
1.9581146817560375 1.8658697886161824 -0.019400834818043874
1.9719056949366411 1.8421189500557955 -0.019256585060017817
1.992494719751761 1.8193304181377874 -0.019454243354526585
2.317988989051835 1.7118860559658948 -0.03039789161735687
2.3048580854028486 1.6562437181150846 -0.028228993327783072
2.278799413898949 1.5538600084736256 -0.02421331261315139
2.2583787176311203 1.4707115719646537 -0.02105188059927314
1.7630097616365967 -0.2831973185318142 0.03144598937044197
1.8383223832747735 -0.20912708874831698 0.02764487940449415
1.8126478003449398 -0.27622494244313156 0.029329313827608644
-3.6225734036423938 3.5927608974767775 0.10743979154334768
-3.6640922117084522 3.5056881589689564 0.11016062981257257
-3.6820869501314886 3.401725561888166 0.11380247508401045
-3.6979154722738765 3.3029098187053885 0.11726121194518951
-3.7168718479044256 3.227380884756757 0.11979321413142717
-3.5334547367764637 3.5312036225494676 0.11089114639444196
-3.7222120848393874 3.180940986249362 0.12143258393242704
-3.741139598002982 3.0957243550107396 0.0836711306312011
-3.77038643318721 3.0051485469952586 0.09005979610735838
-3.79325931640955 2.9109522398633008 0.0965218982801769
-3.8157703519774198 2.8117550644548106 0.09890703337871891
-3.8454224241804886 2.7139436647333888 0.1016321639397871
-3.881425252734869 2.62650133425416 0.10782221940668639
-3.8985775109381575 2.5188242502263694 0.10854772844299793
-3.9149232813444876 2.4385753660839646 0.10465435721906508
-3.937155658523573 2.365321482580366 0.08787660294802566
-4.0592085826799735 2.0616280658996007 0.08372263550680843
-3.4480941843595097 3.466442349040996 0.11438588451598425
-3.9146775690484654 2.400097099423798 0.08672646862553111
-3.93989103042603 2.322529986060977 0.09030084264900162
-3.9640357083456106 2.22443385699007 0.09494666412909206
-3.98463465026503 2.1187130949321222 0.08045510938112829
-4.036769951725439 2.0429800857328053 0.0709529370175993
-4.0741270789957476 1.9466228609846934 0.07791642975335583
-4.100910407617741 1.8493907649471095 0.08031396486887744
-4.123219188633127 1.7495038583802325 0.08599977226572306
-4.143855169961899 1.650501554020349 0.08916597297602354
-4.16909644316536 1.5545550986375898 0.09082822614923716
-4.194151348146076 1.4570268061077576 0.09215860055335383
-4.222368182763461 1.3631957865238389 0.0918148032987296
-4.252139871636228 1.2866250366854122 0.09074621104725569
-3.3674301995547267 3.4216061308810195 0.11703804668964451
-4.222955489783653 1.3178696827684246 0.12033538785114112
-4.207001412333172 1.2415982382589084 0.08961658591626306
-4.226952170459419 1.1702950059204604 0.07395677533283787
-4.266994205437266 1.0240674424314318 0.11551385036275363
-4.278654758422922 0.9551330567110606 0.09600763309562735
-4.308720110350972 0.8600476222324236 0.10090999597603093
-4.337624606843093 0.7690799064074418 0.10150747342196183
-4.369504586373818 0.6849353484780161 0.09849696423371473
-2.9751574280328077 4.049872693811434 0.09684184456330469
-3.00723189955162 3.990549427876706 0.09885172060916159
-3.060237172396911 3.902046037788863 0.10178951338003484
-3.0937980566965257 3.79623329993923 0.10554984606947035
-3.11374422647632 3.725091764422509 0.10809449234156922
-3.1365950461089147 3.6445733252092785 0.11096552714750815
-3.278352414785494 3.377895169061679 0.11970356909746936
-4.301713005802933 0.8323487359886298 0.07146864063734289
-4.322614908036825 0.7721305280235653 0.08176045524257831
-4.365142154410356 0.6437101336373985 0.09298639385215418
-4.38079041477534 0.5661716559281377 0.09703045135112104
-4.411677846420536 0.4688520571353837 0.09333472430481769
-4.434107836011694 0.37039154214577985 0.0933955207623935
-4.457962468113939 0.2720335851062422 0.08833270273623647
-4.483027653456018 0.1754034382702273 0.08065991702326068
-4.510346631650599 0.07704061020237085 0.08372621773759709
-4.52545030280549 -0.0009058028338084778 0.10635094938185481
-4.560732254931736 -0.10251367794599564 0.1124833137595804
-4.588863686202831 -0.19230651938693488 0.11020450993349538
-3.1440033581508344 3.502016201091207 0.11635736293304667
-3.1796077117174573 3.4289491279822384 0.11879900796511883
-3.2159780691421553 3.3745890601653805 0.12050227166859875
-4.528470637178643 -0.040313979210682804 0.11468129409208866
-4.571319530209987 -0.1556520853924066 0.11145334578847668
-4.589597220993599 -0.22046892010951136 0.10987835440621915
-4.611248833086478 -0.3083085840471693 0.10784225996081598
-4.641539148291345 -0.406856222127139 0.1051850840124924
-4.661010278440893 -0.5009868722185611 0.1030366930075661
-4.689891365604405 -0.603743035569601 0.10025458642051316
-4.708735524382375 -0.7080431523470061 0.0978477555006344
-4.7292616780584655 -0.7929927090680491 0.09560232853016502
