ply
format ascii 1.0
element vertex 849
property float x
property float y
property float z
end_header
34.45883442842956 57.537295947714014 -0.03447965129291577
33.63876222224104 55.388138497608516 -0.017923685632036
34.56167514295929 57.520022472484094 -0.029351740959817983
34.402758215003026 57.09291164818288 -0.026282116050647703
34.391318753440096 57.07959698398321 -0.04465465305962494
33.740766206580034 55.35759008562404 -0.019685599728301556
34.660823467746226 57.502382005589894 -0.010499741963094819
33.840204327872605 55.33102485128662 -0.026154602978009617
34.72200228463017 57.503361936079166 -0.012727045688365662
34.75304643221201 57.47022361526588 -0.013718393496805467
33.93535599568065 55.306954080511005 -0.03296216884914587
34.86239869128616 57.44281397927533 -0.017632504813561795
34.837516630440454 57.44271114802704 -0.016707919459515358
34.03289123603322 55.279420190338435 -0.03692182311777739
34.94487396470414 57.41670189265238 -0.020583651352586246
34.1084251809319 55.26611323767047 -0.07270486992269456
34.127458331789214 55.25016230345275 -0.027619442627053646
35.020566608045165 57.40479211851341 -0.02335740950385025
34.23586742300877 55.22439480669884 -0.014603450891958539
34.203889365830015 55.22494003396989 -0.013402297937528784
35.14450564819694 57.36725412007127 -0.038423313692694284
34.3276708534336 55.20546960605498 -0.018332552900446733
35.25695517014456 57.34115857554115 -0.0429768639208989
34.419806546690744 55.188867120258244 -0.02205879562025538
35.341221178130674 57.32014168917352 -0.04640460993743045
34.51867404378073 55.16249424633658 -0.026209657920287177
35.43405390184145 57.29457648788932 -0.05019236243986304
34.61028639472801 55.14163755076492 -0.03001362341088472
35.532222659811794 57.27154865185913 -0.054219725809820936
34.70763248887362 55.115201888647526 -0.034136355048832105
35.66378130254836 57.24323593561758 -0.05963992930409214
35.60782674894277 57.25051937308049 -0.05733323313334787
34.80680668753417 55.091585414463786 -0.03829484691324542
35.73577419204885 57.233707984077725 -0.06263493798781376
35.60631027478631 56.91202120854372 -0.057159907936833974
34.92643072541772 55.062578186990315 -0.04333596993587413
34.8941799023144 55.06409633027095 -0.04206710699072485
35.80745173058918 57.21236185495994 -0.0656044439905073
35.77941525000214 57.08974287134259 -0.06437801540749527
35.7508155668128 57.04320632218941 -0.0631709102908803
35.715973430077725 56.95645349475141 -0.06174278591446547
35.711523617736084 56.89010598711832 -0.06160736571136691
35.010375713439046 55.04130898755311 -0.046896750312740196
35.95605890135391 57.18818768348273 -0.07178376610854312
35.116533069211506 55.01222796986298 -0.05143385093415543
36.008191995814315 57.16423750713434 -0.07395838508979728
35.94766500476709 56.8998098595976 -0.0715308091244142
35.86765738892672 56.785475283710845 -0.06833124221144321
35.20406682855343 54.99402053238467 -0.055104539293866765
36.013971620344726 56.78466478008836 -0.07447623670867376
36.01209405241202 56.71137084500595 -0.07456135316283889
35.997968982478916 56.66372779578368 -0.0740692546819659
35.31090208671665 54.96524484529547 -0.05968313045677667
36.0039557942609 56.6639706784968 -0.07433771795416437
35.40490324073291 54.941526857352116 -0.06368855864752064
35.669839897688185 55.36302033683934 -0.06908728807131959
35.64044757830013 55.2710732382751 -0.06892040597750124
35.61411934643988 55.170645292123815 -0.0690372309328641
35.589882364873375 55.0740568442553 -0.06925490788878219
35.56380539637705 54.98193839723528 -0.06940463479434904
35.499558539197906 54.91947761170606 -0.06770542611334761
35.79176378464289 55.37656595566971 -0.07390643998609403
35.564001097597284 54.949997484758015 -0.06983140559040926
35.554480579975575 54.910825948601115 -0.06997374064966948
37.50814802583226 56.57772308173885 0.0249350546773838
37.62211219692313 56.544732829795386 0.02400571181971642
37.69171415873251 56.5028196095317 0.023362228659100773
37.646786232012566 56.42854118419844 0.023485003785381445
37.618320033795044 56.331096398361666 0.0234385102083101
37.5950889917376 56.2326780344988 0.023382006826279347
37.57520095641408 56.135207985376 0.02333598203769771
37.54999511634101 56.038648425794065 0.02336220216464878
37.525118870042945 55.9425053474533 0.02341846974589988
37.496006810956686 55.84908163326338 0.023542207943007834
37.47170224863215 55.761361699317696 0.023671669594432426
37.50761660171639 55.837283886364865 0.02343230362543594
37.472249623297365 55.73796066745278 0.023642825821220917
37.4463239277152 55.64199128424392 0.023809465116374523
37.4346838526904 55.585432060507664 0.023881474734810684
38.20998273174301 55.34633992567258 0.018012338118151852
38.18145806799809 55.259006350931095 0.018264588235765822
38.15800626573554 55.156366597869486 0.018503723664389474
38.129333600894 55.06547949458061 0.018809848629804185
38.11211152834942 54.971196507417645 0.01904563682846784
38.086531400544025 54.86948144460757 0.019391825586371855
38.05584667718689 54.75872011874726 0.019820493289802538
38.06667376119343 54.77196254121829 0.019714406039759505
38.035741850403056 54.67484871205728 0.020144033727218055
38.01249316362936 54.58070800254787 0.020540757926308398
37.994843623036935 54.52539775321194 0.020803977881742847
26.9532183371757 59.73708411003494 0.08929013102567554
26.93119358743917 59.6957198887116 0.08967326492219971
26.924595210895816 59.426768954745775 0.09100816539783751
26.91415785256304 59.36851194911324 0.09134456930988744
27.0635558227868 59.40918647927047 0.09004090239351195
27.149040798885572 59.542755036040255 0.08874343485108341
27.26783257407681 59.419644777792605 0.08843063338527601
27.210296472697536 59.374338162722985 0.08908676049961456
28.23224559877472 59.12503845186305 0.08239104927384905
28.195235787146945 59.12421354689129 0.0826866864844785
28.316358063569826 59.09940142834255 0.08185626854707281
28.411366430100642 59.076599963381916 0.08122112264657622
28.499138156783925 59.05699886060512 0.08062484161434397
28.597989586660454 59.03032264979628 0.07997325076675546
28.726685052016443 58.99494426650439 0.07912686604930791
28.8256438417854 58.975603111378305 0.0784280622367047
28.912628805607653 58.951486472146776 0.07785109629306572
29.016312442506337 58.925632802332345 0.07714490147192074
28.968788535780096 58.9360506234717 0.07747987488196942
29.084842085769875 58.910962600062575 0.07666258386717117
29.188514589342276 58.88245866568171 0.07596616984760751
29.29951915999704 58.85629918506426 0.07518939989537926
29.414551097608744 58.82537333507373 0.07440214546623039
29.48710390706053 58.81182968454746 0.07386522841390483
29.57419880144586 58.78729439888336 0.07327014014091496
29.685829180181234 58.76007434064052 0.0724738232611769
29.81496870284177 58.72748576657443 0.07155377346657676
29.78270168306152 58.733839413875614 0.0717945749614505
29.872374324906854 58.71836856351578 0.07110173554023963
29.982731386190494 58.68531432651768 0.07033879871834203
30.065635305608 58.669428701114754 0.0696955436130478
30.172846408953106 58.640439981797 0.06891807096125635
30.28481773316589 58.612342041755376 0.06807955288140657
30.3579907926475 58.590148424148964 0.06755717417339344
30.553332788487456 57.6316764851406 0.0717688348642449
30.534081912546505 57.50520001749608 0.07238323259441085
30.58718152520449 57.58703425005603 0.07170208017872287
30.580958848871894 57.53323509970749 0.07195169761139811
31.8978667583727 59.72050291730099 0.03492084314899367
31.860431329072266 59.625958343595286 0.03679862300199217
31.83569455751155 59.50353615557545 0.03880467619690933
31.95843005869176 59.685661759182345 0.03431239964310456
31.88445664024857 59.600231099068324 0.03672614838397563
31.856360808737836 59.5107236458552 0.03836217216757648
31.826444887368638 59.418715611763346 0.040053749759932256
31.799182555502092 59.31511531791602 0.04182877354822728
31.775410179787396 59.20717983515452 0.043579953901354385
31.760626428562258 59.108946031468484 0.04504885218612034
31.72820009828329 58.97341624670632 0.04722250962178004
31.713665691267014 58.889641375671644 0.048463479019316746
31.68837558929555 58.84885283695061 0.04932988873295435
31.307400828024583 57.85243889646917 0.06417594839740928
32.06149176295101 59.71407405935648 0.032098685373811886
32.04818298733586 59.63202314582917 0.03342142985676351
31.725405602262633 58.903219178867744 0.04812134352657796
31.697485285181894 58.81301104493925 0.049628385494294186
31.568536522558894 58.277976830265374 0.057406302879884324
31.544455765908694 58.22433726669454 0.05825174002111086
31.525251902613444 58.13269270501575 0.05939470997744331
31.5047013385534 58.07551290325392 0.06018435607779932
31.464204581534823 57.96537397893649 0.06164776246632053
31.372918525025813 57.82936407976397 0.06372390623807389
32.20379310074571 59.64090324913556 0.030449548616730923
31.771878608587212 58.653318111280456 0.05043924578059056
31.637882029340144 58.26487192739509 0.05667770108259351
31.526612012342724 58.104168486559615 0.05966078518862514
31.502272383689263 58.022159476438645 0.06071316628363971
31.470727066147123 57.92288171050629 0.06195079423557587
31.444091197399356 57.839665399694226 0.06293617357461809
32.28028517330574 59.630620069189604 0.029145167356207036
31.74046659705224 58.23446457375453 0.06263411726942789
31.108557355289914 56.53544619480363 0.06911524062144025
31.091038535007733 56.467248071424336 0.06894358042248452
31.065762439137373 56.37747420217231 0.06866653421872995
31.035912307915194 56.281011680298725 0.06830389505444304
31.004247634754076 56.20509534299473 0.0680163621602431
32.36907054599295 59.64208262069469 0.027278591003585553
31.840998994681012 58.2262537984905 0.08846248660198527
31.066599075314397 56.3460859428694 0.06849725005503352
31.04359423274946 56.27104555571447 0.06819660303967184
31.00996553085565 56.1772263598223 0.06778795236801333
31.00274398824716 56.08261453135071 0.06713683320174743
32.43453927843915 59.649678016185554 0.02589600531272447
32.00686308818904 58.33414450629005 0.11948574877860815
31.944706190745904 58.25131838411051 0.07734264265644836
31.920340330275796 58.23103628194833 0.12020434794029886
31.11006360852783 56.03820553251237 0.06608898705630747
32.068510347847884 58.3045930510777 0.05021037355833355
32.03781777374505 58.25580139538942 0.11704148878320098
31.205934749565134 56.01144418756197 0.07065064845290375
32.191616458757295 58.248777939386414 0.04896797597977498
32.16210065645292 58.23661215337487 0.04959072571044962
31.303528421563918 55.99073608499197 0.09490234628831723
32.234236458812774 58.17781579773555 0.06456698858396454
31.44891492072091 55.958276389898515 0.1167052580417346
31.3940587346279 55.96518289182983 0.08986790324984467
32.40479589797906 58.18417948604246 0.10498060929145392
32.318822656752054 58.17627614723361 0.07728328615634669
31.519436150658525 55.9363289584157 0.1011193661230547
31.479843399317215 55.9412210389958 0.07776745641791377
32.44342158496619 58.11638124024227 0.08396163533733142
31.598998368689223 55.91343218780205 0.0869732791625713
32.5615369106664 58.10845663246431 0.07163134111927766
32.524727254220466 58.09080444025387 0.07480874446090077
31.704141399159113 55.901388408162106 0.08159026001600236
32.65810901943444 58.099332128351676 0.08781591671066338
32.590635647901664 58.03965008261228 0.09707347201592056
31.76913867935249 55.868065534616136 0.08487996928302177
31.76062412976478 55.78354513135136 0.0790980695309069
31.745787743707275 55.68302323168896 0.08160766446369938
32.71916702362504 58.0591223257703 0.04837981605962574
32.73794434597454 58.023218321875234 0.07517400106922928
31.81502275686395 55.63798490936253 0.07908614894580424
32.81216898957598 57.96376502961998 0.06641499064018061
31.874812154101896 55.60919823002941 0.0834978451546419
31.866396494676557 55.57333866813486 0.053767289495051135
32.895472043695705 57.92175327716112 0.062462969393049655
32.0248553020596 55.57017507945293 0.06849751947470425
32.98819436046495 57.90065426399883 0.06646672359254191
32.09870381828272 55.551008043357776 0.07309947230584515
33.10282378744257 57.878509951942156 0.07330815190865031
32.19274461362881 55.513652974588496 0.06963692211248773
33.21523561690456 57.85473833084488 0.033232378280928246
33.18935459768572 57.849185777619695 0.06227224345382534
32.33112865624053 55.52148098051905 0.07098327505717275
32.280230674023315 55.497625500783286 0.06652961551916706
33.29988621176182 57.82690668258742 0.05952327789045128
33.27796161290718 57.82087238507453 0.09293883762786723
32.41003997980577 55.4987028570443 0.07628689501599845
32.37633843076503 55.487632043005526 0.05622159226208004
33.388887734322765 57.79805972514477 0.07059304570883643
33.36238907552412 57.79304984640434 0.10131948311541303
32.49518836965138 55.46728653293997 0.08295832809371634
32.48773930534283 55.445304321755174 0.06945048758907532
33.48121607094447 57.77016773713849 0.07391470337637984
32.59213220656129 55.424325664284495 0.08875667800069581
32.57123584857306 55.41435810204069 0.06502877887457273
33.57624113044878 57.74638320304001 0.09285444150041358
32.68254896649292 55.394468842465585 0.07920014123403316
33.67543803407432 57.71912975866934 0.09513920661265807
32.780404306903506 55.37030100405618 0.0764354392565007
33.773128935275864 57.69312967270328 0.09420484801656676
32.87775362886269 55.346695524055875 0.07307493634714968
33.8701849698242 57.66956882891196 0.09362883713580317
32.97732173963301 55.33496879891805 0.07338512364669958
33.968428183520565 57.647198133504666 0.093316503151984
33.19355440685751 55.516430902596085 0.07144392769788119
33.161358769876074 55.47681673602311 0.06488527449348261
33.13007867483032 55.38295152865156 0.0767177366024196
33.07329109974439 55.315979714515166 0.07621968825109596
34.11042994819014 57.62827668306446 0.09913416499276118
34.05714995920372 57.62741982526341 0.09191651309138268
33.247614565545135 55.50033002420466 0.07466353001906528
33.27432533996559 55.47377851706468 0.1054305016478769
34.16797671695789 57.607818264766735 0.09424968748344997
34.08570692689189 57.44954299648424 0.1148838519088313
34.06331445128657 57.377877499599634 0.11198730086786385
34.037229831390164 57.272187880330925 0.10801881592223206
33.969316389601055 57.1971623243915 0.10411256484857576
33.34813563417003 55.463489360432014 0.08436525990416707
34.259760364923885 57.583888095943706 0.07372755994549343
34.11909114645668 57.2349141560878 0.1047608320437455
33.43678455246223 55.434534183532996 0.07937778689677691
34.36461506377167 57.55970128826386 0.062245812077691226
34.23660956621585 57.220822976216795 0.11152954557365971
33.58169411728213 55.407160710082984 0.07377900565405898
34.45494442955502 57.53124428509484 0.06131478322316394
34.32661235059487 57.194120503101594 0.11324187399966448
33.642514283154625 55.39160643895514 0.08406225126854608
34.57694460858417 57.51199561006509 0.06035873683160445
34.44603681847744 57.19011013004958 0.1164073582401017
34.41365551853982 57.095790855726854 0.08872194989267926
34.378040849318566 57.081906002702695 0.05042953601847147
33.74150290915403 55.3636013887118 0.08548084213002835
34.65575135886043 57.49197884781993 0.059685678906382156
34.50401858668673 57.13155200926438 0.11105318903256711
33.83659481330526 55.337937978947 0.08465161891263129
34.75286282280653 57.46127813036683 0.05882571058072972
34.66948971865526 57.21565378309108 0.11685105367551318
34.64360658576513 57.150940219189216 0.11493178537205098
33.93552240844871 55.31331661502876 0.0836044849776934
34.87998638299722 57.434311149932995 0.0578999305151304
34.85068485902766 57.43542094812432 0.05805228003306573
34.75187084534176 57.22223602429857 0.11902258647275352
34.732854027149116 57.16175215857326 0.11739584866272904
34.07123166243432 55.28043386760664 0.11653462737517523
34.033362681679726 55.286055214711496 0.08155790693334614
34.96152587098787 57.40725835203361 0.05722616087426191
34.92153781283132 57.410724382969676 0.05745456869739962
34.91090727691311 57.28839049920356 0.1243083192853032
34.86931500215822 57.13166235612192 0.12036321491736626
34.869009452265026 57.10487433605622 0.11991450589505395
34.82728842360903 56.99333022673927 0.04631564733833435
34.1357843877429 55.26071161525189 0.08386604674034973
34.095907274511106 55.26808675504529 0.11723391178204345
35.01283382280335 57.40119158881392 0.05692551782249791
34.94912492575686 57.217003788046284 0.12391516724124324
34.9583170733549 57.17209759871295 0.1233565638275528
34.91796666853186 57.06788621166406 0.12062142210374235
34.229375341038505 55.23666239468681 0.0886460991543972
35.13192498943955 57.36660798515593 0.04675387458399671
35.000220860496725 57.036303151136615 0.12233350217067646
34.32580857113525 55.21590423028475 0.08465497546187109
35.256589795650385 57.33575061384152 0.04550122594789349
34.426638853063515 55.192114408939936 0.0903860769078405
35.34246959634152 57.31511144580906 0.044659365508589594
34.52060792847997 55.16742469467948 0.05004708739678099
35.441809579797834 57.29123342283349 0.04370212554087469
35.269559185495936 56.88342645955452 0.04238985157348554
34.61548877431707 55.14406203595613 0.04916018262838753
35.53243668408106 57.270975466169936 0.042849071271803846
34.710806430228196 55.119575528545525 0.048286611389368905
35.65114617793533 57.250050165968794 0.0417895358922831
35.620348460828254 57.251126115298234 0.042029620375593935
34.81068710128586 55.09557675643241 0.04737753313871321
35.73942985201671 57.22865110617986 0.040968894361417985
34.908436471781044 55.071823997846465 0.04649848484498914
35.001548091785665 55.049086545075376 0.045672370601549606
35.95890669865041 57.177037352080106 0.03897763142963759
35.774887992090676 56.77359582883226 0.03820418403456158
35.734229529902514 56.78093488398758 0.03851556133107378
35.10202061524168 55.02377119386078 0.044794505804884366
36.036920804227165 57.15747110356666 0.03827239769500637
35.87707115202873 56.80188333509707 0.03758573992942414
35.21606699367406 54.99353074748823 0.0438177157626036
36.1266731755597 57.1092173623836 0.03731967962397638
36.11047485392895 57.03175930997095 0.03700376812319975
36.077049224808555 56.92455469978191 0.036694299877635464
36.04166918087643 56.83643007041124 0.03653360078516886
36.01104558086501 56.72384941618177 0.03628325782290741
35.99069605368587 56.663474064855535 0.03619909857988704
35.30133434535049 54.97309168924932 0.043081238963547014
36.02730101511346 56.64183170030818 0.03585577219067089
35.39619883289136 54.948787191226174 0.04227777711505107
36.101744633273725 56.62062943331653 0.03524303416051565
35.6636279447453 55.36675784892469 0.03823087940238676
35.63395296741894 55.26938479643856 0.038783042986931526
35.60961682850868 55.17417317145947 0.03932759365642696
35.58342388639686 55.078986100958495 0.039935083708685426
35.56110896551999 54.978704041750206 0.040569746260495004
35.51979649984552 54.92113024697948 0.04122516382208441
37.35388573707593 56.61594568925316 0.026164822634213408
37.41004907889786 56.60097775095077 0.02573138504690567
29.279773746627743 58.85238094264675 0.2239578248229551
29.386217582144056 58.82754299755875 0.21961312056515483
29.499482442298525 58.79615924646166 0.21493273211384942
29.59201345282999 58.776302769671645 0.21118837191057724
29.690345282385483 58.750243749270204 0.20715218930579796
29.800860126923272 58.730519928944695 0.2027505063317633
29.7578232421975 58.73532095831086 0.20442444424287523
29.881043892449508 58.705304189787526 0.1994148047281428
29.977322874509568 58.68259598501871 0.19551975722394696
30.072659650077313 58.65795891899127 0.19163901645364842
30.175933761024915 58.631471506976396 0.18744881261836313
30.266909244234 58.61334777044116 0.18383821316355833
30.345435366819135 58.5868805759949 0.18057473428520945
30.576038412709256 57.64096592615109 0.15993101335925397
30.59732458398842 57.59247541390526 0.15859110162933845
30.58993427742272 57.52489300383908 0.158193188438323
31.889152650216687 59.66556833137995 0.14931240763233572
31.860377140742326 59.61422021302182 0.14907947817258851
31.83973866851806 59.51428112334355 0.1476568182551289
31.920798000583318 59.69766987052081 0.1490847181140007
31.868370933192093 59.56633476079322 0.14789309870554132
31.842529341802436 59.4728860303018 0.14674224276914496
31.82846346872249 59.39829770159411 0.1456586411423271
31.810733856557775 59.31081546656098 0.1444269611340105
31.7970707797615 59.206826030928724 0.1427704351783766
31.762034687961357 59.10932469860645 0.14188756181926027
31.74566489364854 59.00117494515523 0.14027179237878928
31.30059665458601 57.84505833883595 0.13494311504663456
31.722061572213025 58.88307544815259 0.1387089652802415
31.70673868739809 58.81699311214232 0.13791311188975877
31.569667477500786 58.273376556554126 0.16996204417912017
31.54966639773737 58.217828966160816 0.16729986678987122
31.52732029249149 58.131688082451795 0.16470181804203213
31.49591606660968 58.04950586449188 0.1311069698183645
31.36497172348972 57.82674032113813 0.16926298950409577
31.631721378023947 58.25814501140293 0.17129004144356932
31.528685132458065 58.107513907663225 0.1707192633870994
31.50306911954296 58.02455710469041 0.1683074231635888
31.475499888138845 57.927502402541485 0.16135537455308194
31.451194063912073 57.83507665942987 0.1626285169697526
32.28336804901816 59.674245449733974 0.13895289781408407
31.84736066596542 58.50426572832233 0.12762631375383257
31.727012794944766 58.23276909519769 0.16352379124757246
31.115553882203024 56.541758215412074 0.16469629623736068
31.095312812061366 56.46855100448302 0.162849259492631
31.070334968895047 56.38217955479597 0.16007334655173258
31.037040324100957 56.28516518254652 0.1587961430349854
31.844856332462168 58.22412164342053 0.19069063804633976
31.069620947378308 56.34902359701992 0.16963323092259278
31.048326541342366 56.270793929918455 0.16457611868285763
31.019134037695355 56.17549839715288 0.1653135464118283
31.00655088904404 56.08264516020247 0.16774755824629864
31.953119068638372 58.23276251681874 0.1857737439307384
31.931111060676532 58.2273547335944 0.18656982226163862
31.11155470763442 56.03913307202445 0.16394263975468684
32.049457527079916 58.19979015283675 0.17958319946111337
31.997836004239137 58.20938952662738 0.18247640868031154
31.20152109187782 56.01394237862122 0.1608520265333235
32.14365335962149 58.17691422299674 0.17415179331059258
31.3106147343778 55.98952743118715 0.18011028601560272
32.24104257996699 58.1484656815104 0.1684731429558172
31.409271666352023 55.962501362981186 0.17790468860908995
32.34152623610482 58.12873411185146 0.19347324658018486
31.910005908390957 56.97166568791201 0.21058952569245518
31.917845805223912 56.95555045536478 0.13622103589241125
31.506534166350345 55.940513478938975 0.17340334212344635
31.494135217361535 55.934366337810225 0.20751484847749826
32.43513730660131 58.101838535664136 0.1837402686129386
31.943753114827352 56.94385250019383 0.18684805043060335
31.855697462508143 56.59708355557053 0.20697128695464648
31.598143394714725 55.91209608739836 0.18588480593443155
32.53151343075444 58.07445843614192 0.1823574672111161
31.70482313550903 55.89810911432082 0.17624839806813467
32.62817940286995 58.05056041739038 0.17256537284933773
31.768210957626657 55.86822384386874 0.17118630217575578
31.758795202723228 55.7846798636914 0.17575581946165778
31.741339111289847 55.68260586487823 0.1851752583327533
32.73303348179164 58.041931570838216 0.17661490858230525
32.72345008683383 58.018978912684815 0.17161956694783928
31.810248487651467 55.63566074827567 0.17703135939778084
32.78527390711648 58.020512123216506 0.1769143768004702
32.812312173629266 57.96430606734407 0.16275206748719742
31.87820339041196 55.60353427878683 0.171192264760913
31.87644272625874 55.5734394651307 0.2006550862379561
32.898227333852674 57.92237169473578 0.15806309515780373
32.01127392590244 55.56038431019056 0.17986973052404123
31.943273563340448 55.553719339936556 0.19617803658149743
32.99944111364524 57.90533937100078 0.15961424673890937
32.09586259572869 55.54294905440478 0.16180500929395908
33.11937800328626 57.891066964569106 0.17657059110413756
33.102866309675164 57.88023673433244 0.1729196831086844
32.19247443980332 55.508061628648676 0.17417631074830545
33.211129878434726 57.858824432232 0.19517559098857248
33.18607294496177 57.853023977768146 0.1694192230062637
32.33413017246831 55.515352313193446 0.1698688137417412
32.28837481300663 55.49919902982953 0.17333494112923256
33.29460815685919 57.83193294288703 0.19485563504605483
33.264062242984316 57.830301300846244 0.19435492992794576
32.409081543800475 55.495036397652775 0.17397175327646316
32.37548458919223 55.48934241002972 0.1693104321823736
33.38805406763584 57.80419294497756 0.19286460201461006
32.49619606174446 55.46557805836708 0.1862345697975281
32.48457280431544 55.45177098315189 0.1729033993759805
33.4831488542506 57.77619436257999 0.19330661442562355
32.59281328870394 55.421520773109776 0.1916628998022725
32.57767976850886 55.41393754198366 0.18188558299603233
33.57849536813353 57.750090857148926 0.19296233980997393
32.68308598772303 55.3905483970487 0.18365441480845887
32.65661327349836 55.38649443986891 0.17767680324659005
33.679068487321096 57.727897970593865 0.19446272854307708
32.77516045968647 55.36330711911705 0.18213926896622087
33.77987104795913 57.70711390569444 0.19599767488701095
32.871574745631136 55.33626770277577 0.18329227113782667
33.86902467597598 57.68372536667709 0.18924850401098817
32.97245284499425 55.32139938659072 0.18246900993202933
33.97540136465092 57.65482341139693 0.1746897307253237
33.194388490927224 55.51293578291317 0.18245258467934852
33.168679261431855 55.480516678680466 0.17622221408115982
33.13320126306191 55.37612917474231 0.17440475473348635
33.077731612522754 55.30475816790789 0.18350398667235565
34.096705464365876 57.632833682129224 0.17845961300510502
34.05196521672667 57.62917109540256 0.17626828208764642
33.24486181457933 55.498362516653955 0.1802841578393308
33.25236593901525 55.482538857847715 0.16576183840629719
34.172952212281906 57.61839882657359 0.181076961787588
34.151341772664956 57.47914552490169 0.17213222226427008
34.079786384628015 57.37807427155747 0.1631159335767197
34.02941149732391 57.228048728802555 0.1529342695429517
33.98674890693438 57.20227768337308 0.1943165685656327
33.34569371128977 55.455853250038686 0.17247737871737392
33.34331594241723 55.447494794301846 0.1636601964755525
34.25335685252819 57.59237120253215 0.1834168104812737
34.17464651126053 57.33048068030833 0.16573544123287673
33.44581616602347 55.42340534592472 0.19787708146855934
34.235961602935326 57.28526659493616 0.16699262211538415
33.548669709460746 55.40000359569874 0.18065895985590516
33.63699479799052 55.38194073479269 0.18517724750172374
34.39985334084242 57.08768412955945 0.19954081856478575
33.7346979382453 55.35455520520576 0.18991413639308483
34.675268928566325 57.486930208877816 0.2006251578835663
33.82766700079166 55.33316656398662 0.1923336141838368
34.751082275146686 57.47301281145661 0.20437165701333396
33.93009953088184 55.305099388703105 0.17244758766710475
34.87194500819213 57.44033762930966 0.2101039678422071
34.83145303608924 57.44804597228436 0.20801780985411286
34.030121303940476 55.28104216967183 0.1772626887905063
34.94860307518383 57.41829653183311 0.21382186766579983
34.126829892178975 55.25936846289506 0.18197718290230822
34.128490335343706 55.251266792019756 0.18251363965060222
35.021140546676286 57.405132419223094 0.21769546569745377
35.065736640015935 57.30183102403441 0.21032641769134244
35.03364819265144 57.21781348416541 0.12608287824196815
34.22014055844725 55.23003569572488 0.18714540570679297
35.11085940867984 57.36458960342588 0.21488928501445073
35.07373072863156 57.29090962338761 0.21047518811426283
35.054462336107946 57.22239580631311 0.20736670065973048
34.31985988299638 55.200698588580586 0.19265119926655136
34.42100227128228 55.17591585749282 0.19806856096901485
35.33223821026693 57.266794622808675 0.22503901041799454
34.52701228707258 55.159305156961636 0.1685470733719823
35.256078909000024 56.8714296682034 0.12731765714959667
34.61619610660451 55.13883857599217 0.16853851941453282
35.36728920325367 56.88381337973347 0.2194328109672469
34.70950931609151 55.11571183250624 0.1721577087458954
34.81056636599141 55.09067392688278 0.17624873856267567
34.92252214329949 55.067309181346815 0.13583893859246393
34.89140056863043 55.06261514136077 0.2242736306704536
35.01933281169818 55.042177169598794 0.13825388559087806
35.83497440271295 56.7866532838267 0.14250944736292154
35.105662301869465 55.02143730414687 0.14038365709490425
36.04917925561503 57.15199101473942 0.1518971937052313
35.20281641531597 54.996536923930144 0.14284225197234007
36.12430869832684 57.106865594467905 0.15339256661148443
36.11411241826074 57.03035662113834 0.15228059441953443
36.077022109799444 56.92278789792556 0.15024304713413605
36.04379274224477 56.82668802647411 0.14855958139503786
36.01640767636732 56.73034571161146 0.1471731592970523
36.00123964535454 56.67328618394527 0.14644361863690533
35.29757686052514 54.96957996700626 0.14533013549499352
36.02370242177196 56.711732420336716 0.1472551858263936
36.02071621544168 56.645844036157214 0.1468565590805818
35.380189483594265 54.952645483922595 0.1473486149532691
36.11159253187868 56.619250897640065 0.14925575147777725
35.66297707825904 55.36662990765099 0.14518592156497528
35.633378849648224 55.269357104529234 0.146173932785053
35.61183438821081 55.172863633589664 0.1474895129672585
35.588686394375195 55.07591688388394 0.14893026739677453
35.56360669330006 54.977149678530004 0.1505148040769871
35.50837728813 54.92205075942421 0.15062780643332707
35.788741282062986 55.37837137310122 0.14797827927971235
37.4023513162092 56.60656082253982 0.18493896476795266
37.512483340536754 56.57562731357141 0.18788056107078857
37.61642806277975 56.5509753487698 0.19066766815191985
37.68809005042222 56.511798971546284 0.19254953919867349
37.64569418547922 56.42653618410081 0.19119412972108576
37.62219857256908 56.3289698523238 0.1904254527775174
37.59328844395555 56.23093149473924 0.18960839278664884
37.57105786468272 56.13378008251727 0.18908053181965387
37.55014944564593 56.03693483806154 0.18869189318038707
37.52690687349755 55.940654547026064 0.18834094946243188
37.49904803636231 55.845402829174326 0.18796354313024413
37.472169685812645 55.76728964786648 0.1876192372721899
37.45154357615288 55.69788258543888 0.18747477553481243
37.475897163605175 55.74272504779939 0.18786006957678017
37.449670971028965 55.63992904908123 0.18779089335396834
37.44061431811971 55.58278976103696 0.18793682879190002
38.20517498787561 55.34593991623764 0.2100001098457597
38.18733386106632 55.25611852573185 0.21028810627079972
38.16236024724936 55.15385319807831 0.21057659534213022
38.13518150023188 55.062486702342845 0.2108016520301911
38.11295482507784 54.969739045596825 0.2112436826398336
38.08748425489854 54.86804364543207 0.21180324119779267
38.0642101191786 54.79543737257853 0.21212916465362033
38.065572413100625 54.74412515085366 0.2128408344632731
38.039913325096094 54.67233883591478 0.21318391567483666
38.01550565379575 54.57862962422041 0.21393898547401227
37.99450807465548 54.52469205916178 0.21422677058076997
26.951792704308907 59.41462605681737 0.32015869169747535
26.93523462191292 59.38472412078803 0.32048486437067136
27.027518278156766 59.41504432502472 0.31721329237788787
27.13971267175949 59.38515658347085 0.31252002958849046
27.28151716698967 59.42577447721343 0.30745649676367404
27.242717320089014 59.358961695988974 0.30823157380902144
27.79481879820505 59.287000721118304 0.28602766614413866
27.98018335238362 59.20965928102248 0.27799155320094915
28.240474354704723 59.1108939531373 0.2668192639029545
28.228074592380704 59.096635832337995 0.2671296773611521
28.33418605068086 59.09035436556933 0.2629716506856037
28.43259237568683 59.06566192217243 0.25889710590424386
28.501997946886604 59.04622537605848 0.25600555159347715
28.589551119906503 59.026207704838 0.25240757725440965
28.712129356810454 58.99455068822927 0.24733332419514978
28.811174840615127 58.96586755577363 0.24319723479841152
28.882214758050917 58.95231293960963 0.2403204807052943
28.9849415162058 58.9271723981086 0.23609475230106283
29.087437594335317 58.9012393957391 0.2318721253894189
29.17921206308141 58.880347985102716 0.2281239484119413
29.920069350637903 58.69613872450772 0.3251770204855906
29.98438478532828 58.6804944618052 0.3204294046848546
30.07309279434341 58.66059174489475 0.3139494235036021
30.16016888898334 58.638970553868006 0.3075390515312483
30.2732607685395 58.611091579911665 0.2992487848057671
30.35372282116782 58.59047171109275 0.2933453007481942
30.58032356793042 57.68423800447571 0.24936446402770132
30.57881782624477 57.63632497447444 0.2482355363108976
30.549446021618632 57.529252055598135 0.24770576651079082
30.580878433163715 57.581950811901855 0.24672444358148263
30.583773638584766 57.547777623251136 0.24569066068942255
31.310350456263485 57.84086283300763 0.2758215577490599
31.56906969733546 58.27881735783992 0.283359890074132
31.54154429502312 58.22342737712758 0.2814637376427843
31.514943208646873 58.124271332728945 0.2765530424972774
31.49167291364224 58.04002539120921 0.27267132847367304
31.455815570485505 57.93531793240456 0.26877987266855674
31.36132173716149 57.834582459485716 0.2708381251991364
31.6369789350008 58.26781708095559 0.2774528146064088
31.490343700433474 58.015249318409985 0.2711175564883943
31.46862796214989 57.933503747604284 0.26757681088152474
31.4428227452651 57.845483110902116 0.2642403583815651
31.029720918225973 56.585389547534255 0.2627032475364177
31.740102726690573 58.23969970137169 0.26779687717426015
31.102549421566028 56.54799024714547 0.2822495121996247
31.088065464518415 56.47338170299904 0.2876139359942457
31.062902375624596 56.379956388258655 0.2876776043326231
31.030389625049036 56.279609708082496 0.26348096527486553
30.998531026384995 56.19000564590115 0.2680240399496211
31.895417959820417 58.26017393030159 0.25862634243934646
31.85072793543244 58.22855059837447 0.268227955782523
31.035379975264863 56.262249385100404 0.26311119463477595
31.007531644916018 56.17971258995473 0.26719314595753774
30.99791237586767 56.083809403808736 0.2698055119852276
31.953331968212826 58.244852307679565 0.2908881886418465
31.939904043207033 58.230307321246244 0.2875250565860441
31.11544888334403 56.03430544828252 0.2795339460987688
32.04896630766588 58.21688720156311 0.27652753172113986
31.207155749181442 56.01070627141765 0.28137334395399627
32.147956932946016 58.262388863028555 0.30841126553723686
32.14549816232729 58.196146490359446 0.26944341288025264
31.29970429465789 55.98372827908384 0.26770218919200095
32.245901454812746 58.162880524591955 0.25598969878991706
31.400270587631937 55.96234110860792 0.2590437774241213
32.33479153326089 58.134859550692696 0.2768494178163625
31.926963359486802 56.96410313024177 0.26916801213953323
31.521551347583976 55.93372976107246 0.3021946898342004
31.500882922688167 55.93306202126042 0.2782183460486206
32.439240335182696 58.10350609791612 0.277070907169494
31.951038460109864 56.95054643876674 0.2975586430121293
31.954604352505562 56.93429502660462 0.26627099001929744
31.871770411080938 56.59611471137768 0.2562616955431215
31.612457607444295 55.924261720285486 0.2741695305816685
31.555677703694233 55.9123495318611 0.26705963263723
32.531698301592264 58.079521417401274 0.2915877523857524
31.701497824597492 55.91054637454077 0.2780872210525981
32.668964679405406 58.08227099673459 0.31183305581876186
32.62116257133237 58.05741225820104 0.272778892142993
31.765315793086327 55.866896758598095 0.26281127520540604
31.761112623016807 55.78701277020811 0.27368698731140473
31.742644928935206 55.68232563168145 0.28120169000481543
32.7342794392554 58.045297630358526 0.28817620115480114
32.71988548712845 58.021401853441276 0.2615081423725284
31.81395159334105 55.635895225816405 0.2780645792035218
32.79094430133412 58.01689888467262 0.2707349452543777
32.81430763078421 57.96767809558854 0.2620829694899667
31.8869568867028 55.59896998019437 0.26622471955543936
31.87447122375929 55.565546397675355 0.28452690864784025
32.90172827404591 57.92285751332701 0.26276079945828834
32.00896925523791 55.56285608560325 0.25297962192319523
32.99704251783853 57.90561277805693 0.2783664993394498
32.09714172247112 55.53936830267107 0.27603324565046194
33.088226577603734 57.904654979643695 0.27420060915588607
33.097433725558034 57.88675699951032 0.2928453992761031
32.18744511456782 55.50737975630838 0.2816373028026712
33.20697865382566 57.85743718280435 0.29666725283643347
33.18966190783019 57.85325909457977 0.29008094148680263
32.33595709253195 55.518790941172774 0.26684031406200304
32.286624776597996 55.496480707736964 0.2844093724697502
33.292349690335115 57.829139539307405 0.29092280715549634
33.28104990983554 57.824069501921464 0.2864090565201787
32.41169131252738 55.494984653555775 0.26819527216470807
32.37762549834668 55.48872018108266 0.2768059693129925
33.387903600661375 57.798770822145165 0.28786294125720024
33.357057223016554 57.79715959650515 0.28616756461430515
32.49746619440652 55.469317674891 0.2724083568671244
32.47256773546163 55.45690399235049 0.27096545963354546
33.48242922580833 57.7709231389735 0.2881564580061824
32.593079168897155 55.42028108205105 0.261828762378992
32.578957393928825 55.41169002566726 0.27488220272548036
33.580151790969204 57.74718297044596 0.2905585094997717
32.68594494206444 55.39000484758731 0.26258049765931235
32.66622637846909 55.381604028644276 0.2849680005965918
33.676776611701534 57.72165260692764 0.2930983898824532
32.77803132841889 55.36045195281853 0.26876938066583944
32.74314833143619 55.353094918140826 0.29369055329104876
33.76696274099531 57.69839117016934 0.28633542258407263
32.875077891861224 55.337427978810084 0.269949302332093
33.88122757133425 57.67699785341534 0.25776190256986375
32.97422904980682 55.32583903896397 0.27146566868706234
33.97112845084927 57.65120247379274 0.2574014263365887
33.189790551755976 55.52106509316856 0.2924212232834106
33.160958181952616 55.469444835795215 0.2706686401078422
33.136764718062075 55.38144836635681 0.27294649653092606
33.07840415159815 55.30815160198323 0.2743393229950851
34.10660697435744 57.63160345285741 0.2505125505939163
34.053800017509175 57.628808651398764 0.26165529935435505
33.25579235055306 55.4989669936044 0.27849353740493443
33.274522660924724 55.47358669033656 0.2560080514627543
34.171230949556964 57.61410040748892 0.2687894755186928
33.34900116165696 55.460761194904606 0.27877438404676735
33.334045147223314 55.44980800105601 0.26416099990203623
34.26749344062666 57.59070186854045 0.2790283777538276
33.43757839967441 55.4289304081946 0.27575649559094173
34.36324608761238 57.56545889478114 0.2808670597430497
33.55383158505913 55.40436236857598 0.282529730511178
34.455937847494845 57.54037780297782 0.2857348544776921
34.41221389081831 57.452389570484684 0.30946943060164733
33.64021108225532 55.38998763014678 0.2845322055414087
34.56330327331725 57.513774984741005 0.26356241633531874
34.39680010661382 57.08900213390904 0.28040212912053875
33.73511335124395 55.35833673176482 0.28791944356876475
34.66015664227695 57.492822740066565 0.27064606374632494
34.45690885570759 57.099895730892406 0.2885076751312907
33.84665992870141 55.3306185906574 0.2683035386473095
34.758372298397106 57.46670811511089 0.27781411192491223
33.93715196252944 55.30663711119742 0.26074447939184286
34.87407644729322 57.43664950913163 0.28661440451139775
34.83692802129747 57.440698171363486 0.2834493883296353
34.03335517134592 55.2827618654074 0.2697698309668737
34.946012275773235 57.41824267276576 0.2922656304632353
34.13518550466873 55.25905682186004 0.28324546986691335
34.11109006772278 55.25971496022036 0.2775012683351469
35.024550448634145 57.40466589036137 0.2988614977533903
34.2228238259966 55.2327442690215 0.2770427781103273
35.149535353321674 57.36712123750046 0.3029856499085678
34.3305629974343 55.20551053831745 0.26364891575993443
35.26684395454888 57.342609137295696 0.31271505683151735
34.41665212029443 55.179971334899975 0.27135865655003244
35.34785195336701 57.320539900867885 0.31933808999417024
34.515471682197116 55.15795545851017 0.2797648183435846
35.45001886835284 57.29549929570016 0.2640812202717343
35.29204794772293 56.882022527732346 0.30145452493124336
34.620036351958355 55.13115248389683 0.28904383007391177
35.53609379543698 57.27313248480011 0.23738335226101884
34.71434715831748 55.11241266592662 0.2971264660178685
35.65899141005961 57.24797081159093 0.2441551633886839
35.60854479263975 57.25667153370007 0.24132442516024336
34.82115054377087 55.083005256685894 0.30695837297572215
35.736743842570654 57.229449785478614 0.24842881209178272
34.945824594938586 55.05599632463117 0.22709554462067258
34.90523252420498 55.064793772457705 0.2964367346336909
35.798514842131844 57.21142021685122 0.2517838505257156
35.00535824430775 55.03975163493731 0.27017849183290255
35.94247623135027 57.180883216370106 0.25991155711808756
35.11069263835856 55.01233625412881 0.23684377463502285
36.023349649511054 57.15676269029868 0.264390722107534
35.18741235929572 54.99503557554771 0.24128670987873121
36.131725019933434 57.11192403469935 0.27023816612235374
36.11907467669749 57.02011668684544 0.2679769985144115
36.09052812651025 56.916775950519074 0.2647874394764078
36.0536131793715 56.81176631062223 0.26132488044630287
36.01895166749611 56.74283313932131 0.2585468442718547
36.003283788771135 56.671832759914516 0.25706197008520426
35.29209816037247 54.96725795375835 0.24756640719251563
36.08354417315234 56.87037019716845 0.2637880059870664
36.075086446833396 56.84146875336787 0.26295878696511177
36.03018660171881 56.71809773001194 0.2590713430047975
36.033698182324805 56.64457302664693 0.25881481593940947
35.39849219453522 54.941006668211756 0.25389883274316627
36.111450619411 56.61776340913964 0.2635502802628221
35.677977548925774 55.3598081296173 0.2533898103920962
35.64949556689112 55.26152012044001 0.2549104421119949
35.62390825464902 55.166501743959806 0.2567529393010318
35.59532906920232 55.0720986679087 0.25867197964833843
35.56970504338681 54.98317053525688 0.260772923510425
35.512527899443214 54.91950769065656 0.26046129664601636
35.78391280572813 55.379895299386355 0.25872371132408034
35.607238270998 55.06599514818178 0.2595157212267887
35.57448602756737 54.96297244728832 0.26181838990980133
28.636632544796328 59.01247378265693 0.42158557704083677
28.724412989415473 58.990820871383484 0.414924431254058
28.80693394905569 58.9717877172855 0.4087076725630461
28.89664723028315 58.94696030128633 0.4018376107257309
28.997460428626965 58.92287262291737 0.39424019738283456
29.096321721528305 58.89900710729747 0.38679340317548094
29.197206761915716 58.872303847128315 0.37913422268286046
29.286594642565916 58.8512735461577 0.3724406261022082
29.397275834902537 58.823545196848755 0.3641155257623899
29.499207266944243 58.79950877747868 0.3565109192916318
29.587741797079193 58.774027908627374 0.3497713287461449
29.672816262629745 58.75724462890949 0.3435583587178819
29.784552853793553 58.728157799816564 0.3351898842078376
29.865099847542616 58.71191693154925 0.3293286127639935
30.203052029643096 58.631985353961554 0.4231818490301268
30.27148651645859 58.6156480777716 0.41593844644231237
30.338587271666068 58.598320329757556 0.4087804123743084
30.52745354892354 57.7732221400934 0.34812528750257654
30.563325851572557 57.719460943901 0.34218270503588577
30.55255775148705 57.63719867000501 0.34732968904147565
30.560329608693053 57.54954613699226 0.33567032264426555
30.583252491446505 57.57910954691466 0.42304738281381693
30.585937052045026 57.54522424895017 0.3549423826242847
31.56957673131542 58.27499511132914 0.35909997108709146
31.544337783523144 58.22284042101275 0.35636390318637623
31.51749054182449 58.126404258291636 0.37563978620040905
31.491132315936408 58.03582759663913 0.35410345215600914
31.36055972074693 57.83053757136106 0.37837469245830124
31.645282312236127 58.26149053697482 0.3768962622768355
31.525228068329742 58.07950569868884 0.41674410910244475
31.499688452587694 58.018411849745114 0.3848799477684287
31.471360322938537 57.92598506394763 0.37225138939579716
31.44404272362542 57.840608241460814 0.36430177784638706
31.011826630482688 56.58608495274607 0.3525779862167334
31.73994170343242 58.235207418726525 0.37287249068306916
31.106166078284666 56.545532536989256 0.37952789003516485
31.10097991584797 56.468277552446516 0.3805981480655506
31.066730466524803 56.373741507857 0.36800917134766287
31.03262727584287 56.287504913491624 0.33357437063245
31.009577178934855 56.21394502961984 0.3334554000452613
31.893137568628823 58.25779390272085 0.3975821816890689
31.84598114188737 58.228748285279735 0.3693238605129817
31.09502603399297 56.42114721836759 0.3819866886708939
31.07576953924806 56.35582041633196 0.3862806120882917
31.04371841951746 56.266781547173274 0.3889299223853663
31.012797478826677 56.173766544818186 0.37045843974450143
31.004654364415924 56.08203550676718 0.37161525296617814
31.952249851194054 58.2505056587362 0.3859940787963031
31.90011885336523 58.242049979606094 0.3254283743674621
31.202350619932517 56.31252752457998 0.4251194850939608
31.095242727670747 56.03951284340068 0.36745007158286913
32.108707594752104 58.29252330154233 0.38216293675266666
32.053307305507694 58.25582873519951 0.38172781590404237
31.200773153860546 56.01326652760209 0.374378527132748
32.138565789024206 58.305586197022336 0.38153209809915145
32.158125536484825 58.22154907580793 0.36733498167021095
31.30181424873221 55.98725052950861 0.38970477403625525
32.252458389297345 58.179000451202704 0.35312310277693937
31.39932320172907 55.96445358621109 0.3697954063845622
32.34846189587023 58.14809818573638 0.3660990099430549
31.936831447389675 56.95117285940688 0.3532668354990467
31.493347476537437 55.94677638194951 0.3712781272163558
31.48838183846316 55.93817946905637 0.35774788522712864
32.43612603812643 58.117528454871334 0.3661009210928057
31.96124869786036 56.94481885957189 0.3459504638394377
31.953937187856027 56.9291663535163 0.34628901642840015
31.87918110291015 56.5964618355264 0.34801328040593427
31.59446649658777 55.91954704591603 0.39738235835857494
31.56386537789686 55.91011650625519 0.3709312405115286
32.51757672032107 58.13842798577893 0.3866514185685639
32.533283060288355 58.07817488358585 0.3738934014690809
31.70307384608375 55.90773803139259 0.3649664835406683
32.63355985575289 58.12127452971617 0.36669795384325643
32.61266888576782 58.06408555976999 0.3775335747697929
31.776275232464915 55.871700953239326 0.3624790642250173
31.766150669191532 55.78360936058913 0.37107237116573744
31.746586777574187 55.68629345094561 0.3821810009750014
32.73028863370886 58.04829948195732 0.35753383584374043
32.74172823003858 58.017845142061766 0.38055673400080947
31.80961672249933 55.63697943203135 0.38168534325291903
32.77990917668941 58.02891104791486 0.35178033576523793
32.81347633624702 57.96402909948374 0.36341778251358303
31.90279770973296 55.59701851405453 0.3684237943207289
31.889253921337037 55.57031156511694 0.3491650482263209
32.89764318318203 57.9232856471173 0.3670863290964018
32.0035060871518 55.56485670631493 0.3650382441319636
32.99652661208131 57.90112667937861 0.3965033789320732
32.10026160769577 55.55272001394846 0.3876937537792827
33.09500320637268 57.874473221703745 0.38902131685832864
32.19807942570963 55.52429777294307 0.37973245735032013
33.216548181673495 57.85362537846256 0.38358632229413037
33.18845007507482 57.850677833927215 0.3886531956614596
32.3328318980165 55.5193804652644 0.3644591290332183
32.28483308354197 55.497841371231715 0.36971435048781376
33.298765113127345 57.82842505745438 0.39462463216669685
33.28069687150082 57.82213897588064 0.37708346159135886
32.40417385385479 55.50156256150211 0.356357672017927
32.38297619659405 55.49211076683671 0.3523024284638001
33.387840324926486 57.80108691975542 0.3863271952130033
