ply
format ascii 1.0
element vertex 843
property float x
property float y
property float z
end_header
15.155947707998564 60.03578134355382 -0.6316143454888381
15.259036564360825 60.004193095122176 -0.6344193092371202
15.348392882238196 59.97806292625101 -0.6355902030386498
15.463063638852352 59.945260981550234 -0.6354743625634804
15.733399984628196 59.88828138125964 -0.6435169434370593
15.80567575825412 59.86801446938947 -0.6399214314761321
15.933900747716221 59.824027186017844 -0.6432595030664287
16.014291929069085 59.80228180875421 -0.6450392641846515
16.081277072448973 59.79583061576673 -0.6446050543163434
16.43544850172692 59.697633298472404 -0.6519096418493625
17.028745457353768 59.58101082368714 -0.6603046217951521
17.172804441480423 59.49197936882127 -0.6642887604946115
17.68626235076184 59.332455413275646 -0.6720328072859033
18.7329713278068 59.064734441397455 -0.6885164947943693
18.82008753689191 59.05555037027559 -0.6919069748212843
12.19733889242622 60.942075148372425 -0.6433177375097496
12.310857610420399 60.89742745657053 -0.6567152798190158
12.395153009087002 60.85245628898662 -0.66990739136068
13.21446274444975 60.60504230204533 -0.6508877968844093
13.540545220451857 60.507460130687726 -0.6521855855143277
13.660455865943858 60.5071390612556 -0.6463653915470745
13.701116019622658 60.480496321710554 -0.6546887065123436
13.846906255296938 60.473716716341144 -0.6567005369687637
13.913064243242829 60.473733546352534 -0.6486254559396906
15.691701696505945 59.982944763784054 -0.6392619365903895
15.769944364178276 59.98407075040672 -0.6412029371763484
15.841850640672247 59.951009473013265 -0.6433280570854756
15.954145718277282 59.96707130024736 -0.6409824707772349
16.03361222631729 59.93801075992608 -0.6435330365824264
16.12114195710871 59.87637139018271 -0.6459306215093241
16.363923248960305 59.837159452328585 -0.649652090673551
16.419528649075755 59.816510875256114 -0.6499251934892925
17.01988470218385 59.62814880359113 -0.6647060334018465
17.230359162686064 59.62088982335139 -0.666600587156491
12.218856852859485 60.96326627543636 -0.6521094207931382
12.317292789343146 60.92166371294141 -0.6566022670058709
12.382169826941027 60.916685305140426 -0.6491931383752477
12.461373317214054 60.88663180878871 -0.6626509332932438
15.800807910824625 60.07323045185547 -0.6398484416473861
15.89909034961259 60.051721122514365 -0.6425170948050404
15.97427297287546 60.01087726761424 -0.6431326389370335
16.099750618919217 59.985696767494126 -0.6431705402413821
16.270489260611495 59.935337653746686 -0.650044555002437
16.3710843356052 59.91836868901958 -0.6483700349438543
16.56343041592286 59.916822061705396 -0.6549875317034597
17.02083097622115 59.71832333385102 -0.6604260208352172
17.11078142001551 59.77825518580993 -0.6633324580891196
15.841149529307932 60.11999484644827 -0.645492157577098
15.887977102255753 60.108602894167 -0.6434179691597104
15.992163008686514 60.07997175344673 -0.6432275056031025
16.197562629625484 60.02978040144554 -0.6469131918726394
16.29126706085389 60.007575071793276 -0.6484957393536851
16.357420455727773 59.99616642222788 -0.648926972065085
16.553238127412655 59.93704906683283 -0.6554763575779181
17.07182687046476 59.83698391376988 -0.6612280085795473
17.03340862468441 59.99367601388393 -0.6579465287934214
17.103446103263888 59.96482243292251 -0.662858439492197
17.052489913823592 60.06289475826759 -0.6600807186310822
17.089953313924514 60.00923292803318 -0.6635075444801666
17.05596674154131 60.152365111628086 -0.6613441574464358
17.11066726197905 60.14828193486642 -0.6619302712724291
14.69748345049238 60.91211344260684 -0.6667467639059826
14.72192294690154 60.90037775820861 -0.6670342004864895
15.142074864013107 60.75942725220209 -0.6591698934754963
15.210852475257273 60.74751475644418 -0.6628994532683136
17.087474457632826 60.25681444284915 -0.6617226454936277
17.136513134958502 60.25415966678479 -0.663583790849956
14.71031888774465 60.92736256669504 -0.663508915762013
14.784845933853415 60.9340027855051 -0.6616039091813298
14.819256282177502 60.913223391167996 -0.6503401182124066
14.953713904434112 60.952410108481736 -0.6772374977456848
15.075341112172001 60.87704939970291 -0.6646442726107659
15.164858786248708 60.8549015464625 -0.6606890401261408
15.221150438308293 60.82053709968731 -0.6625854202048782
17.060641653520122 60.41274358288245 -0.6596919957415146
17.10410706042896 60.34951260309696 -0.6630662841759986
17.16178411744784 60.332256759011614 -0.6623084929140333
17.281644780656993 60.30190970098137 -0.6655171060517434
17.347240340015734 60.248417367107194 -0.6656568322391075
17.49291754612753 60.2980142782501 -0.6663506355609443
14.996097022015462 60.97935278814945 -0.6693875176084488
15.098694506784657 60.989160996909554 -0.6653782281649028
15.192815781275067 60.94370990197158 -0.6617984306919683
15.254064402140854 60.949632990874086 -0.664754947996108
17.07512579317075 60.48549888435519 -0.6595515712785827
17.120707565409894 60.450267195023564 -0.6621505280295813
17.21778199344319 60.4324900402938 -0.6630920115119902
17.305775375970576 60.41918300945353 -0.6655115209326259
17.44028751478657 60.333657771915306 -0.6640631418885116
17.47562356658094 60.32327250699597 -0.6663539044724693
15.119966460876752 61.07405470722728 -0.6653055722051138
15.219166762832936 61.04044905253033 -0.6616505408836211
15.275675641723456 61.03218215989753 -0.6619355479557297
17.076432995963064 60.5701502909994 -0.6608264906662634
17.144214923743185 60.550701238945166 -0.662426022067823
17.243043526026504 60.51894802259864 -0.6640859285653101
17.346150663893376 60.497856222564884 -0.6646269127544945
17.403938310516526 60.48007921050916 -0.6668573212089746
17.537432851292426 60.431615999027635 -0.6690276878971771
17.6237822673579 60.41583918740901 -0.6682110643120083
17.734602362633797 60.41066978301226 -0.6708771664404467
17.804581920200846 60.39607462166863 -0.6732454032469987
15.091664811748677 61.22136774188294 -0.6715223928345597
15.133602520781375 61.15088175908625 -0.665526315130744
15.229677185286913 61.12780151773098 -0.6626723031875391
15.294426400653538 61.110099538138265 -0.6629108809970774
17.021651406044995 60.69881706809559 -0.6607789271486985
17.064855158107388 60.66892943399916 -0.6596635956543239
17.174161805635528 60.637895412917786 -0.6610877415014307
17.256001291373664 60.62168258739321 -0.6622407340424185
17.363351472406087 60.61060804115212 -0.6631339357799759
17.469868789105277 60.57068992693226 -0.6643645205360892
17.598896277818003 60.578822937939826 -0.6703045792113697
15.092161504072385 61.24284524694809 -0.6743139466938283
15.18331260560453 61.27554703389314 -0.6640064098396977
15.260698008068971 61.238987427002726 -0.6652421200541414
15.328900402938372 61.22438495733233 -0.663231058641615
17.044039087051573 60.771629399860615 -0.660391976619995
17.09799199437778 60.77321158573248 -0.6610979712365798
17.192821031096887 60.73889912843438 -0.6618470173938782
17.291508515163777 60.70895507993479 -0.6631181123098948
17.390371368675712 60.694560952192816 -0.6635859444630459
17.469507201632243 60.67628572412142 -0.6624295841402184
17.61367201984756 60.58960470821146 -0.6723677292270362
15.120481388513621 61.380777817111614 -0.6699046157454512
15.187984162094839 61.36214967783677 -0.6622132281860846
15.289708692618944 61.33888966117448 -0.6634083936810647
15.356231354307308 61.32897090961651 -0.6619851791066301
17.06883210254011 60.84036901011043 -0.6634374154324933
17.117535890416423 60.862911382887184 -0.6623196860667417
17.220218937496426 60.83378436290974 -0.6625237128084839
17.306676155423457 60.78754157876035 -0.661864014152713
17.399078062800147 60.780129622435716 -0.6645686152556954
17.49006050548952 60.73869490116418 -0.6645800751910665
17.62409584566291 60.76420313095024 -0.6644311419184162
17.675089049205948 60.74551391559802 -0.6658838551710566
15.055758690262838 61.521831679390075 -0.6678436378666205
15.136791257767673 61.49552687390085 -0.662676694607393
15.213925482260459 61.448468923699856 -0.6635178633859994
15.293074671312826 61.420462337788386 -0.6628271697982464
15.371731488953493 61.415629480328775 -0.6612414051809711
17.14252912113713 60.94554256997845 -0.6610100486395222
17.23679420028818 60.93261906334027 -0.6623890226933732
17.32008947556556 60.9076142501702 -0.6611205562449621
17.43633622348218 60.87709523114341 -0.6650337333821271
17.674724433384856 60.81914278259755 -0.6667945901958542
15.153997880598062 61.55092682739062 -0.6620386251399478
15.193574731937085 61.555710419092605 -0.6647797476824068
15.37249489298455 61.483219565998546 -0.6620438939475072
15.387592740856226 61.47609579031667 -0.6561097451249626
17.16227758333936 61.061214093352206 -0.6612111736577467
17.28283681006831 61.03317440314814 -0.6603100807976441
17.370356352716705 61.01138236105111 -0.6632701688236327
17.42520234850403 60.95786914521418 -0.6652484711614548
12.657830677050267 62.34796018210186 -0.6565781729881657
12.760853519013303 62.299312826378625 -0.6504697937950058
17.222308411842288 61.148488756429245 -0.6606863463962914
17.293644538845232 61.136160710560986 -0.6613867255251765
17.394893710322687 61.095287225686505 -0.6632756263587651
17.461516683463657 61.09524619964633 -0.6648778568183286
12.63955108825472 62.42414345713826 -0.6629093270424299
12.804190273017163 62.38340017420848 -0.657431825418014
12.841113205834287 62.365516827375764 -0.6526874502624967
17.259558244079248 61.24386492989889 -0.6614801281787562
17.315335861473642 61.212401823814936 -0.6626259315034109
17.427507290085757 61.209871921072676 -0.6655129938826864
17.505587026529238 61.18667811456327 -0.6630625768117611
12.78547080517223 62.51856581396416 -0.6666244893638342
12.864418739473269 62.4481351791675 -0.6574842226928841
14.015195835920682 62.22127051216077 -0.6556779155173573
16.232604010057646 61.647867928531646 -0.6633958336900434
16.26213415966 61.6430954509851 -0.666044181783974
16.521322150900385 61.578254795752265 -0.6664361081813986
16.580899610394503 61.562693241401384 -0.6721375650634053
16.679739486762166 61.53845500436067 -0.6720441311742495
16.765013780505086 61.511481285435366 -0.6734930295734113
16.82820400985813 61.50298571331098 -0.6808042779850809
16.99372545114705 61.44148488295154 -0.6621071346028163
17.055695067483157 61.43257011608097 -0.6728377804256576
17.1369413131948 61.41699443982851 -0.6828740431257148
17.268937168024888 61.29862465788974 -0.6636497028026833
17.335066757796262 61.30500550397016 -0.665771105227198
17.47197231059225 61.309577005918925 -0.6641524641172741
17.54252558611407 61.22612944006082 -0.6668806345090913
12.745477297649396 62.60807063532227 -0.6578034635079961
12.814043645383913 62.59331479126758 -0.6507370180570528
12.872094347398654 62.57973249332486 -0.6453995839955176
13.72194495094921 62.388909191915644 -0.6472113029283468
13.80169781134155 62.34042634765441 -0.686419137168065
14.800385313428214 62.127688137884604 -0.64135701166872
14.874273676619035 62.10891871098071 -0.6489329953964764
14.928569858788524 62.0891892442074 -0.6504322143618299
16.12657629964609 61.74088527322286 -0.6652939004191731
16.208294421084773 61.70642237052818 -0.6680598861702073
16.30255539138411 61.692260030436245 -0.6682151593972493
16.417911825719177 61.678043638518304 -0.6731766713175923
16.48702364329936 61.63329273565653 -0.672965512654782
16.598167226643007 61.60870755481227 -0.670064822978327
16.711751367321337 61.59025153395279 -0.674336483692068
16.77198423420696 61.55251595379779 -0.6773896170680547
16.865651853834734 61.512705774182 -0.676110008914066
16.976139975757558 61.530019003946556 -0.6798864150020569
17.04702500960679 61.45769263737076 -0.6729034391991476
17.161219357158167 61.42292589236704 -0.6847162973658183
17.31095454859464 61.41050514048783 -0.6659108151972317
17.34044488874354 61.41937314776871 -0.6628603403810279
17.49341500187369 61.34944639178709 -0.6635506867263863
17.567711223047894 61.39365183742407 -0.6652954107138719
18.043646968400598 61.27651032276347 -0.6740420217081873
12.680244246678727 62.777445514243965 -0.6180456695101367
12.751536933977633 62.72956624408436 -0.6254242502720361
12.848778962966103 62.69051524903508 -0.6597925223914426
13.436399210617443 62.54783220398643 -0.6686204421111673
13.504463678798006 62.539639072260485 -0.6714646966280077
13.606901008475504 62.45089183910636 -0.656410855648518
13.67307908362254 62.4237861953671 -0.6739110756412738
14.627259015089509 62.26945532170607 -0.6401894425523723
14.690136886306217 62.21565875936138 -0.6496469255251536
14.796282747558546 62.14679688512273 -0.6508524655371801
14.860457690278137 62.12634914581688 -0.6566094680822502
15.870963865521873 61.915238794404246 -0.6591130129950951
15.9591293055536 61.90744241059063 -0.6662587329983415
16.013835023645978 61.89423591467532 -0.6609091443211476
16.146522202658627 61.80757493020552 -0.6770395827607487
16.239317919757728 61.80851283363661 -0.6703643532728033
16.34518041191437 61.78836557955079 -0.6719512432602933
16.383843378729015 61.752930325946416 -0.6664503540548535
16.63583882546564 61.68057578719961 -0.6744215328265483
16.697055733763683 61.669460736117415 -0.6720745032837775
16.79288066734283 61.65076854459441 -0.6720608800011123
16.992737435538174 61.59454007349297 -0.6800438034996629
17.41320771365387 61.506184183839764 -0.6662477721162463
17.599621219285357 61.4115359749483 -0.6624967526951171
18.082892878824136 61.29663286929043 -0.6847710552534145
18.172144568516533 61.30928070051874 -0.6811497440592716
18.285326250956697 61.27542646799501 -0.6730438648902725
18.655125278818794 61.172088351779585 -0.6812786571553416
18.71700006452722 61.179467419223954 -0.6869922152304496
12.405539503109258 62.91613053877914 -0.6483121103432181
12.58573375778519 62.82217825137028 -0.6259259535361325
12.780689012840005 62.8079613272204 -0.6571600329867224
12.838947393500572 62.74388476685471 -0.6415364763932424
13.289705261557586 62.69305059296605 -0.6790319363634516
13.359257645593987 62.66289423424076 -0.6773073467297072
13.42916499424312 62.61571022764166 -0.6738811894040143
14.50136349057541 62.387295834461774 -0.6507324498065343
14.591286163931747 62.300732529021325 -0.63696129247713
16.041625526526936 61.93060381456996 -0.6589597874972637
16.246797443077888 61.91479047655249 -0.6740369297532098
16.388581349467984 61.83096608337946 -0.667606540841744
17.459259416473344 61.625585502907725 -0.6748861309597913
17.504634689487663 61.60956029075752 -0.6652276039743114
17.764646005484117 61.55995043214273 -0.665540433467434
17.88578325452859 61.522322626179836 -0.675100980025104
17.995730606990726 61.46956690277811 -0.6732104117637814
18.563225895130948 61.35777515168811 -0.6809389586089302
18.949565346411603 61.23440931359252 -0.6829643415047528
12.80638952771351 62.923966449074044 -0.6683444248522086
12.909143324053652 62.90723516962425 -0.6694650562561731
12.955020312703908 62.876432600448545 -0.6597172349670773
13.385468648884691 62.80266305295829 -0.6353901563387414
13.50854367127208 62.75914344772132 -0.6291783315661854
13.625324566276614 62.73163853540015 -0.6234455639432634
13.675069207089177 62.71271523561935 -0.6203936487072198
14.088913732794511 62.60920170350705 -0.6469002139591891
14.14993407612848 62.59134559021599 -0.6510501860074961
14.261465197925109 62.56796227977928 -0.655964791560813
15.047209596220457 62.373152680358935 -0.6262124377843982
16.050670988301356 62.10267941697159 -0.6418453388737764
16.09606172966752 62.0931497119671 -0.6508611664315102
16.197506445554314 62.04661743433484 -0.6652676946908013
16.298189299539988 62.048228680127 -0.6409268207228055
16.38300914584977 62.024016473810924 -0.6417421823194056
16.702788320416982 61.94440702066135 -0.6482969512721559
17.39489396057872 61.76639160136414 -0.6691943005293267
17.45086557347655 61.754206812986915 -0.6624579452011634
17.517782209614335 61.683469508735854 -0.6741584644956328
17.647426027380074 61.70106982609354 -0.666643224594384
17.79571995001374 61.665158038762016 -0.6673113041135883
17.829685702266975 61.64201712987675 -0.6708532238005874
17.923505380937016 61.57326082017275 -0.6703458856671315
18.143467436129967 61.569543454914175 -0.6702311283542512
18.29213407574759 61.46456546334372 -0.6819040843313064
18.568745877444606 61.36854648604163 -0.6765582711275934
18.690328826899844 61.42154856960705 -0.6801046845381762
19.594015689597086 61.15897619986403 -0.6965069093484132
19.66781844420818 61.14199760871686 -0.7046952088400675
19.730075363974677 61.128881311611686 -0.7086618569140947
12.435195473399931 63.081767352957186 -0.5933123124666159
12.55421978188986 63.05520153056466 -0.5877031658375512
12.609422045145504 63.03364667512258 -0.5850324559345451
12.855475677663971 62.97991858283504 -0.6654428357859993
12.937344247893114 62.94430430428456 -0.6659328193227884
12.992237999734591 62.93575995837885 -0.67189164955526
13.09948232281945 62.91492057377878 -0.6587422318599615
13.198396645235647 62.88807293229669 -0.6464352440207524
13.292576267603529 62.84480076625385 -0.6338013385261511
13.409070288634702 62.8101890149468 -0.6382081705431216
13.50151625829482 62.78040871999552 -0.6316969538717442
13.701140272941963 62.76707577355112 -0.6527682729577609
13.799313640907798 62.75276441555904 -0.6663520766529198
13.895072780734383 62.72259236705373 -0.6651168532830399
13.974390322243258 62.714396482198175 -0.6356817870006244
14.084003914399133 62.69606071850628 -0.6161547277243851
14.153386075561423 62.618970706635565 -0.6557855410798623
15.040667445594094 62.38242877188839 -0.6322860446704577
16.09197039530699 62.11786832376015 -0.6596128671840418
16.2252457835623 62.08351104812492 -0.6555318190357983
16.30144029632224 62.061510713682026 -0.6490305217716763
16.398447786738608 62.05033371471073 -0.6593446874296938
16.50166593964852 62.023469538573956 -0.660202567311729
16.59304167910768 62.003464031225135 -0.6661451157930953
16.679696620408226 61.965987135736206 -0.6567690559871331
16.7823203783652 61.95063953559491 -0.6560838085608722
16.891671141622215 61.94380213926203 -0.6639338544513437
16.997396922664336 61.94609958355945 -0.6741615345551301
17.07928126471659 61.9155677382637 -0.6757386938129845
17.17436567332389 61.86454897500887 -0.6675762911487092
17.27575281574274 61.85091452043318 -0.6770359512727404
17.360857559524337 61.81090672993964 -0.6756123819288045
17.47103456194571 61.76478345533023 -0.6698757810000473
17.56047843530163 61.74071902669671 -0.670311274247359
17.639553399182436 61.72809241416385 -0.6703339725594142
17.85453964806851 61.67474206361424 -0.6776572221184186
18.495415533773155 61.49097143067932 -0.681557082652849
19.12806673536309 61.344594721383025 -0.6883492186310372
12.665967841081859 60.60232774212059 -0.5828246634580766
13.044118896002082 60.49245923005508 -0.591260435844073
13.266659059179263 60.428412251974855 -0.5917209180995145
13.379511100533147 60.4110021744449 -0.586218817439871
13.47919821528933 60.38188022969419 -0.5906047730791901
13.610280535887663 60.35512140530158 -0.5814560276698385
13.660125189603297 60.33983198039314 -0.5475853450756083
13.81452949155821 60.30280645929005 -0.5380611336444174
13.86725725771926 60.29574025713586 -0.5667111751439051
13.95336141010611 60.26085923420716 -0.6000363267416098
14.12151308766717 60.22333584564605 -0.610677718516311
14.16253451615545 60.21785803140563 -0.5977213993591696
14.229225340925378 60.20990910405334 -0.5948502033763126
17.174373841414027 59.44858328795512 -0.5994595025615074
17.799535329015825 59.28430999209542 -0.5986785037103094
17.8114566826379 59.28190416691439 -0.6040246763451024
18.0729140067975 59.214968049984385 -0.5862556783397198
18.238173507603822 59.17467275838809 -0.6123657412079381
19.238504117426487 58.90317100611079 -0.6157465030810302
19.254422161253274 58.883946689065475 -0.6000958723555603
13.902664175277831 60.311072707683955 -0.5699073472401955
13.971029496750434 60.29985255075523 -0.5762744573862992
14.111047694924057 60.26813777821231 -0.5784345391728457
14.141429553932507 60.24352045906847 -0.5847370215827267
14.274054897774803 60.22098303343747 -0.5793261447292736
15.161420718709367 60.02375769766723 -0.5841259328361168
15.243265084582783 59.99795714490515 -0.5698026419872149
15.365279822972619 59.969900069884496 -0.5845121329771397
15.448453173468465 59.94332513917046 -0.5880690104827987
15.536888109628345 59.923929008898085 -0.6028303763330145
15.638118899107972 59.90671828310432 -0.6061861216566126
15.73743836603014 59.885059135052806 -0.5938645247151432
15.831981025623607 59.85818806773773 -0.600504932229913
15.937416837721308 59.81620133033996 -0.5999408757727651
16.028671383782616 59.801413102425656 -0.6056108877985976
16.13282258637025 59.78579025454932 -0.6234463676487563
16.222587755994635 59.756087772290286 -0.603997664304706
16.328290735871015 59.72864653939428 -0.6133937640668887
16.410855384411175 59.70097025333948 -0.6050878642828834
16.509565037065364 59.67105815900046 -0.6094580539798886
16.607345232360426 59.64054486436118 -0.609435070753656
16.699998600802367 59.62473751073354 -0.6090376039659623
16.80249864213921 59.60124010410705 -0.6171113912461513
16.878257151456772 59.57377213877497 -0.596183303266066
17.00818241174997 59.5469051310014 -0.6085801281628044
17.087599218589233 59.52524341737025 -0.612154761006466
17.18941232933389 59.48967369961023 -0.6230163887721281
17.27440485527204 59.48603110494845 -0.5999699179623141
17.39181786684665 59.44751420820352 -0.6150490034689527
17.472103950149297 59.435695914438966 -0.6178076247314317
17.583363767785993 59.393797699728346 -0.6003552739473248
17.676636355800593 59.351468303106856 -0.6153124404361462
17.77249077262981 59.34616356726216 -0.6213113834485195
17.85491556499488 59.33473816239956 -0.606781931092126
17.97013293749995 59.281529591966766 -0.5864045586805638
18.069629026833205 59.27184277628882 -0.607864314431294
18.155133384115548 59.22561378724329 -0.6079911423853323
18.259571407102868 59.22893599243527 -0.6366589705792821
18.336656287007536 59.232366121860046 -0.6126331770727457
18.47261580073087 59.172357990893865 -0.6284140837127378
18.53431931291484 59.13704189035831 -0.5935801178860985
18.63150599483483 59.115574873590276 -0.6466143286303765
18.758343596565155 59.09664816605733 -0.6547446438652921
18.840005603812617 59.078227018293525 -0.6511992677002357
18.949530009745004 59.0484668725129 -0.65031770359276
19.056879613378314 59.029982592499394 -0.6338123988559238
19.13777962265731 58.964902832583874 -0.6001561671039533
19.817938059058623 58.78229763457245 -0.6192928838857326
19.970575756646426 58.73752672279382 -0.6202731373440611
15.681574982821338 60.00033180301844 -0.6317911837316196
15.778188200215057 59.969411317633146 -0.6298438788007771
15.868594297183924 59.95451886657864 -0.6323106942576933
15.926614141172056 59.9582584491523 -0.6331713392840833
16.06776116630443 59.878590464264974 -0.6312823642417711
16.13199353554088 59.86005958630646 -0.6362102317491071
16.3596753030785 59.85101784814806 -0.6362328981242512
16.442406338677333 59.81405661751562 -0.6373398801424938
17.04369108965304 59.61669559930505 -0.6473873237591881
17.079997491426408 59.603020891730594 -0.6476906688017947
17.247551450728754 59.62149768380838 -0.6593783472562832
17.470089264649722 59.50803238546847 -0.6328413073408983
17.809035318061976 59.40717883376229 -0.6561048698244885
17.92112321938263 59.43909519218727 -0.6583456214163654
17.958304201914682 59.431378382006834 -0.6594511287218693
18.312663183323682 59.30727942439808 -0.6419652277435467
18.38089186328406 59.30246956944222 -0.6464036473837291
18.54395323491337 59.27710662071651 -0.6365407692561769
18.747177186332063 59.1642328706418 -0.6688317532088595
18.890432895164 59.12599167180742 -0.6517732345910456
18.9605561495876 59.12881169728851 -0.6609058938956726
19.051456947284485 59.11207324505127 -0.6587177200731608
19.138191048236834 59.12385288834012 -0.658552751309944
20.350481040402126 58.82144879515256 -0.6160540909608678
15.698987930066039 60.053674750047065 -0.6280214581760919
15.7934398620895 60.07480787340104 -0.6333386610657207
15.899106791037969 60.03896653527956 -0.6341729177136707
15.986385849334752 60.023746279263406 -0.6355384088928691
16.065963964271997 59.9815533999449 -0.6360546605735556
16.18155925495086 60.01336414114942 -0.6417617897346715
16.285033861244422 59.94887460744127 -0.639121195673692
16.36639036245136 59.934190126988106 -0.6378339511016774
16.446247424695535 59.9161192039838 -0.6366672590190414
16.584474303063097 59.879046051652956 -0.6432163710976684
17.012242447727715 59.72679041341484 -0.6500810753334636
17.158872945838645 59.707937493762934 -0.6510602453428155
17.216947295976876 59.66835650204046 -0.6501961395418993
17.930352068341527 59.486087747952325 -0.6574972813543128
18.001937389872477 59.47494597271318 -0.6595672977104288
18.4792716760181 59.326183228989706 -0.6308567912700707
19.113205221003557 59.17381322844125 -0.6566110671074042
19.177010658855473 59.20294874898201 -0.6656544884656604
19.26488572533243 59.1541681438815 -0.6778245952554152
20.19206350394846 58.956760198172056 -0.6118733175595827
20.358096841627045 58.89092221966104 -0.6253652587447092
15.831088367317198 60.11465443446189 -0.6340854242171902
15.910930172742914 60.10014671138834 -0.6354169949595251
16.010066793787683 60.079446682907246 -0.6370288250859759
16.051947887755006 60.07618932665978 -0.6360515460785072
16.19882612122632 60.03045494502086 -0.6393575524100579
16.286712362978758 60.0058476858012 -0.6392970628016615
16.386209769984482 59.983133889487505 -0.6402473418500864
16.455877738247786 59.96300907864346 -0.6429254924955614
16.574712531170583 59.929298026220074 -0.6422573415655338
17.026208663616586 59.88224793254317 -0.6521172330458694
17.050202774263106 59.858123334509806 -0.6479698301025176
19.132985070100684 59.29946315598488 -0.6549600368203818
19.201077487850327 59.28875706353383 -0.6554697462624722
19.2914322670267 59.289614786061485 -0.6567164489623638
19.383762078010633 59.24503253569827 -0.6629461263110541
19.846666114391997 59.13480084163196 -0.7017811747955631
17.03782947823529 59.991471486136774 -0.6503724584120582
17.074012089489635 59.96931895532665 -0.6523986709620321
19.431359916802567 59.30326654003516 -0.6473431561272288
19.523037167002023 59.320041831822444 -0.6458238758828853
19.715680798565685 59.30283746923332 -0.6524839719916072
20.278960424234725 59.088215629061864 -0.6133037097465684
17.046924668290718 60.04871127086774 -0.6521517924727361
17.095527914121295 60.00224318165104 -0.6551737287370873
19.55358043535638 59.35778120591798 -0.6431032817940556
19.624323372380584 59.38085368284048 -0.6495063374292344
19.70898021284515 59.34220010713511 -0.6540436367376994
20.683822645202554 59.07489507855297 -0.6487690419563041
17.081915743533408 60.16918951640888 -0.6539941612688672
17.120276587328906 60.14804649699113 -0.6557864117526769
19.46604231439381 59.58132773509846 -0.6563192457500322
19.56351049286496 59.53239194419833 -0.658993158800661
19.665099632099615 59.46773731043241 -0.6645374280379825
17.087953997442586 60.246477667299786 -0.654758833560518
19.3281302712452 59.64934559464551 -0.6608188403359236
19.398020935264597 59.61847049158732 -0.661928692863581
19.45585856156539 59.598479780998176 -0.6486782521286402
17.094262195779105 60.352435661737715 -0.6557141893952569
17.15155942052231 60.31101185198428 -0.6572817970786955
17.28974816950081 60.287056504578906 -0.6581295065747421
17.480602871799142 60.30159550737071 -0.6613513863145183
21.2191327334966 59.33882831488867 -0.7212446388469747
17.068208912621024 60.49096467047737 -0.6538844234217964
17.135006687624116 60.440912388721074 -0.6545981551325771
17.223265433113806 60.434399776074365 -0.6567715621440512
17.31891855724411 60.420877138643895 -0.6580695721355231
17.42857220963569 60.334631269436905 -0.6579452397451397
17.48565339184239 60.313934726286234 -0.6582951990260377
20.87799572826035 59.492153217479455 -0.674297816078548
20.95478387611973 59.45326252938129 -0.684282771804998
21.131236112538435 59.38290464595788 -0.7097569738334727
17.08789536285521 60.58453948276639 -0.6541608369634891
17.144003087587997 60.56115330618248 -0.6552186339462149
17.235147336038693 60.53312903238251 -0.6553178211787757
17.337592829511188 60.50104435627724 -0.6581204108755087
17.409189137974217 60.48808559081582 -0.6591250278275738
17.517948500207694 60.43177517568761 -0.6589927665474931
17.63315019906709 60.41346173208781 -0.6612987420684893
17.74500613592221 60.39549160992047 -0.6642083780243534
17.793360294555008 60.37989786266734 -0.6620073764631181
17.0928670374181 60.654128613548785 -0.653539027593278
17.181005841923433 60.632358763422786 -0.6544514905976412
17.26127397662733 60.620868548633155 -0.6558774161250205
17.369489881312703 60.60150545467453 -0.6550872828049857
17.460026222290423 60.56143655516392 -0.6556022999565189
17.574410885650618 60.54842952664493 -0.6537260727299168
17.61362618495879 60.5303062769123 -0.6538823464315866
17.86924044790393 60.482529967336774 -0.6588641390379053
17.925809087592217 60.45282314267639 -0.6586579484587346
17.047182295323783 60.78446685735367 -0.6527391457232554
17.10792357823613 60.774397025107106 -0.6539560003164768
17.20056849086425 60.727627361762984 -0.6551347655296628
17.310538473105698 60.71269033069427 -0.6558032981628731
17.39471615045943 60.68891548282122 -0.6559304043847022
17.462151284673435 60.68274114667177 -0.6575384727987919
17.596994021420556 60.58667765827358 -0.6575413386338989
17.821493474684782 60.56837509350078 -0.643883911919373
17.85310281898791 60.57702772660402 -0.657756128383511
17.162519020948306 60.833112702493615 -0.6544015565924407
17.23449896474853 60.82238313084505 -0.6554120995689493
17.335102254015506 60.78851769401081 -0.6558603503123609
17.415680468518282 60.78002613055186 -0.6554940786140644
17.47077215809099 60.73916915305213 -0.6539548066743857
17.6421362409599 60.7609923474508 -0.6589168546869519
17.6678598378007 60.74972461890305 -0.6606157020155313
21.088273311628893 59.80319240543203 -0.7034274042899475
17.13732190119287 60.93918010991461 -0.6529969920519639
17.249918835080337 60.94314569828509 -0.6533239663703206
17.330799663207088 60.914822191848835 -0.6531812216363049
17.420529105346546 60.86538017810123 -0.6553822976436977
17.619895678748957 60.835651821476034 -0.6513571383751425
17.2727674884489 61.02504707220236 -0.6541010019505513
17.353042523272414 60.99057752371009 -0.6542105046005288
17.42142901016288 60.95896285193405 -0.6551532045830754
21.19386347301329 59.990843655541525 -0.7120858982444911
17.233319657802074 61.151317895829486 -0.6525705089851381
17.309287891817796 61.11134308370353 -0.653341478933208
17.387699367162234 61.08814296436204 -0.6530795058877705
17.471159333826826 61.1042468942071 -0.6560358642217939
19.755360749629563 60.516586372822246 -0.6191395301414557
19.828213115089216 60.52565535301918 -0.6310486039389435
19.927255741166867 60.426389635525666 -0.613658538512549
19.9576275888132 60.41128795673755 -0.6217672165217851
20.07709610218226 60.40748528553087 -0.6285424195066028
20.2744668663043 60.38417088446472 -0.6507400365424352
17.262549890015386 61.27375302874444 -0.6552981270114246
17.30958985978102 61.207862918209024 -0.6544662090510835
17.38815236512652 61.23506455217641 -0.6475409054751236
17.507307000801333 61.18631073188132 -0.6541525158022216
19.835243549246957 60.58965240128028 -0.6291624078924184
19.967440807356216 60.56666976803744 -0.6351454756230777
20.53090172371417 60.36269966088871 -0.6802193995180046
17.272102034304286 61.29899674972788 -0.6530724889071521
17.43832036668879 61.30708912782852 -0.6552885428125736
17.52379165842043 61.2299552498996 -0.6513500629696168
19.681088671949585 60.717950021873136 -0.6159706855872765
19.777874924003374 60.68596402370458 -0.6179556797699814
19.873911068446137 60.64152078354654 -0.6312968080335769
20.063996337087 60.6454868856344 -0.6522865464985121
20.87203472757035 60.443412443284394 -0.6304208434567448
17.50683980592572 61.3531400787955 -0.6560325207580037
17.575757132942684 61.4024605070287 -0.6580241853991999
18.030314612052454 61.277906204146134 -0.6666311818759253
18.283368184801198 61.21193695610592 -0.6616289088133978
18.351592237112246 61.19129479061736 -0.6546976809183855
18.410718434871132 61.17660667265482 -0.6523708108037407
19.59919064611745 60.88726679983473 -0.6234964258972514
21.028499016663368 60.431898306557926 -0.6181751329237044
17.407525319726606 61.505768156372085 -0.653044047199845
18.190291277786937 61.287602724946474 -0.662333116886328
18.272637151326318 61.27075077755789 -0.6659260827579561
18.310832703622197 61.237477821063706 -0.671006366010029
18.566603821844822 61.18597048702488 -0.6701497435024253
18.618552881377926 61.171397743240085 -0.6753942556226828
19.518124593133507 61.014991575223526 -0.6478002950794363
19.675404465171063 60.89133594200914 -0.6261868796633099
16.03097453042363 61.9446344691752 -0.5873187225934136
17.49868046133838 61.590594921113635 -0.6564184962093015
17.85430181991854 61.52487354234163 -0.6633167435008481
17.927790209497118 61.50800702791812 -0.6537256277250165
17.981034895920185 61.471107533714495 -0.6617094177961914
18.133365066967436 61.44739698288695 -0.6557883536921912
18.210668880014534 61.42339186047646 -0.6551351827994202
18.291485371347864 61.40623245950568 -0.6598527459003042
18.359421501899572 61.33452320761916 -0.6569988294033561
18.49699245367169 61.345900947208854 -0.6705372176288772
18.600305371467236 61.351920963422366 -0.6705304846916463
18.694754571120743 61.257051375535376 -0.6546179779479578
18.77176706538779 61.25157588690997 -0.6552505691122069
18.844412998135223 61.25435246446632 -0.6668349974628859
18.934478031848595 61.210412175561444 -0.6547609427182421
19.14884545256144 61.166856589422245 -0.6372895856719804
19.255088350456695 61.14701651642183 -0.6554781230554464
19.364043058160085 61.154540908053306 -0.6622555939024474
19.461825880614498 61.089321911986175 -0.660259480183102
19.561734596807653 61.05583521454273 -0.6558790192492256
19.66687091744523 61.06602187072001 -0.6683607620011836
12.466632842753175 63.03936807391945 -0.5689456742493633
14.29715342914033 62.56534019182843 -0.5296562827862802
15.047550775153649 62.365393335652456 -0.5365699111575893
16.04165766791667 62.08749056090637 -0.5956680551762729
16.070433880994962 62.09659475958595 -0.5873914248858143
16.295843088975285 62.03868183387089 -0.6351003464190951
16.63500743651463 61.95813847634297 -0.641340400311037
16.68182429912062 61.9335811615182 -0.6404434371834485
17.593465800517393 61.700495586131744 -0.65484044591722
17.66398385645954 61.675899420493984 -0.6407938762092736
17.71945080530061 61.671601713707354 -0.6126027564297186
17.874497765980397 61.622288395276684 -0.6575196642748171
17.945925062358622 61.60883264880237 -0.6261795000086653
18.040408271179583 61.57853556250873 -0.6586241651344579
18.14547706329986 61.55649881659536 -0.6589642162201323
18.234521945645326 61.529174041053075 -0.6268303029034392
18.313282683054968 61.49622308231495 -0.6288520743232568
18.418949246863505 61.49505209699247 -0.6209664876214306
18.52981099189568 61.46461223639447 -0.6289384407206328
18.622816152353856 61.424623742669276 -0.6408073039408537
18.704956043280305 61.39377861630376 -0.633952984870992
18.802284282287044 61.370829311112665 -0.6419316628961105
18.910770180664827 61.368215134027196 -0.5916045276576735
19.07978735448727 61.31668223023103 -0.6123265097048339
19.164761913418737 61.271883317758544 -0.6615348955533836
19.46429276576309 61.18568788482777 -0.6353062129413418
19.566387858133748 61.14576411208036 -0.643197783272631
19.710144935759377 61.123324483432306 -0.6901994584210985
20.355681781249096 61.003071415888236 -0.6140173702370927
12.658586032490751 63.074502903695176 -0.5086151129159194
12.797397213695145 62.986259244654676 -0.5390075432004219
13.820828695111777 62.7831066728666 -0.5465712097656593
13.887856847244116 62.73792130471289 -0.5248301670813651
13.98253580480311 62.69741175379852 -0.5702181549343226
14.100412558617343 62.667271298166106 -0.5822494631169017
14.183686142640504 62.65714574762368 -0.5781246917026915
14.251763349826584 62.602031386454904 -0.540967878908595
15.033997271985509 62.38806421758274 -0.5916079601076261
16.056292556499766 62.12572969822622 -0.586716534244485
16.102380724834223 62.116241133333126 -0.5729181230667809
16.512016564142183 62.03288886667583 -0.6008613752659434
16.56637824541116 62.013461508869426 -0.6257395344002638
16.790058090896274 61.93686727023865 -0.6430965769485414
17.482867085395558 61.77896625743573 -0.5924953693748582
17.57741154473076 61.75272226593438 -0.603498824096123
17.65303104475811 61.72481183913547 -0.5988601377412698
17.761679486540192 61.69310946540342 -0.5967051220440992
17.849637339964218 61.68050225182091 -0.6015203850431073
17.934393664176156 61.647958399382084 -0.5996250224336396
18.05530564598785 61.627531292650886 -0.6058537280197323
18.132239027989332 61.611514027477554 -0.6097691122301531
18.234447662639674 61.588200701882435 -0.608330393990255
18.34269538758275 61.543081816972354 -0.6083706338839906
18.436777075246688 61.50999477112486 -0.5990610414127562
18.529412660997238 61.49340802037545 -0.612378231342181
18.64419455049427 61.46393134608698 -0.5997854183909528
18.695029088864995 61.46134425750742 -0.6079068290514225
18.8551556386102 61.39921757618333 -0.6030663580768308
19.01806039493555 61.3652251200744 -0.6260323370419358
19.111049349149358 61.35496697739404 -0.6087550509835222
19.20637402738653 61.317611714705606 -0.6037804042967567
19.273075240602843 61.31100595779007 -0.6107645967507733
19.412658080602373 61.29531433512653 -0.6197254651573758
19.497629004578023 61.26742046841219 -0.6115967603515603
19.577131371303178 61.27137694125035 -0.6101171924188984
19.814909097372325 61.176642095409015 -0.6152220489177499
19.870186345039773 61.16404548246034 -0.6076043423579097
19.977062696513922 61.15084445278226 -0.6141086966628487
20.074312737963908 61.13196390869554 -0.6174654956535767
20.173067033950787 61.11369598568465 -0.617214116166671
20.28086934524135 61.0741704671393 -0.6148896177573603
20.395992169769702 61.05615882491839 -0.6193586407260664
20.48247146123476 61.054634879672754 -0.6185849591073638
13.698000348780749 60.34115246069262 -0.4568876454136354
13.825003940309653 60.30206861564108 -0.4489275051265079
13.84833243923639 60.30534208149507 -0.4860399608491026
13.722035985182796 60.35080224922431 -0.4505311278494856
15.25670344683283 59.97193645338032 -0.479567083198945
15.36491632392905 59.95462258283303 -0.4848859651833512
17.29559295477985 59.49921518595821 -0.5554749976633073
17.348855829732635 59.48570124774473 -0.5567206520640344
17.47044211393142 59.44275493961074 -0.5593818714698189
17.562044150006894 59.40966139847359 -0.563084982154616
17.68036662429109 59.360424552002556 -0.56692811727024
17.860718230499177 59.335082314213004 -0.5675799450714287
17.998820149576005 59.280105493122086 -0.5750010586271899
18.150155981572073 59.23577115165114 -0.5767141713815058
18.272281661172325 59.21860207903653 -0.5739420134955924
18.346069924626402 59.22320458307466 -0.567280587597228
18.458675815811034 59.17838317769217 -0.5735986623386705
18.543228546520343 59.14681383603272 -0.5809871240553753
18.6479778610525 59.12343740397089 -0.5785005166912635
18.763528910151535 59.08212583963744 -0.5821368595830851
18.86367835676603 59.057247343719354 -0.5780329048545305
18.930091526631067 59.050975544699305 -0.5845221349113552
19.0055843800111 59.017089438478465 -0.5787802002175672
19.149675830866602 59.01682165348158 -0.5704465341781454
19.224243025190948 58.99252793254165 -0.5765286080599691
19.323681125771824 58.9813825930838 -0.5688931268860098
19.413284104390225 58.97027660077457 -0.5701302151670951
19.523781151193653 58.92198601857374 -0.5669093016602575
19.665070413783788 58.863718858720325 -0.5806784226904874
19.77295222902887 58.82374164342675 -0.5881738374351468
19.920847667924594 58.78133667691818 -0.587977527937718
19.980377508585867 58.77648664014714 -0.5869961811407347
20.061707782916493 58.77445326027014 -0.5876630957010305
20.17255239081802 58.75718961503928 -0.6030181722034146
19.19361116041792 59.051658830465094 -0.5400396330113473
19.3326456041371 59.006707009430066 -0.5592509628194782
20.069447600725685 58.88198716380051 -0.5762167001499009
20.157066591000653 58.851030442716485 -0.5927309947219903
20.228004909687456 58.832246996635966 -0.5899780594222301
20.300800384591305 58.82952477890709 -0.6058818848505108
20.163330167789987 58.973449252531594 -0.5910625406959559
20.248947159149736 58.89351933793857 -0.6013562822873034
20.296710576203953 58.88645464685693 -0.6112125805284929
20.121466632238118 59.08066677582552 -0.5779008405933278
20.183735007807588 59.039913864283825 -0.5869734881121857
20.257212778094065 59.06491151482767 -0.6059084705367129
20.208235231875864 59.16324006258788 -0.5906580675694317
20.262747401119068 59.118578617786696 -0.6026249518619105
20.402686923286083 59.1362824946451 -0.5972077994205736
20.490547927995877 59.114693752338376 -0.613029794108057
20.695943283213552 59.04850907069503 -0.579312248515798
20.758210097979646 59.02510344668569 -0.5453073219573689
20.233876716897477 59.20050873962847 -0.5927358397120972
20.282686543740326 59.17281261042011 -0.5764534336339184
20.379465472201666 59.17078068958563 -0.6005144153775862
20.593974715480304 59.092809331640616 -0.5565829609316221
20.388040151588008 60.560721388017996 -0.5795540710997028
20.443073206561746 60.5250491464864 -0.5908436811101345
20.537240079930847 60.51586900468223 -0.5863026753393266
20.60823637522896 60.48831545268371 -0.5855576457973595
20.735634885362934 60.46659583372694 -0.6072310463594095
20.871185449378917 60.45445972771324 -0.5680396448593791
20.897516779814286 60.452329882755 -0.5628744374737539
20.362845717360543 60.62127621259648 -0.5714071962083662
20.95124295971759 60.448024552370036 -0.5527680988465896
21.051472450233373 60.42587323102859 -0.5688606339479909
20.4879231811028 60.71429163431207 -0.5873797375996963
16.032948564374998 61.9482971520184 -0.4807301035208971
20.314682210908092 60.91160223729585 -0.5529091296324719
20.4690570666886 60.84092893036017 -0.575439055971072
20.524325502203332 60.81098506112459 -0.5846003783946397
20.57936759481209 60.7975972708845 -0.6013414458803199
14.283052889184848 62.56881873457614 -0.47275998819505255
15.068663061961828 62.325758040801766 -0.46329022342145987
15.081104841996881 62.318588499294556 -0.4963291246071148
16.123738417750467 62.09498603604816 -0.492419445320182
18.636983062965594 61.39840157300395 -0.5730186466494148
18.719802295992785 61.3858250983954 -0.5715633949867717
18.78739487296777 61.34919818783049 -0.5670019481071817
19.123142474963885 61.30733352482652 -0.5823268909450099
19.5004757476488 61.198244794919546 -0.5799374643368144
19.572032701920538 61.18754374381844 -0.5851153557776884
20.315129590302078 60.9801221035662 -0.587125604548914
20.4478477854326 60.965336856398665 -0.5965892237036983
20.5172527625656 60.90505546637503 -0.5827274665551525
13.923675530957022 62.7089936769542 -0.46633863901135864
13.955369901296436 62.68382647243894 -0.41947048280032395
14.290264470725129 62.577118101390404 -0.491681290866537
16.11944672864964 62.120480822609586 -0.47898935342905474
16.74718904752136 61.98789733573352 -0.4661505455414689
16.755372241657327 61.9847367211466 -0.4614848297637258
17.456001374156283 61.77815337490077 -0.5119646357960436
19.699681861521206 61.18870948488044 -0.5909467356623321
20.105581677934207 61.137029385402954 -0.5969573371240142
20.18141489141912 61.074625803088416 -0.5999989762161702
20.33712905914261 61.01581450835595 -0.6001555623487601
20.421527277738644 61.00556083470329 -0.6006991475502197
20.559307222885643 60.988507675279365 -0.5940035617872745
12.59605621678634 63.13792050270004 -0.42912431737666634
12.628103539418396 63.12345738635131 -0.39909315610921314
14.29120980235562 60.02431178816021 -0.33689622326447505
13.701650101125898 60.33748124654125 -0.3307097968985938
13.800088329018607 60.293976145055325 -0.35467493249991
13.725046956419309 60.35170570124005 -0.36444414804511305
13.758236318485132 60.35501789937336 -0.3734093573508734
15.256172689407128 59.971814283361475 -0.3826805964589034
15.36970043404625 59.958019748368535 -0.3801896639611479
20.700148550150036 59.054986870780844 -0.4711818093059088
20.77697069941793 59.02032576469999 -0.5051921461357753
20.62703967038941 59.08798355298958 -0.43867203470268246
15.995445930218311 61.40827230113159 -0.3713303904944341
20.973704165178816 60.442133807787606 -0.5045523369053946
21.07782472261703 60.435095363835025 -0.49900659061720887
21.144086604559106 60.42490011502433 -0.47222458578748444
14.434305582823852 62.42168887178609 -0.36009894606147275
16.03410393850217 61.95822495291003 -0.3890031025660013
14.356636187021978 62.53330739563366 -0.366216373830619
14.58092263391946 62.482219037951 -0.31162765600781694
15.056706658021996 62.341509228031306 -0.3958472991169993
16.126534585902757 62.09724847687738 -0.36293692614959133
17.436390194205675 61.75795711674491 -0.3649262828334989
13.04385504763082 62.98150864058541 -0.3474986533196724
13.91268176677937 62.71549074583341 -0.34956570064429415
14.358626217664494 62.60405153263543 -0.3529070253939696
14.478968776957549 62.546694565577255 -0.33089512478754834
14.585154207589177 62.51600514557374 -0.3122489316879643
16.122854944765006 62.11325858839021 -0.382509267423945
16.775670136659134 61.9720599452946 -0.39913210321863396
17.452014887985406 61.77233047545129 -0.41164280204824716
12.635416740934247 63.1111622123981 -0.32855438938380555
12.87449430933749 63.08627525168766 -0.2846121877657281
12.924611965415677 63.05512788355905 -0.3090795295603295
13.693567454516769 60.331764054583516 -0.2562958350756285
13.810716308882256 60.30120826705525 -0.24862763070577298
13.847882513919346 60.30823156396865 -0.2540583680535058
13.861492760495517 60.31350743302281 -0.2395392500758529
15.282174184711632 59.9846087521345 -0.27633259907291874
15.377651430353072 59.96606216297139 -0.2792364974231139
20.605783178291983 59.08301915927787 -0.3964256415369811
20.721596089958542 59.03416385439575 -0.3966140491903648
20.53553253703763 59.117024134388274 -0.34037778330754076
16.011700980649234 61.39130741829844 -0.29738871109698306
20.891245089712207 60.450369710326655 -0.3608386057343906
20.941062264920014 60.44678873065306 -0.3539759402692327
21.004451115101006 60.4398853811159 -0.3204816209646281
21.11611378740238 60.425053610084326 -0.4168158284982768
14.650706696387703 62.26209292242463 -0.3069763601021358
14.662268961607765 62.268419164073826 -0.30523085856608867
14.647697966919434 62.345476452264556 -0.30313048340115945
16.04105287042772 61.93738901999033 -0.2838577062343326
14.658811148415086 62.43065263982877 -0.30467699803633846
14.818765112388519 62.42769478686819 -0.2819760730554693
15.017660831218084 62.361677318842894 -0.28259228771925426
16.13343251423397 62.09200709813175 -0.25064116988537083
17.433258515135343 61.757924072488606 -0.34677995974458276
12.726546798083241 63.03871991425452 -0.2198153011207598
13.044402400526618 62.97333963597207 -0.22963663751157334
13.893834990720112 62.72913725973069 -0.25358048949959294
14.661672924212223 62.51061332272896 -0.29946394340762345
14.760493560063944 62.476668300033374 -0.2846363049086435
14.858826223411418 62.44973430442027 -0.2871069100430168
14.925608577648 62.439660529552036 -0.2866331019183707
16.128687321840363 62.1157340472982 -0.3059752786805384
16.353881883392795 62.09710328153096 -0.29648869463631033
16.37133509118039 62.09338174977766 -0.2763762417744301
16.656676914373286 62.03653759197569 -0.3100269062983935
16.70774705493768 62.012818680343564 -0.3142113791219128
16.761613424733202 61.98241094404447 -0.30752858913943243
17.210360495932044 61.89149704132943 -0.2869470249556152
17.451600703626468 61.777371846037894 -0.3086095188612741
12.624639324644782 63.117556475889224 -0.2259721147551222
12.983808031302074 63.02647050386957 -0.2083414623268173
13.692971867730165 60.332988714340615 -0.16273788703038058
