ply
format ascii 1.0
element vertex 838
property float x
property float y
property float z
end_header
4.516612354193513 28.892026105510954 -0.6012052056054811
4.5714232292701755 28.964566383467744 -0.630898966810664
4.557847461998271 29.044798614121305 -0.6057341625956242
4.644439362448542 29.49636106959302 -0.5992554196820195
3.9110899650165347 26.903591825841936 -0.5787194896651131
3.9243517998349624 26.92280475569184 -0.578212374045559
3.9659107373067464 27.076859425775616 -0.5771460701066923
4.0040188513054416 27.178738214398585 -0.5875896431520448
4.023029259008027 27.250486641528486 -0.5843897658630526
4.039293278125923 27.32563606773109 -0.5763559873931206
4.109299888497877 27.65483684098893 -0.5845410751813146
4.250511292238107 28.03888577677983 -0.5829819104723301
4.315203651851608 28.312797735919958 -0.5831005637752003
3.0834248362682195 23.991022779482243 -0.5730387627564332
3.107105960486993 24.10227228529202 -0.5730820315567297
3.7529808459379588 26.741082937443636 -0.5751736773472875
3.7707576776333522 26.775434800524458 -0.5808931782705766
3.7786804322059875 26.89540521978643 -0.5733330175378313
3.805350720428142 26.98734748334959 -0.5816862418004333
3.830255090196469 27.040934430093824 -0.5736022447992495
3.046838245167727 24.269789331890863 -0.5844499607493227
3.5046741231793557 26.15351133554674 -0.5706986020641946
3.528546400015509 26.241576013765 -0.5703872050406923
3.5597196233917194 26.373191964120224 -0.57199531447067
3.5832622280208066 26.452361017473486 -0.5741695995228713
3.6013278845546757 26.518036820712776 -0.5749364623265096
3.661625610350669 26.633148365155385 -0.5775497308770942
3.6964091028381043 26.726219124532445 -0.5820198178905691
3.7250540911848002 26.780676830667797 -0.5842177286386978
3.779102076917079 26.933282965282867 -0.5730470894433167
3.7930252944197362 26.98111552765266 -0.5740642256771297
3.962303760380901 27.961766860363902 -0.5857651591905123
4.061388853882873 28.26009535522563 -0.6189057411478341
4.084888863302652 28.39442951897335 -0.6303342113893894
4.105182903077457 28.4490997002083 -0.6009925234880361
4.145313019365121 28.548392300777394 -0.5872662617295255
4.202669079465887 28.686524291289892 -0.5866579754359635
2.985697227645876 24.2388821738039 -0.5812366701528872
3.019972514707192 24.260640954247435 -0.5837646527659538
3.432423433875618 26.15417174966905 -0.5729285148671629
3.450730990707695 26.246610540929343 -0.5740082612324042
3.504001513580162 26.387788152960407 -0.5711654504240592
3.5360201658355157 26.430848147934466 -0.5745253370036141
3.5428552980212817 26.538873931003952 -0.5754447668900684
3.545970327193248 26.61373363712097 -0.5805968353511626
3.9342766084306193 28.00204182436852 -0.5883010799764998
2.9219571446789665 24.258916956468582 -0.5782552955408733
2.918226990993656 24.29023456914269 -0.5761381050494638
3.3398695666694134 26.181002723347063 -0.573462362514423
3.3693529038318135 26.27486442993482 -0.5740174643157885
3.415964743938732 26.37715009877651 -0.5719732755001518
3.390343315733383 26.44637026531247 -0.5735097561584072
3.4292586393547406 26.552995686992528 -0.5745345216088141
3.4603957031878445 26.629056448392255 -0.5801234618459645
3.9700313598482584 28.939275431325353 -0.5888650416884491
4.029635901861627 29.10450475585665 -0.6087244728573573
4.069769312350399 29.229290989638887 -0.6197395530825881
4.081424282895601 29.266754716580277 -0.6126909990884573
4.114706723036878 29.37048076244764 -0.6180359857330415
4.155749819188999 29.521123243808468 -0.6321394089694506
4.19123376025818 29.584614676959035 -0.6424067179294218
4.2006001262509445 29.673444083939042 -0.6409496749312716
4.210688487128536 29.771496895353707 -0.634936410139103
4.225061372243397 29.87422787655406 -0.6305296442906114
4.245333614877302 30.01094255063196 -0.6281257261800512
4.2757527444848735 30.111776044683417 -0.6273583828047006
4.292212621807598 30.167167215634414 -0.6187385700980728
4.309054113233686 30.223842477583617 -0.6099280580269579
2.7874703747453444 24.18625338149584 -0.5709877619998757
2.7834718589128133 24.277751866223365 -0.5714874246692511
2.774844979616252 24.337635991706257 -0.5760886586256273
3.2070617244793236 26.153996196751176 -0.5726427180067911
3.242553280691434 26.19709709289177 -0.5743645295757709
3.2711123384110286 26.296607765158043 -0.5761852876542195
3.2725011494493788 26.36449281115612 -0.5752438323660716
3.299929657184207 26.48396717971574 -0.5754843772997639
3.348215781330532 26.600490791032303 -0.5756103410279684
3.325174693976482 26.69386925869595 -0.5769009718589331
3.3651983340048712 26.794032358030407 -0.5759347536464356
3.4212042365609157 26.867597851524682 -0.5802105901024689
3.6907618123819934 28.17622292603845 -0.606686734914984
3.707113116954683 28.24944192494159 -0.6103865790012086
3.7290803193409308 28.335277739346573 -0.6187158453758553
3.765710915040295 28.457101108279844 -0.6286313287886995
3.7874729098920885 28.518156804424265 -0.628650631041979
3.8289723963454456 28.643993731789198 -0.6279018253780314
3.8500061531620955 28.710531787369437 -0.61427525368237
3.865276633877139 28.79346778772522 -0.6015151367134856
3.9548877447824964 29.0319187764335 -0.5920380617952029
3.9867109104237253 29.114297567332727 -0.60130857660093
3.0674344564051084 26.091685138043804 -0.5738231238517638
3.1090594930264714 26.14909714935414 -0.5732513408574633
3.136885857597979 26.20997351938412 -0.5750114173223254
3.163346237732329 26.30971145935567 -0.5753250835061244
3.2016852299662033 26.407737954295946 -0.575420410660256
3.2396566492915357 26.518423649542907 -0.5775217558136644
3.2485796874191424 26.614728785576332 -0.5771482809417748
3.2711324952940397 26.68586864194708 -0.5797896151681211
3.303603955458093 26.81013528596855 -0.5824274295476809
3.5400403856847427 27.79285333796052 -0.5997919776575001
3.6144763174552232 28.01194974785667 -0.6002082020154259
3.6341463933977467 28.04881545990146 -0.6010858306843174
3.6675729083893627 28.161067586136426 -0.6134387691045804
3.0084906788404573 26.098454072797463 -0.5719182376319912
3.0328788304392034 26.150122819543235 -0.5723201867494575
3.042677658119826 26.233292594360684 -0.572483887532568
3.067863209167684 26.37241830851201 -0.5732462323554179
3.098495644492782 26.436820741665308 -0.5724050898527284
3.140740016024849 26.54362863969046 -0.5724918760212877
3.1464765039469778 26.637585421553617 -0.5742049823781668
3.1527185270942337 26.71167621569618 -0.5792728270720517
3.219549840527128 26.848449515388157 -0.5737904522761773
3.2173916150179074 26.88556761176021 -0.5738179496632505
3.3052377051039854 27.32441887490427 -0.5803576624231008
2.9243448997289763 26.12124165876232 -0.5742762451341419
2.928473785694186 26.17502986087988 -0.5746930845292225
2.956245867708409 26.27264999364942 -0.574377415421186
2.9706032506263096 26.368877367534452 -0.5760596913607223
3.018997163693363 26.47978710720513 -0.5760403898322463
2.993164973302532 26.537183865844497 -0.5777392664304603
3.0403269536989104 26.653514211012638 -0.5770522869499706
3.0658309159046295 26.720251359431078 -0.5806999422538857
2.856695387338136 26.14220994310348 -0.5729944912544859
2.8402618254849807 26.19795302524837 -0.5751438081747738
2.859318529505889 26.286903176919896 -0.576201494390906
2.8825888312197367 26.386880083736067 -0.5758863758035629
2.908194682439319 26.50357028629955 -0.5749708718452397
2.947175632323546 26.570503135334665 -0.5774825552861178
2.9601994229385906 26.695899274060913 -0.5751749504050575
2.986553518797058 26.731418944498827 -0.5768521065183803
2.7423774098104 26.22860166482976 -0.57468099481105
2.762626446162171 26.313385793090877 -0.5757599170352585
2.811747708371719 26.425410605860225 -0.5795816197909408
2.807217074558096 26.50871708629794 -0.5812582757856781
2.794594441222968 26.62449775227514 -0.5797053625086476
2.8559674090355425 26.714025138178435 -0.5795224013797219
2.900421429085953 26.756297339891887 -0.5807319815539905
2.9427078762764682 27.190605742304705 -0.5814157845111773
2.6397992408261355 26.26245026181789 -0.5772953818170872
2.6583511502690973 26.344587228666327 -0.5774754181572079
2.675404975952393 26.453639550867777 -0.5801210286984089
2.723245114680608 26.5540206189221 -0.5753831583866961
2.737042046583283 26.65378038329764 -0.5783010162748805
2.763622059701683 26.72361869616554 -0.5800789034633327
2.7586475156624193 26.803668534250058 -0.5816996412095441
2.7813731645227957 26.98132716750774 -0.5750247962195038
2.795719139024207 27.01605707795559 -0.5804208871703458
2.896882725444634 27.247002691099347 -0.5911756928901063
2.8835328842378036 27.30929516871527 -0.5852334154504949
2.897983627928639 27.390476065187897 -0.5890249884639712
2.100916015969449 24.509764152542104 -0.5912099870150147
2.5372249083560594 26.2993768604288 -0.5756650466803946
2.569346000555394 26.353439443955025 -0.5776188486322253
2.5601312592374477 26.469208814739137 -0.5792359219439855
2.6011954816141953 26.558698222899967 -0.5792699859129619
2.6574516220730784 26.65132430979935 -0.5787783211488559
2.679733217675867 26.73142226894847 -0.5868423752166039
2.6992717760531804 26.81295343670771 -0.5814029873143215
2.772200608484032 27.04146662737925 -0.585503722656845
2.7684335190614977 27.140897359485248 -0.5860958292042254
2.755634512771473 27.20100252199383 -0.5942548032554252
2.8928898332666413 27.846830054465855 -0.581100528612758
2.9024366091206892 27.945986677164022 -0.5863613794060794
3.238163836167857 29.201020510537376 -0.5920449072244248
3.2652504038614114 29.289738413277803 -0.6055163601203563
3.2773480745043644 29.359679145007895 -0.6126949627794597
2.452120185569628 26.32013550550039 -0.5775701764167421
2.4611728075267107 26.378461428212468 -0.5758315288302858
2.496428927700602 26.481380333699644 -0.5753172399454326
2.517947168489647 26.5829691136741 -0.5789972706681681
2.539840351759892 26.692479075098525 -0.5816693214455753
2.5479261421099473 26.76998278467794 -0.5784820529436603
2.548856015804871 26.87004556034937 -0.574763672148002
2.56873876689881 26.9863897190097 -0.574688396836815
2.6654703876887424 27.384935759477827 -0.5850634974541832
2.7327022215872 27.550270994218696 -0.581591608507988
2.8142512560543116 27.792131497161122 -0.5960941207267778
2.8192182581166825 27.83980330679746 -0.5976462180893696
2.885709481637036 27.94916785064504 -0.5946587727793644
2.9142663281661396 28.15182528284509 -0.5917462625208727
2.9334297751450897 28.350946919428896 -0.5912523014367336
2.9329930981814325 28.4149291269009 -0.5895565262233267
2.9317715673973668 28.501755719639366 -0.5926985644252586
3.1608890320123466 29.233822696669343 -0.5937118458196406
3.1964737437253055 29.3324343765187 -0.6081571964034362
2.223755714304885 25.957048080555314 -0.5789189766557741
2.396336594665489 26.342222840340888 -0.580559522152617
2.4031111359360144 26.365028154077354 -0.5782033537704443
2.5604468267755007 27.015256597787506 -0.580524516727152
2.571673100550542 27.071984406535503 -0.5846494047028673
2.5952628573158907 27.16704371252206 -0.5819015654429494
2.6179709084516425 27.232180246835764 -0.5787048153037739
2.6588471781584895 27.402780329858267 -0.5831427264037478
2.661273666312991 27.47523372341673 -0.5773099157032863
2.6837472300478282 27.88754928408591 -0.5850668928703899
2.843065129914821 28.483957348896453 -0.5861493845066413
2.8868815889001804 28.558981637168174 -0.5866143568126114
2.9303775463293795 28.698689638940998 -0.5879126834370996
2.9419791942524935 28.724691993324054 -0.5958790494782982
2.968632029613498 28.8476326165927 -0.5872038450370026
3.0735700758612903 29.16552606385542 -0.6144453622498538
3.073860972075946 29.432104772700328 -0.6195154100984517
1.0758394238196751 21.703335668310302 -0.5763546566440066
1.1292234313025444 21.768521511829608 -0.5632103337052355
1.2799509052494848 22.556239465230615 -0.5717251652150966
1.3256193726901444 22.689731485025685 -0.5786689010751955
1.325291501001937 22.710885709912276 -0.5737128129763976
2.1598913333924767 25.980460810138577 -0.5806386060029078
2.562065206053191 27.742037194847114 -0.5959172917748556
2.6254226525574955 27.79837577905948 -0.5918374653535485
2.6416530983143387 27.89037389364842 -0.5885194690611785
2.8134955332814293 28.473787653266548 -0.5849898391850225
2.7907200545543827 28.54806832661366 -0.5872627796749371
3.043765513976459 29.389156989075815 -0.6060579056191329
3.0256765140320736 29.525811358036282 -0.6062395395740412
3.017713017477586 29.66502169603475 -0.6017292042503659
3.0353754151072967 29.716811078932587 -0.5969454370045991
3.0865659111135098 29.82251875107252 -0.6069435765269043
3.070909698707268 29.9071984411425 -0.6178381464005857
3.161876837435277 29.99814308973025 -0.5961923019347415
3.139908453975714 30.136454083198707 -0.6128034631623911
0.9990153492765863 21.538203147773416 -0.5890269344932694
0.9451788933006502 21.57250395086162 -0.6219095555769776
1.0414723680187463 21.693861264526966 -0.5881502659540336
1.0209728764678618 21.781840078299386 -0.6111197837966189
1.0711763795393316 21.87176436642966 -0.5982930922030226
1.06280065659097 21.97296655260372 -0.6170047438018385
1.0696381903736345 22.10913096147643 -0.5393090240064331
1.1102580488087046 22.2051904686411 -0.6273626757105905
1.1700840081252375 22.382483716969823 -0.5927141853103125
1.1914640056220827 22.49600770242642 -0.5803967242550663
1.243216349983624 22.60715641543587 -0.5893475297854555
1.2540763088897826 22.657101920714183 -0.5838034809384767
1.2386128019146296 22.763177954557474 -0.5854822922485127
1.2590237077985909 22.87183531072418 -0.59353959978806
1.2861957470627439 22.97404190627154 -0.5783680778012575
1.3097426751022405 23.084045133700094 -0.5916370965107314
1.3266945804123416 23.161166983017722 -0.5903425987686816
1.3695571073894546 23.281629115224046 -0.5844925052639167
1.3929423535971555 23.36076576664339 -0.5768590879101234
1.4052521015010127 23.424377105755823 -0.5736140108708584
1.4295288168252436 23.55219687095649 -0.5908766124995003
1.44712218632257 23.646860122987416 -0.5931957599525236
1.4798792775233522 23.76226963762095 -0.5940559632560392
1.5204274753805005 23.87426410053894 -0.580422414275397
1.5117369099600766 23.915032205570096 -0.5875727260032327
1.8428421580614942 25.15141068555411 -0.5765949719795342
1.8489119535157106 25.193471505511084 -0.5814385632464808
1.8787390819419918 25.30247185476502 -0.5789603196650386
1.8986127725321214 25.397416682216633 -0.5836393594458877
1.9259561219741475 25.505589500074567 -0.5834994016860675
1.951761315313226 25.598333147679103 -0.5826111805125669
1.9659253070325668 25.684812965521687 -0.5857714811376213
1.9860794638989463 25.787916774950958 -0.5841841964098988
2.00878808255374 25.889226171343516 -0.5796562935478208
2.0484532382539844 25.982367365417275 -0.5810416818276487
2.552398348777448 27.81039146516583 -0.5826141365241192
2.5779644017960424 28.029545272083514 -0.5944307206502789
2.5823178664208783 28.096933871459427 -0.5973840060098987
2.593826429815464 28.182633737612726 -0.6041767638815352
2.9222814638739347 29.38597881231029 -0.599168771311807
2.968864408890894 29.605145626812753 -0.5989615858413813
3.009915801324606 29.770810479660057 -0.6099053865995409
3.073142182167204 29.960778320308282 -0.6091330237090045
3.074052573232884 30.056407524943484 -0.6245274797520391
0.8196280170334238 21.445257370537714 -0.5641588962500997
0.8719695412990962 21.576619352614735 -0.5694626691157776
0.8949271786464426 21.631146384845177 -0.5420145755664278
0.9662596160850558 21.788729861274376 -0.6353755093001268
0.9879598146260931 21.8795733978997 -0.5501341405124802
1.0052129642719259 22.042315114478313 -0.6183652551258627
1.0166507435243177 22.13101041436972 -0.5744142688096345
1.046881558444333 22.222979827962504 -0.5777479108029648
1.0565268328745911 22.310123367581543 -0.5631974538087673
1.0872538145120598 22.404101427173142 -0.56482869037642
1.1120181839253618 22.48565860954474 -0.5761749289747823
1.1452355308418174 22.58843889924102 -0.5809562633545446
1.1729918703833015 22.68847453939273 -0.5710772658713564
1.2187254345241376 22.808590745077186 -0.5841719614980393
1.2494753145630655 22.914193370484327 -0.6076490929464807
1.2623598035415562 22.978974416414715 -0.5848564350850123
1.283758433026599 23.08331486390576 -0.5672193813829928
1.2918909314928038 23.165809030433 -0.5480688853737663
1.3226207640832697 23.245127412141525 -0.552722998528715
1.3555001148206671 23.38163448562856 -0.6061529573083886
1.3607123799174892 23.470534404083594 -0.5821241330543155
1.382858379938637 23.56377331816747 -0.5780448206389949
1.4233070991767818 23.66950626902963 -0.5861059547849933
1.4266185711595494 23.752132789945264 -0.5698626161058221
1.4939214014791096 23.9005222381322 -0.5962050035257177
1.477754839400772 23.953605848392122 -0.6006098754388822
1.4968293836238376 24.061600975999454 -0.5941844311081368
1.508436310793217 24.159499442020635 -0.5960772065764331
1.5346562934569692 24.25652619133381 -0.5966831522848852
1.5399214955035783 24.30688489812738 -0.6002509797193066
1.6958463773725918 24.856168642449074 -0.5932079842234738
1.7184138388169117 24.929767248897285 -0.5925054899092913
1.741831361844483 24.97640896695973 -0.5889173775402278
3.432857435775083 23.353074351356998 -0.45908337847585756
3.4131646664174844 23.33260884967356 -0.5067141872926263
3.4218050791298107 23.358186554288217 -0.4684665836423326
3.579130821770743 24.3100832691259 -0.551589252726762
3.63036717196257 24.489206123755856 -0.5528214878372071
3.6431449163266034 24.5453482805065 -0.5520387407497518
3.5918106413843054 24.575861755143762 -0.5529475843774599
3.5774006832323613 24.657588854707832 -0.5524933097042984
3.5048949595550396 24.93280796915213 -0.49046220296287
3.570926862619352 25.204608589465526 -0.4895993519409173
3.5978085632159384 25.30555314015409 -0.48780374835413287
3.6190734256818176 25.385476709214387 -0.48415348905010136
3.639276776947071 25.46731827782904 -0.4904282960758547
3.6695730422957613 25.61442418667019 -0.49560971789015396
3.6892612423147266 25.691919716429823 -0.49287947395029186
3.7033428519996203 25.755583065282128 -0.48942079499935887
3.784777847815547 26.072798305980378 -0.48321642343665006
4.041791560791879 27.144202816787118 -0.5097522928587597
4.0686645560410435 27.230299947748485 -0.5007999792306058
4.098291170680018 27.35875850591647 -0.5018971827154525
4.121015586089876 27.45048187547585 -0.5409241033408992
4.164400706856879 27.55487363387182 -0.5312701631189456
4.183220620457924 27.635685844081063 -0.5288030503385537
4.190943463324414 27.710730010269558 -0.5734447535507009
4.2028264833679305 27.788586014379796 -0.5754484402566669
4.247590117719501 27.9886106919045 -0.5754802145108653
4.291209493143477 28.15888232677729 -0.5037712656974696
4.293546589365221 28.16881325755341 -0.4821228471060325
4.3538368360967095 28.30199841492745 -0.5010872708354568
4.39133051637582 28.37377773894781 -0.4959345807603194
4.505900645266486 28.993080578927287 -0.574503070162777
4.571009831243158 29.148616838848845 -0.5828182685265311
4.636113250141181 29.480153785084354 -0.5879619734399628
4.641864493557838 29.561630576102967 -0.5828861558271387
4.690311102494588 29.688484399679716 -0.5764124634399203
3.487352031108641 24.897882224738495 -0.4728149199181222
3.5074276466240737 24.96715090413685 -0.4872146298902029
3.5764312934303764 25.241989023772106 -0.48801989226619713
3.6667969313049738 25.61008658134144 -0.49399015127080237
3.6891824193397187 25.706017954252737 -0.4906981309814338
3.699357192839124 25.748120933694118 -0.4880676130672801
3.7487610597625993 26.099443350876356 -0.4843919215981065
3.8907933829382606 26.902615377675133 -0.566438138303856
3.9616486230561088 26.96827143933654 -0.5238336831694598
3.998216701278971 27.045936809507708 -0.5196389427274658
4.025323948227147 27.156106733921288 -0.5339532423913138
4.043736074155561 27.240546751844953 -0.5337989322358423
4.056237206347766 27.32496797814402 -0.5371534127103501
4.096939307856409 27.42702438015151 -0.5454801504001138
4.104361494671673 27.549456627728304 -0.5506117888099317
4.139017689051166 27.63197944318072 -0.5294142921751938
4.164964494905927 27.74353494179344 -0.5485846741566054
4.183251092312414 27.833463560644272 -0.5292981445417562
4.205118410159333 27.92450622039111 -0.5170998036050249
4.2319524312779695 28.030500429170885 -0.5403770538453765
4.256296204428928 28.112097110248143 -0.5370997742351099
4.281276256500691 28.211372029174527 -0.5680922344173371
4.30302902097679 28.31980234519674 -0.5664233246032117
4.318191505393587 28.414508667533976 -0.5637969525992107
4.3304643918324315 28.622806439466586 -0.5362563094110132
4.397650631882856 28.784958298200834 -0.5404742210671318
4.492347370893603 29.12362649208321 -0.5636405706603739
4.536617345937722 29.277794301862883 -0.5687382823224536
4.483541517955926 29.367163053302466 -0.5625305888786502
4.600942961685998 29.5208531637574 -0.5839800036811746
4.587342644021314 29.593564240708993 -0.567768495179191
4.568616835031095 29.689011787065994 -0.5393002153484893
4.596402681057295 29.819106187810107 -0.5277146384052039
4.654342966976403 29.96378884353992 -0.5311887960398172
3.6352650226523764 26.130771347273807 -0.48792315228767624
3.7665754855110496 26.829836390092552 -0.5692890882177339
3.7823198965138003 26.915389300779626 -0.5648847292620182
3.8173952484118434 27.01095967690437 -0.5706342525865967
4.231147319400757 28.75599783670352 -0.5818879340389088
4.261685781420244 28.831712142353034 -0.5706687062393663
4.298344561961983 28.920443762190658 -0.5680392926970813
4.337291549660279 29.014709559028745 -0.5652714498658246
4.378511699329958 29.114443707206092 -0.5625078191544837
4.4135952253175175 29.211672028242546 -0.5609982313688647
4.441294328121671 29.3044723001317 -0.5609239810501704
4.460219124076987 29.38845033727827 -0.5697781521291606
4.50859119380504 29.506408377071597 -0.5742763096689814
4.528627389020911 29.625551131040783 -0.5393513911193619
4.538809378960362 29.70220458800972 -0.5342487856453759
4.601721413480529 29.875584138758224 -0.5383073502964506
3.029363714563454 24.13339709901376 -0.477541574156614
3.06017295283364 24.162442147161606 -0.5116067598823618
3.5361306016061564 26.16025567982055 -0.5048652997832211
3.529365745256563 26.23787115815102 -0.5309871916487019
3.549790405181108 26.32585277918895 -0.5230976113210144
3.579459556756561 26.4272584246844 -0.525661800908994
3.604106255490705 26.513524218968072 -0.5505978118771558
3.6491724454263004 26.589208178248104 -0.5662107310206876
3.742943377311067 26.795794071441346 -0.566420064338584
3.9299176928313706 27.93202888540227 -0.5772964066968466
3.943596545522378 27.963852779937735 -0.5761973080486053
4.171260367564439 28.61172084733113 -0.5827743975268251
2.9293986610284586 24.158439397312115 -0.4712101339150472
2.9509963447106498 24.179982340507443 -0.5024707595681973
3.4511711876206728 26.157119051344882 -0.5650770892271959
3.4925538380312053 26.22629952485688 -0.5660772765972678
3.482565869742752 26.378470482820962 -0.5636455661539341
3.5331409311161037 26.46751548743743 -0.5677727278888255
3.530281328195175 26.51750313270566 -0.5674560291063327
2.895724854062394 24.253979913816952 -0.47022562739013085
3.3298038590251675 26.19480890024187 -0.5657364334573126
3.3393742147353986 26.259469023856216 -0.5649760541964532
3.420819025335526 26.4019741115978 -0.5672360906441982
3.3880512152667706 26.433869049225915 -0.5666181982703513
3.4287632119852716 26.5758800058361 -0.5670860301299625
3.9796500354976825 28.930496226486046 -0.5858759617643321
2.792375604609341 24.322145263457656 -0.5461963026542604
3.249122608660427 26.149175695110014 -0.5670139602946946
3.244815772930809 26.208972110053146 -0.566436099319003
3.216602537934467 26.28674233512238 -0.5665602799876968
3.279321821645694 26.40525613566552 -0.5684406645028943
3.3295797062947776 26.458405515483765 -0.5665978184144865
3.3413663516806844 26.630348332042843 -0.5685450276335268
3.3371781206245714 26.724542352450154 -0.5683269296487643
3.3626830804859753 26.773466200978692 -0.5685064437074466
3.8695021182352445 28.752075877904673 -0.578407515142455
3.888765942903105 28.815467148729002 -0.5795666939623891
3.9167245154796326 28.913717045296533 -0.5833425049102463
3.103849823580117 26.14340155829344 -0.5662177243718097
3.142652598297111 26.238459211280585 -0.5668240089836414
3.171479359533236 26.291213260090473 -0.5670196092597244
3.192471656261302 26.519212064645117 -0.5667051409252252
3.284140831848534 26.648488837414973 -0.5684917159251602
3.2611733324938514 26.68835834129906 -0.566287504844786
2.9986239951840252 26.09892252681166 -0.5657664301146167
3.0361213940581124 26.15869779790743 -0.5654912725856477
3.049864461560557 26.231124051908232 -0.5660306361519041
3.1008990867922175 26.354044635016038 -0.5648223870946583
3.1050902506769216 26.445641746519716 -0.5662502845687502
3.1468656908352868 26.552422693343587 -0.5660683953926166
3.1544419693736647 26.627932067035996 -0.5677921785414147
3.1951935395791984 26.72866263236326 -0.5677502413011087
3.2224607588729057 26.85112919289682 -0.5675949485209294
3.29217841522394 27.179168127701562 -0.5647438278003059
3.28969109575867 27.30595211727229 -0.5710115704080733
2.9421218698707596 26.111865121550426 -0.5653971598811514
2.958246302542757 26.1926118888331 -0.5655843949012912
2.958613752825505 26.277145009415396 -0.5664279045213398
2.999988890177226 26.372026585136336 -0.5657703935898896
2.9777053249074585 26.452132865058473 -0.5674541106063951
3.0156922412718394 26.640573319656728 -0.5692915912198543
2.8082829578221093 26.180291878683406 -0.5668358643227642
2.841569777621979 26.306426241236977 -0.5662835888171883
2.8899352412351975 26.357843265363083 -0.5669923964935882
2.9014579820100592 26.497481350159013 -0.5682429683970182
2.95163542659045 26.56100763968536 -0.5688868363592735
2.9227347051796837 26.65940807608559 -0.5668730624080538
2.731281259537849 26.21170001886546 -0.5665994563813305
2.759798885933794 26.29662509707063 -0.5657343096614653
2.770597005856538 26.56663703489324 -0.5689078280298218
2.8599796917015237 26.738927125485166 -0.5666618329428239
2.9303196166448227 27.177169696843173 -0.5699060067618474
3.3649235778523754 28.87391659082509 -0.5431346607069858
3.375295694293941 29.0208648957779 -0.5573808671836022
3.4565968970770076 29.115422828799588 -0.574908301051042
2.622647659096975 26.27356429832246 -0.5669515960195602
2.64059070896511 26.328045944986087 -0.5667216905380866
2.7474196171478336 26.55663154169989 -0.5680804444599038
2.7684028108185816 26.57936226867211 -0.5680154302290318
2.79584917587607 26.771386962681227 -0.569770437624095
2.8000394147411596 26.77844106384217 -0.5715489888406569
2.8175454175351327 26.951310169595505 -0.5682941179652252
2.8206868295102128 27.003837255070575 -0.5681318278440219
2.922527204882473 27.228016337030834 -0.5695103175099056
2.90341175325186 27.29345787181895 -0.5687333386060747
3.2982282657497657 28.950111178148987 -0.5576899285964486
3.3392728419532123 29.106804789027805 -0.5654726983982326
2.531627564463647 26.292263016915424 -0.5681803964624611
2.5907411305454673 26.3403172160092 -0.567053695707338
2.5489778330474846 26.49891000594334 -0.5672595347790049
2.5798617085657516 26.535219309846305 -0.5699086430828284
2.669030882758891 26.676534679989917 -0.5670706650492047
2.876651743696366 27.801645943702624 -0.5740161972654194
2.9151492416994946 27.9367268672485 -0.5766109254860923
2.922586500000763 28.012366302764008 -0.5765111734892956
3.207778399881554 28.921037301131435 -0.549265370901532
3.2041564607078388 28.978420563129305 -0.5626979497948976
3.1930861771141994 29.138898990963753 -0.5869572011275553
2.449049179829852 26.421824646189798 -0.5054406407190383
2.48093276518447 26.498462528061914 -0.5294134779443197
2.5064981190635534 26.597733208924186 -0.5303792315888227
2.520347677306157 26.68092666005695 -0.5249756164882939
2.5298459016794443 26.762647466952114 -0.5169836552494098
2.55172241685925 26.890107750823766 -0.5648512582292565
2.5599188807767326 26.950403494349377 -0.5697707173872164
2.590055501874148 27.075488218707637 -0.5685568200177314
2.6287542061598526 27.21313299345085 -0.5673693406488659
2.6465709608304024 27.23958554683729 -0.5592743693196321
2.6580062254933297 27.365563151751267 -0.5757366276808217
2.7284686916211105 27.47758327122609 -0.5668420762986076
2.751001937406928 27.544428060038236 -0.5686565301507389
2.7725722897139318 27.61665017173112 -0.5631985424707602
2.8389139363446287 27.8000760992928 -0.5780668364726509
2.9171191058001082 28.070908297798823 -0.5799529252613976
2.9151368237837607 28.21392751775901 -0.5751309110065356
2.914124220412469 28.378005389338405 -0.55901824152986
2.920909198906995 28.415312941345857 -0.5612931646280158
3.0898279909959223 28.934085848309245 -0.5759510763327548
3.1399584218373393 29.004903613780115 -0.5663777790497198
3.1510060397643227 29.110174721315413 -0.5811128581440533
3.154281926054075 29.188078116560632 -0.5889824223729405
2.40761372796822 26.424226777508068 -0.4945567263614733
2.5094134367426943 26.822351242827647 -0.5330925280380476
2.485523274702706 26.895476257258153 -0.5262096012814464
2.5582474445444547 26.983215703946225 -0.5723220893849604
2.5769309573375683 27.08381600901548 -0.5728778022358799
2.604022398318378 27.186356882329928 -0.5687356049685723
2.6445580463097897 27.39986841310651 -0.5640754065582817
2.6356768274035938 27.50316276440492 -0.5729103014821292
2.6321075888653356 27.56288966040301 -0.5716781081314937
2.689120827516659 27.865742187283832 -0.5680007546054961
2.720862546197839 27.946148292179224 -0.5469538644408258
2.7389837770033685 28.067406656280557 -0.5586971932634369
2.829921456417951 28.404521366731682 -0.5761697303488716
2.8552563968099594 28.50228974054445 -0.5801271599152131
2.8742192681869336 28.557592099519518 -0.5790063574102648
2.9383243923696063 28.604120551229833 -0.5803690782267089
3.029003955306053 29.316303101487737 -0.5898591556204399
2.5698529215722568 27.84069836116764 -0.5716095904031118
2.582950056630089 27.887835028649235 -0.5309671334169657
2.7448587277251177 28.198543190082322 -0.5786544495119487
2.70226738364645 28.31295592626865 -0.5122390681948662
2.7171312145991906 28.380875756403594 -0.5189793368310366
2.7442021655600635 28.462753533291515 -0.5519245395921345
2.7734785544438525 28.595742968317985 -0.5484840726193261
2.8008803393766017 28.652287582320405 -0.5403687631709053
2.8272504617405936 28.779212758541195 -0.5325911876585094
2.8433681976280565 28.88381999178988 -0.5662420289704627
2.852451612603806 28.97189752302692 -0.5793986678223976
2.899436097318656 29.068567981180948 -0.5786561191250758
2.976615807731173 29.368235737668005 -0.568976571196559
2.9704707938640302 29.410991258908524 -0.5808203499505415
3.0509372534801362 29.600211477599565 -0.580290878349669
3.045274096231127 29.768830184227003 -0.5903843462447877
1.0577396780471966 22.012376350645464 -0.5056721236770289
1.0715354397117434 22.140223431701337 -0.5336900141184907
1.087481609947794 22.163785839118596 -0.5134740924589495
1.24094657863689 22.82924559688114 -0.5382616165218489
1.2614886733782142 22.90115284936369 -0.5285488536248569
1.3590872923567785 23.314250941866547 -0.5305729747285023
1.3828551135405385 23.370316771705664 -0.5162335226087497
1.391859318038431 23.429806361145765 -0.514701518074336
1.4554529104197893 23.69594861476892 -0.5194660651217772
1.4747448594669763 23.723289824011726 -0.5083470989048877
1.8265421293349988 25.15253247346274 -0.518042306400502
1.8351700864817342 25.20730910603311 -0.5153856906360367
1.855513031898413 25.29973904830223 -0.5169893554807536
1.8822265804948537 25.404615897001193 -0.5162224248501396
1.9027971647437867 25.502366385350633 -0.519897051581628
1.9278185117267772 25.59886447865912 -0.5204311712244334
1.9584020168592193 25.700630903219274 -0.5118996180416083
1.9775653619485478 25.79417930933923 -0.5141211101946048
1.9988420397402458 25.888687652032928 -0.5117418803888207
2.0361221728333123 25.98821051502772 -0.5214471362836531
2.552516563006665 27.84368336578854 -0.5782518541106053
2.5447351938140406 27.90546030178671 -0.48778857359899386
2.584778265534715 28.022318290784323 -0.5125794407383671
2.602888505173731 28.105373829839113 -0.5300474068539078
2.600318101472974 28.21633222211915 -0.5294276104973897
2.628392992638882 28.299155319513613 -0.5454894013286385
2.652710294999332 28.41692729989518 -0.5453378038511524
2.7104006950779946 28.488260729830287 -0.5269891775661261
2.7279526833066923 28.605855203991194 -0.5123084741290304
2.7568695140419557 28.656014214515253 -0.508823333896747
2.814986853853809 28.875597025538173 -0.5244375877198939
2.8250089000885614 29.006576862146584 -0.5095236350651153
2.8234074198566277 29.073964953551414 -0.5000236660433004
2.8386310770526335 29.18971085278374 -0.5165449081865058
2.835463200617568 29.277212822742264 -0.5163847512395927
2.840908996682445 29.383549688544708 -0.5045376657959775
2.986812536220859 29.57689566534847 -0.5808027865530846
3.0389785499348383 29.860666381918655 -0.5867207860418722
0.9797473766170679 21.797172073217 -0.5302146456256301
1.0059139602009384 21.907485200952404 -0.5281472455788231
1.023010700113608 21.98810713002818 -0.5249997133413496
1.0514403414405948 22.077003062042664 -0.5300150367563049
1.082688499570864 22.199030093675105 -0.5227411229297338
1.1708840504168772 22.623092891372846 -0.5360262304827033
1.1721627351852648 22.645993558394544 -0.5311248983067219
1.2430265532653444 22.916198150816108 -0.5301048797539214
1.2609161216456841 22.98191183374278 -0.5343576238299216
1.2800992254006776 23.089851961283443 -0.5385297538781547
1.304931973715718 23.184889020067462 -0.5348233466359381
1.3332175563091428 23.26345145106473 -0.5341967384837006
1.3676464677499358 23.383133667797196 -0.5370749115698253
1.3806669196221726 23.462785863045596 -0.5351810325407899
1.3970172052776182 23.545549529420967 -0.5287607153748852
1.431226672919761 23.678914465505496 -0.5352807710901164
1.4433705400242478 23.77499410365202 -0.5074632673190399
1.4637340997551225 23.818733987383613 -0.47229906994386084
2.5957828254834574 28.528724982178893 -0.5830854823907332
2.8188958299299016 29.500941700826935 -0.520113720574221
3.418530215692218 23.388334490294735 -0.4371479204685425
4.512482824477888 28.612851647233523 -0.45139346151296156
3.493420497313195 24.886570602679516 -0.3877004227554013
3.7892524999305333 26.093560951402658 -0.40579496625588
4.418779666441242 28.428330224813298 -0.4320999384120368
4.4508665352731285 28.493627699498166 -0.42911776578012983
4.469811751984855 28.534085799307633 -0.4458264183506706
3.486828545899963 24.888818624388364 -0.4142490772193396
3.7817804323660007 26.09504297444049 -0.43067797189932555
4.137339052957323 27.65479251178698 -0.47497470847392553
4.142862731911414 27.70328223915852 -0.4742082453996691
4.220895903535562 27.966138907169135 -0.47743092914739693
4.24452246018801 28.06068327618411 -0.45629923841950526
4.252742675632476 28.07215629209661 -0.4704869309725649
4.718207373610082 29.96123806700391 -0.41467588899797375
3.5959083922925004 26.485262268424563 -0.4253076974040993
2.9623308877029557 24.154350998473994 -0.4350447762378103
2.9885388213041533 24.170847219032716 -0.4016739461637485
2.8970928315499855 24.208649862663112 -0.4365273160163855
2.446025077096417 26.431143606137045 -0.4232094460711622
2.3924210989484207 26.434247855793398 -0.4186614572132776
2.4730809788085883 26.919949227984574 -0.4347169302900203
2.5784423003063752 27.833299803368593 -0.4789125703174295
2.7627651634225785 28.533368840630743 -0.4832415772312786
2.7953375393943936 28.57842662160813 -0.47322083973830975
2.826659843840137 28.760394697191092 -0.4764036593543255
1.8179529678230537 25.154660080006064 -0.4038297509585137
2.535546432600195 27.86071519211827 -0.4117358399135614
2.52609788158461 27.891184717252813 -0.42871776190142735
2.85752744129184 29.45151389916458 -0.4792482216080133
2.952417634555703 29.703399159924736 -0.4532772902588544
2.951212784769606 29.765858600401728 -0.46142300886306503
2.9830276211747693 29.886881344397814 -0.47551077093194516
2.990343348869142 29.959031084848505 -0.4632105651721492
3.002181288809904 30.04571657665667 -0.4647269331791388
1.4102947052374468 23.768309489146368 -0.41489333784087906
1.7310971082110271 25.041499287638597 -0.3943883552351002
1.8044519784214559 25.15351228069791 -0.3679854977132786
2.8581779827289857 29.498644651790116 -0.4627145475743115
2.864116022548323 29.583508393230822 -0.4603045454011868
2.8871046160797564 29.689810659953306 -0.4502652369624964
2.9172188903080793 29.775151427483387 -0.4645851382258709
3.0036731841272264 30.102134618558814 -0.4540580796405694
3.452184536010263 23.52943608982015 -0.2859935015860962
3.4495970210036733 23.555749203814127 -0.26591657460164697
4.540409278639833 28.668700878903074 -0.32556101976638335
4.570294135786828 28.72753482494322 -0.3131323901494104
3.069681907925815 23.136046325484557 -0.2503320199294225
3.785184831946353 26.088039618464695 -0.32761764674322735
4.307446710244617 28.212300331220476 -0.31924029739349125
4.365387586475936 28.32536591823949 -0.2952533098244412
4.388234928335417 28.36901997297883 -0.28937641518204477
4.463113277789687 28.517709815049884 -0.35312935902657955
4.471022244901449 28.535886072221313 -0.3397307777780312
3.4828234087445358 24.893376434972204 -0.30468431726187134
3.778681244578566 26.088512884542386 -0.3103544512335225
4.625930657258831 29.719589249229294 -0.3023440741677852
4.639573119314846 29.743349666259732 -0.3456393649009828
4.700104613232727 29.922024527933317 -0.3928345267672664
3.5784195353562973 26.482103499705488 -0.31908850957265134
3.592568763534754 26.49205384510459 -0.33572278880453954
2.9991351969931332 24.225754201622497 -0.3026461621380775
2.8989266511547527 24.20569335822516 -0.2598880875732239
2.441005480147692 26.434079505146094 -0.31962753752562323
2.3916245517580306 26.436078960034816 -0.3143179673965012
2.482673660989387 26.89441948435025 -0.32588750618890405
3.194506984867196 30.17411328478505 -0.32297673443918684
3.1963405398532556 30.181658561011574 -0.30646626840026786
1.4866847590347878 23.83563632023324 -0.2856841933956279
1.8262057316529254 25.15678595997876 -0.3106714011306387
1.8425194901642654 25.15965425167964 -0.30323422954122037
2.528959825389598 27.840368498986606 -0.3452018240173911
2.5235840351379286 27.90862822521988 -0.3383451491494956
1.4503671941269447 23.804984162048644 -0.33932639106544527
1.4737217311393964 23.82494990800078 -0.2891183111039745
1.4311081731962256 23.98058100654903 -0.2796027193579465
1.72131612123148 25.041097396556825 -0.3086105773115132
2.920712852776347 29.757175984512546 -0.2969178060509495
1.4155424689869756 23.978416337077537 -0.32440951075723035
3.462681616202167 23.59295793890685 -0.1855360328007501
4.691627124224626 28.947334269073547 -0.21662589177050925
4.752758561188511 29.06309748896831 -0.20490583613811897
4.632879916410199 28.823741502802786 -0.21810124100137832
3.077973836834718 23.142723722691013 -0.22965813186111364
3.7884979243965176 26.092894247767205 -0.21570803320350493
4.3370672157676555 28.26481312939199 -0.23322433359366404
4.389458259109965 28.3742183143467 -0.2780447232156621
4.425051597762498 28.440758056639105 -0.27454273144022767
3.068864900232943 23.177180625589997 -0.20666481239638093
3.0677372875139794 23.23289726528394 -0.1828532776474274
3.482337015717938 24.888469674124227 -0.20844778612228199
3.7814982852307573 26.091882491032553 -0.21012682938940727
4.578923011741974 29.619048178522462 -0.24574984250331086
4.620002824568752 29.69691837404292 -0.24255076592394617
4.646761824794056 29.744034580190956 -0.22050303396392404
2.920444797943504 24.21927188367667 -0.19213428439498642
2.8969050242872028 24.223305560974868 -0.22133320198084241
2.4417058823432405 26.430210806823823 -0.21664129841191362
2.3951405340304395 26.435659766531927 -0.21844819504998128
2.500981270111344 26.84371010916787 -0.18404369784392124
2.482792246506433 26.894957226632155 -0.22096317607803936
1.8304298573915088 25.156214306395384 -0.19782926742488519
1.8409097836306036 25.16248449138414 -0.24391598483825064
2.0371329615453417 25.996760067636217 -0.17197462624769422
2.521643446021581 27.923740849898646 -0.22914004574590932
2.9074392317008813 29.67125701977758 -0.28592780859061995
1.4325859943047534 23.797467266772003 -0.20066748137671891
1.4563588360275692 23.81559035387609 -0.2048877532901169
1.4423657938285936 23.98532918511211 -0.19590876352516984
1.7245641304013812 25.043866123007046 -0.2038202141006072
2.8744564601403413 29.627787691010106 -0.22463079385313142
2.8777540273936073 29.664172332130068 -0.24483522911702257
3.493233046084349 23.608753931243687 -0.08166125949100925
3.477464015142643 23.61105127240692 -0.11418407491397181
3.480607975901878 23.630989430540183 -0.07420536142276682
3.78808272074118 26.094816668308134 -0.10805466698565697
4.329659694348651 28.251739219645238 -0.14028108410802237
3.4821714536757282 24.88644607763313 -0.11048722983131315
3.78145591597157 26.092669990917468 -0.11328532041718026
4.649346935472005 29.763744094978737 -0.15384345543184558
4.694235792818585 29.874221673462444 -0.13101675940789795
3.0661309796771237 24.337500266503596 -0.11013067324287718
3.0746880146676405 24.364370872024757 -0.0726913364308922
2.9360567384749885 24.260310230060092 -0.11029500486767405
2.887754367773953 24.244343418498325 -0.08765661959951151
2.4312004170459565 25.142347593124736 -0.09569927935946734
2.441229968695344 26.432972176414193 -0.11346030740308666
2.401338235120476 26.434770268590903 -0.11891731030490885
2.4958927422260664 26.853051519944533 -0.11064843750079437
2.4839967542174435 26.888856932081097 -0.11567907734670754
1.825127892591382 25.157332232131306 -0.11023179370422515
2.0246663056491343 25.998630392014004 -0.11499546732666113
2.509852624210554 27.950320226763424 -0.16276893805150874
2.5052093706291614 27.99677987400709 -0.168853792736876
1.4612989752786556 23.828191292476795 -0.10657335498119408
1.4439111060079115 23.984116660997845 -0.10664036042835465
1.7276198429095242 25.044569433902613 -0.10658060128264482
2.0109493130100673 26.01071208004702 -0.1288830603749754
2.503630763122978 28.03546942188187 -0.13610204790220296
2.8683286906885166 29.682106835959896 -0.14434431385782592
3.499186591830696 23.61323615437898 -0.024813387536068647
3.4927962690593355 23.630465630348038 0.014162028840555504
3.4907847439514144 23.623818386494193 -0.033904590212896206
3.487614928440817 23.633723862974136 0.008971385548310368
4.648905348606087 28.85476831192954 -0.04383960240171957
3.491052645662979 24.8815367468594 -0.002398124883448517
3.7927319977932656 26.09761189605029 -0.027081002717458884
3.0709226851046463 23.258772531475863 0.05167518101524669
3.482062803586385 24.88716754008241 -0.008844724802456953
4.271776784445477 28.16399731821711 0.008944399102369872
4.279481913550217 28.17370567755326 -0.0065210740134294815
4.653132339732653 29.773431174623628 -0.04988185257158614
4.682747094393847 29.832874196928508 0.001708733709563752
3.081958949464121 24.394597759398337 -0.005558441293430985
2.8908800010845397 24.279882419150656 0.002589638608612832
2.8864895946241487 24.299774100215927 0.03334255879864723
2.4278798246821225 25.148780877784052 -0.03616063935146851
2.419454269184381 25.154689879832432 -0.043962419009265126
2.312126822974629 25.96632261988627 0.015945262981914687
2.440571352550748 26.432752248569546 -0.019301205639674357
2.2841130912919207 25.94512806815225 0.018291312372013032
2.404709533129549 26.43484674833798 -0.029346201986324698
2.4751523110902878 26.908502886171867 -0.030866150691614434
2.159418342314796 25.95258878958557 0.028137715698597656
1.5039927038516068 23.872248329965657 0.04893277964994773
1.8284769318869525 25.15820688917106 -0.00863442057060674
1.839578127627494 25.163571276309973 0.020888860822501878
2.034673978834462 25.984851317054076 -0.0020855310532463256
2.5242910873912763 27.945479536432956 0.009582008632989365
1.4336759947474667 23.978191876931515 -0.0019133344389511836
1.7343709289394675 25.049063421887407 -0.012019977422143065
2.011314690915306 26.000193555384165 -0.04671406648239818
2.8522247226352495 29.713046817469 -0.07221917534357505
2.855346039317142 29.77389013049519 -0.0285910094910622
3.013586383316554 30.22526454759065 -0.043991041715400546
3.0133340842788714 30.276032353653427 -0.04536465410126674
3.0326123949047354 30.3393378799474 -0.03354532456073477
3.494762773976075 23.615790727524182 0.06604450285754411
3.481192368737489 24.88943762256135 0.09078148131383842
4.264109982685891 28.14572288388871 0.0901713326282271
4.283831972424652 28.192190578902814 0.033773026777389
4.661697797142021 29.79028766234237 0.03326848518271984
4.678760789939594 29.839660909029377 0.07948652268755915
3.0838202502392162 24.40341311357756 0.057247700536341664
2.933544127758667 24.289024548211977 0.09348352691493028
2.9107280215517024 24.277250851855822 0.11972796621590845
2.90452711615421 24.29202286829608 0.09252240575495407
2.4359778625469874 26.43758460579366 0.04956580012229572
2.561043753750014 26.88804393429218 0.05502365989995499
2.5765401528412553 26.993024550500866 0.0409191109905927
2.596844452360071 27.065014175280396 0.03964920923328769
2.6118843222379655 27.184630557499663 0.040518379886871396
2.6363057433963735 27.259590721005743 0.03948054018509312
1.959513048839662 24.902100464814392 0.04295702460395762
2.2776144308970503 25.93064133798966 0.08097339541784862
2.5056697764705915 26.839014630469766 0.09666807909050762
2.49655921717446 26.86283746806008 0.07411311467805656
2.6091221993911553 27.205247656571046 0.04136660224500459
2.1264777292216457 25.928589294074897 0.06180751874867784
1.498157634326646 23.866222361332294 0.08222335736108335
1.8264391765723456 25.160506058091517 0.08889882120358128
1.8336496668323807 25.164955748570986 0.07205830611294464
2.0620954160537344 25.96963839448879 0.05142111605516058
2.523185143358248 27.953948484325668 0.03985367668569232
2.516140706247485 28.00921701144882 0.0872506752653048
1.4812192659307797 23.855285980999618 0.13850966350959854
1.4281849093118106 23.97849003476224 0.1044756376376593
1.7341366701056822 25.046476635681525 0.08753162084772659
2.5096984846542667 28.051515257793266 0.10380426012973881
3.038136006394135 30.259984797927842 0.018064519627310316
1.4128993305743356 23.987622587062365 0.11976460272192918
3.4789573041795987 24.89068550655367 0.18431094571115494
4.210807995639153 28.075137157001073 0.1641773170555198
4.249558236712631 28.124424759576602 0.16093724877604604
4.6019761365727065 29.60179365111286 0.1651895702501299
4.626483716123843 29.72991995700359 0.1386519944899105
4.650524527214736 29.76092832615974 0.16071667738569448
4.687385861663487 29.855920100252035 0.1580365504201562
2.3030315980597162 25.921895209575172 0.14986888882167773
2.2591574107314956 25.92504972898442 0.1509719020878183
2.5010598352006777 26.841271415993745 0.15814155935545815
2.4914359818371383 26.89571087263491 0.17107270335372976
2.5475194351993364 26.962102889446616 0.20563157728800618
2.167547324965624 25.940098038550687 0.1496356474014603
1.4942903412069657 23.864594295983196 0.2109280233634025
1.8277632695360049 25.160899784247373 0.18809839963089878
2.0493963428139272 25.982205219596835 0.17427690913257546
2.0361038058098346 26.076982657738515 0.21723566349476714
2.5234816385415098 28.025491897874183 0.1672817182507611
3.0736906514035467 30.242789908926657 0.18457030765770577
1.479479446962733 23.84994050144694 0.19744722683447447
1.7320195184460387 25.0528271396687 0.19334947467490254
2.002870511091505 25.98626202563402 0.16957208886754563
2.0337373729832393 26.111839153406233 0.22626995692410629
2.5146472179997432 28.07188029422385 0.14836783110337437
2.513444930869512 28.11245842175317 0.1868760118570718
1.403884901345889 23.974263206724963 0.15970067941561988
4.303170656112131 28.14994247533003 0.30606496492722546
4.553321352425165 28.85473595179072 0.3028723346106914
4.711749590576801 29.86401264548353 0.21820694120392675
4.259752066388932 28.132609708496652 0.26929753917781085
4.27653631056503 28.172071466734316 0.24987159079466292
4.6249608940977165 29.68718220286955 0.26025506830314316
