ply
format ascii 1.0
element vertex 833
property float x
property float y
property float z
end_header
1.46392735121563 23.60130175936295 -0.23036217745748883
1.4328283202408079 23.535261457612844 -0.21964477924884185
1.2998504213220037 22.938291358993887 -0.24664973993763756
1.2229919273989722 22.61656639613494 -0.21909427495163541
1.191674882144321 22.528417930851266 -0.20144437603775311
1.1740005208286746 22.47419900938742 -0.1908428560603292
4.97019336077915 32.14706845172991 -0.2506873539823847
5.010779150568862 32.14800012222641 -0.2512180821158279
5.040107721516639 32.108306861317516 -0.2500290749403543
0.6611347599727704 20.546677635903517 -0.2023787291648136
0.6073239035150104 20.491085091295098 -0.22134945700616493
0.5593308464857529 20.414200335549168 -0.24195790803606765
0.536764080399107 20.318670266758286 -0.2313981061036453
0.5074551311826665 20.22449649935714 -0.2129049257273184
0.47561325546597644 20.12215562603024 -0.2316258026871047
0.4561764255904608 20.036185734115907 -0.24637436710391097
0.40779440805077494 19.91911304404156 -0.20517681412308697
0.4044445272009145 19.871647961913528 -0.2005374382053029
5.116688056241125 32.09129212742413 -0.25028657582593944
1.6340167146091065 22.800653041795684 -0.24860523983146626
0.5004362142822407 20.07855210768637 -0.23321985339205265
0.4705570075537757 20.018607735667807 -0.24638724677406837
0.4330307450609101 19.83657911224008 -0.20091390372393925
5.195930890139928 32.08270889382429 -0.2508146659405377
5.223344691882504 32.040844808650256 -0.24965262406980826
5.1106634157591895 31.554703830156633 -0.23060940548557674
5.001819784939889 31.09032374902897 -0.21251319699381493
4.912216330249997 30.695135443755735 -0.19705222911921944
3.5564362711706567 26.251804296683137 -0.2008972124072816
3.5449434864659257 25.0374159358603 -0.259024610622465
3.5228280517993307 24.953660596734146 -0.24971603874674358
3.496759841690248 24.84658054039063 -0.23794530668699237
3.453912569264066 24.70552670324628 -0.22208641452630595
3.4449142601028644 24.568871472541712 -0.20813296898822753
3.528248955225828 24.527668947123907 -0.2078063467223608
2.945469765489052 22.91022518422681 -0.2248258493571983
2.929718402914011 22.845991592254485 -0.21131300580822215
3.629041761574843 24.506192692012466 -0.21043799686940207
2.974842441477358 22.81277745102296 -0.2107047946729078
2.976449672239953 22.703783685623755 -0.2358348286377182
2.955032941760141 22.617397660390463 -0.23443269353646595
3.659889135833125 24.432958386854228 -0.20486139922433705
3.654478313374549 24.351259540362165 -0.19676065301715945
3.654792561625534 24.29352767199819 -0.1912696284757493
3.5377726111006553 23.96038563823363 -0.26267313628093525
3.5250417044793334 23.90062168316136 -0.25434087420637924
2.948140887148492 22.574056783278877 -0.22476528934658518
2.923873312297038 22.4936705867712 -0.22547244763109764
2.901486898301181 22.413142280664996 -0.23493979959856054
2.8760661775156127 22.30846505883593 -0.21315907752464758
2.862727275203452 22.232086574714057 -0.1946282258507932
2.2697318338432986 19.874148445897976 -0.2034332569087271
2.243546627282927 19.764365253950505 -0.22828029394199795
2.2158623769715975 19.657779614156194 -0.2332594265488787
2.1927898458383916 19.57420171936098 -0.20510815814588168
2.1712789878197505 19.476827353074203 -0.2245907609941129
2.1507925140618562 19.39826048746764 -0.2403199716070047
2.1393155234771677 19.346682252285657 -0.25075171193987084
2.1232070501843454 19.280539315213325 -0.23837494236385803
2.1055154647882657 19.20579752275729 -0.2006623689413245
3.205599366674066 30.728035134817016 -0.18150543490730625
3.0335584336692802 30.156130994008016 -0.15892361554812723
3.0630366191324425 30.148274378091678 -0.15882801040074046
2.010501364785521 25.90638414424129 -0.1530666269685258
2.0087394833950136 25.827559821582774 -0.1473421978661104
1.9761368771644103 25.749395083970605 -0.14149808676503317
1.9524862528787061 25.653903010631197 -0.13444446811366334
1.929653899425729 25.55031626695901 -0.12681721820621605
1.6174723330141905 24.73499561287146 -0.18652176972159834
2.074991360754807 25.73512205991799 -0.14112996649480403
1.9076538896557755 25.45660313672004 -0.11992954137020227
1.87970870802905 25.35074601544777 -0.11213469291046173
1.8602268837098364 25.256794569018975 -0.10525559726574536
1.8349908615562633 25.159245470046915 -0.09808587384818394
1.6195492832177059 24.45963425260716 -0.1570253264112048
1.5577304516321975 24.424858976508148 -0.1535746949270297
2.3910441842078205 26.218413951923655 -0.17888641857966625
2.350718868524883 26.160818842597386 -0.17432284493913347
2.3254594276044456 26.064919895790375 -0.16713094383305094
2.3043555741508825 26.002688142399705 -0.16244720873413854
2.1649336439760516 25.719546555757354 -0.14071821371573673
2.278707931393125 25.884684562848552 -0.1536648192442368
2.232024655845918 25.68755252708629 -0.13900517860196077
1.4585795692614147 23.614036097698882 -0.15004300590521352
1.2946417170022744 22.938433594960557 -0.18441224062348938
1.2190065491675819 22.608092017385445 -0.14363002660615526
1.1938873195601003 22.523441512568773 -0.1249997592346891
1.1706296298311478 22.438501151635993 -0.15078520497205217
1.1432916111106293 22.365807421540666 -0.170242059362412
1.1700772112429574 22.41061654174051 -0.14889955543656408
1.1451203249461535 22.324091169063106 -0.1379666296683537
1.1215654454319308 22.22694568500247 -0.1213352581024562
1.097430254044895 22.13758753999428 -0.12298725817270266
1.0693200114282742 22.036304967273395 -0.11576841886315391
1.043355368782612 21.93815190184163 -0.10452389097874949
1.0165641145304591 21.84203734741482 -0.0961661246424557
0.9888114429690549 21.76228708976695 -0.09244989498299097
0.9431816442763716 21.641706021602474 -0.0912725884104444
0.8945546607502657 21.47678770434988 -0.09311461507358272
0.8299639620227828 21.248374182186637 -0.10665630865342694
1.4363437712764828 22.60193087990078 -0.10724901615972367
1.3545139994838404 22.45310545849399 -0.14660262661700063
0.8800603893305297 21.3449572063222 -0.09339427753086366
0.8576290787012351 21.257549689725852 -0.09939908890148412
0.840581488567985 21.157287896486537 -0.10611508902254847
0.8195847691670246 21.059570343735086 -0.11589050272549577
0.8049392808017715 20.976398085374008 -0.12478375339245358
0.6592454141947133 20.554405138482995 -0.09212040133182335
0.5943164216423293 20.489450957192684 -0.13440107750720903
0.552497457371018 20.40243587785194 -0.15582036568424124
0.5347798252524543 20.313503047756083 -0.1338882349337565
0.5147886429395878 20.21594887453645 -0.14677141784701753
0.4836040663970185 20.12362190425925 -0.14244079052364567
0.453604025211509 20.033072150811304 -0.1277666015836224
0.41485699024025835 19.909598989646913 -0.11963151894962361
1.4591244153110923 22.554088784153947 -0.09610104114259964
1.4182552397353412 22.398671286281946 -0.12052821655730082
1.403445153215439 22.385627018287686 -0.09600781717012134
0.8768883330730715 20.942754200885965 -0.1096830291592819
0.7720342304518928 20.630545567158304 -0.13424205775695702
0.4989750595475637 20.094355858715236 -0.09373998589747758
0.47662982624324446 20.024088836325106 -0.15512346395739396
0.4320715291225292 19.88032760232639 -0.12044333479808704
0.43223690687327454 19.840650724214726 -0.12414836720896029
1.531012495240394 22.349947750842865 -0.12964987484854035
1.538291629277532 22.311953486228475 -0.11513971905863503
0.9446167943608171 20.92450947988402 -0.09491084723956625
0.9643059212809031 20.766841269463644 -0.10758756708640994
0.8933481459905994 20.715918434701237 -0.12969565297461927
1.629171028468119 22.319771411790096 -0.11337136482558476
1.590655084135047 22.308685879324138 -0.11325548794797934
1.0001352528924865 20.83853609869223 -0.09092139157521174
0.9968477024887923 20.81459015574668 -0.09449266899543791
4.814611821736809 30.28775520206353 -0.18115997045044258
4.719320909385856 29.898377180741075 -0.16585563918280777
4.602492262339385 29.448700840936638 -0.14820001974321362
3.5169667288347837 26.07990824238886 -0.1880686157284837
1.331794588827027 20.458663950481583 -0.09106563269347248
0.054219039121863544 17.034976088313357 -0.14420414069812726
0.02936377008358071 17.00582772557105 -0.14677834579861676
3.5284174572850002 25.904878857266187 -0.17618226642812385
1.4267993231841904 20.352092902384186 -0.10171579308442129
1.4165416045586174 20.316120283099252 -0.1108286245913662
0.014290105923827623 16.838691698839725 -0.15741730266668502
0.02397113812831697 16.794676693490562 -0.15981600455410017
-0.04872455726485092 16.45051121747062 -0.1831788815992157
3.619602003306718 25.885015942838766 -0.1769990828295565
-1.129275866999601 13.341159377322104 -0.10660885715795805
3.7096451104011656 25.8619050207184 -0.1776571155336601
3.723816216119497 25.764199647571616 -0.17134355845085275
-1.0671292278700781 13.333537845327962 -0.10586500537801875
3.7001693417816703 25.663892311856415 -0.16385244811006838
3.6781523225502033 25.569385693441742 -0.15684627792120365
3.6500487253211222 25.462171853403355 -0.14877366479603116
3.630638100455937 25.37726568168941 -0.14249490673447812
3.5991039091969297 25.24752874043299 -0.13281511353835457
3.5636677059706408 25.112841683984833 -0.12270091922861805
3.540979689872639 25.026965314265325 -0.11627649656748947
3.526048500756451 24.959360289206916 -0.11126851367144718
-1.0416510427406684 13.138325271699522 -0.1112725499823148
3.502735818861142 24.85831300087673 -0.10379695371038465
3.4517771706972007 24.699621130264312 -0.09166454483736558
1.7566143990639853 20.159936482799903 -0.12312601763762397
1.698530439276755 20.096763398575632 -0.09312080124868526
2.9677220608976898 22.98410035959249 -0.1471896092781672
2.9572885869307632 22.932303508979608 -0.13583874099420373
2.935295013669074 22.842993714647395 -0.14580130120503088
1.8269579318150522 20.130302451376025 -0.12865017662997408
1.8545589047977649 20.068547144436973 -0.14349817679277327
2.9541384571125944 22.887330534018858 -0.15431260758487614
2.97536800037694 22.813234362874052 -0.1452686762989095
2.9743659570564787 22.695788090957368 -0.1484534631761253
2.958887251232646 22.628449449522254 -0.14227723380422214
1.9437717820344196 20.06424153377283 -0.11328600653355432
1.89038330659191 20.029045982613013 -0.13669919033062405
3.6430277290115556 24.239205322750706 -0.18549321704776656
3.6190958298682316 24.154958986418634 -0.17626785968535558
3.592334038981957 24.057841136686537 -0.16569231889155078
3.5523542139729516 23.953134489859664 -0.1537353918856249
3.5173814135290673 23.87877317998983 -0.14488481473852421
3.4905217347716633 23.818117466487305 -0.13777851083510528
2.949626318560389 22.584828461910277 -0.14585541984836092
2.9267666144831104 22.50576686100822 -0.12512038520549718
2.900888810247112 22.39963511193201 -0.15689324218511486
2.8802135987491533 22.3062371292367 -0.13551759266616803
2.857061757647347 22.206831034232863 -0.1354589444869439
2.828832014811767 22.11019975663655 -0.1418487929563897
2.804655980016099 22.018958582889372 -0.12127923760499183
2.7834803772227263 21.935354934855184 -0.12116574733549244
2.7625344265424063 21.828227022875524 -0.09873890321385666
1.9859105204258736 20.04200286070221 -0.12257623207515604
2.006384566389154 20.00215359007483 -0.1382923059502596
2.76977278839985 21.82706922292072 -0.10029887157450747
2.273005839120536 20.10607787133869 -0.09997294861827986
2.297871266598336 20.019169702461998 -0.17079566420543413
2.292486473912621 19.959182798395183 -0.15598534515932655
2.266462361310293 19.862938726232155 -0.12640379155729448
2.2433142974007954 19.77187691840416 -0.1348504955289776
2.2222132694930834 19.682348865723554 -0.14980696908004515
2.195275640867781 19.577634098666632 -0.13874815387820516
2.1688404661397014 19.46877932259698 -0.1566817734333662
2.1472498358719 19.38890266256105 -0.12536667140610286
2.1389902534531857 19.347712955324017 -0.17681431214596144
2.1239067630647686 19.293938330572303 -0.13244866531298533
2.1074814458900137 19.222824686995594 -0.12058114570668853
0.13266339623094625 13.030246200368302 -0.10063623473684129
0.2044295603894879 13.021693814444914 -0.1003217605231508
0.3052354524194514 12.992168617595315 -0.10048699333863266
0.3948179772827709 12.97739967227457 -0.10032341467628504
1.9954353277513146 25.8514356806281 0.008690598857263539
1.8108360478776557 25.058270409506328 -0.09069728580466314
1.799302246526155 25.01999182447326 -0.087876790871075
1.740064192375749 24.897197448249052 -0.0788326216543839
1.6838451755579102 24.840719217058922 -0.07462238429893488
2.4767969693449867 26.511041238270987 -0.01908277466541146
2.44876448194191 26.419602229516578 -0.01549267471178635
2.4187257344180955 26.30213966693726 -0.010879753105981924
2.3713836758346907 26.17625848233922 -0.005870093006444456
2.3139760005253684 25.916595922563083 0.004226218255528179
1.4643441986681542 23.633517160094435 -0.0701463151124119
1.2207948475197832 22.590652723202652 -0.03674315889759622
1.2004122162560398 22.519665267941612 -0.02828501998864659
1.17102952050956 22.432701718178485 -0.04942058985166069
1.1451019516933743 22.359477847093807 -0.07677840173149307
1.194532257131935 22.48261398350603 -0.02199387042722837
1.1742936853595407 22.414678714259885 -0.03505467816904248
1.1450616969491845 22.327061558877578 -0.048110719068631236
1.120093347573985 22.230010380711928 -0.03768371809746264
1.0938222845142078 22.129214115821224 -0.044218296464346676
1.068725018758625 22.035184648366585 -0.03702449105921135
1.0444659843347788 21.940569867412265 -0.03312658584118924
1.017939660568099 21.840099659149416 -0.041041605766116415
0.9918818351268556 21.743349970078878 -0.046486610379137344
0.965247920971235 21.649723193701853 -0.054697745950800764
0.9361528813142148 21.551552115770853 -0.05033563779623361
0.9060965157308078 21.467520046052638 -0.058716049176655086
0.8859625682822923 21.39777282345562 -0.017160409422635303
1.3553886310603058 22.41715928392929 -0.048359388136202386
1.3638362035446465 22.396627384402464 -0.018883220106428796
0.9425576868871859 21.535617432689808 -0.047217125905759216
0.9112533628920183 21.427110116749198 -0.04877375656542328
0.8896184543495338 21.35814803960543 -0.04377674344111132
0.8597314240560738 21.257216915960736 -0.0402457628666998
0.84252689573006 21.15822359955658 -0.04566406370798126
0.816195213040843 21.05820994778589 -0.03731989500500946
0.8035589861703158 20.97997082078806 -0.03566884176032141
0.6608497649790128 20.550734725656017 -0.038409224260272865
0.5999544465333806 20.48943877455496 -0.022382970130540775
0.5607910970188239 20.40170021004806 -0.03423666440599858
0.537876016877413 20.309312270159726 -0.0342371374416853
0.5130793071447319 20.220071767151303 -0.059103239908324154
0.47999937057971254 20.13358420536743 -0.03556465707466544
0.45897962572213724 20.030596089774626 -0.03362034811992659
0.39754856987351705 19.906441894121954 -0.04698347526066135
0.4082188160828679 19.874294744578457 -0.048216333240997625
1.4553930694237915 22.54167941092136 -0.02502822073418985
1.431744898907387 22.38552040908408 -0.028403276211036575
1.4081922856767684 22.38026312382372 -0.04064559376745022
0.8730169898696085 20.945930192661667 -0.04594086708311525
0.7172189006659369 20.59730314234413 -0.044914955511803495
0.4408315642648688 19.8754860604958 -0.045416824346867515
0.4354631960847979 19.851587039195 -0.04750537579691563
1.5449154635803823 22.344470444391884 -0.042958252749603354
1.5430569389642632 22.316255335018333 -0.039878600579621046
0.9808006066340035 20.909402120102143 -0.043454404005681194
0.9401333091581288 20.747452324294912 -0.07266425516907375
1.6242817934276927 22.329652356973998 -0.04017423834673743
1.5871444418147957 22.310699344350635 -0.04715084424919154
1.0130665722103291 20.873447579595542 -0.044116726288684474
0.9919231696525812 20.804853230971837 -0.03605508190492206
1.2355358692751692 20.634370142867294 0.0006544649175989972
1.2287996084611748 20.62180089997316 -0.0017578507549987285
1.2730501011999231 20.62709266773159 -0.042095656136252074
1.2937211850485508 20.600887358985787 -0.03158139118779252
3.553107507476592 26.23822456089632 -0.0193126147334598
3.5049828199505084 26.04146662714392 -0.01162671198443678
1.3509908589065887 20.52309765411474 -0.03533386503373946
1.329624184824045 20.479585004038967 -0.05590557642577672
3.5227104536589406 25.911172733483934 -0.0070934225102003215
1.4253517625269878 20.47636578732249 -0.03417395596141655
1.4497453303203454 20.416712401486897 -0.04448150437171444
-0.020253665221542372 16.622880927008268 0.007810598256260414
3.618269129194381 25.878848467083756 -0.0070702943558546005
1.460271638731145 20.362073583460965 -0.014927378984563984
3.7089510740588887 25.857711292912953 -0.007425298971122235
3.714413291348528 25.739186541714467 -0.003242487852017105
3.6959527564873937 25.65165578785285 0.00016070294997466011
3.672241817154028 25.553320305253074 0.003973495869409455
3.652565175129731 25.46617658295637 0.007375725391764159
3.4451583188864867 24.5683126570126 -0.08262823881595201
1.7612008838358 20.17874838228265 -0.045908918669920584
1.7082252416697206 20.12182455527023 -0.05698775145382645
3.5328072195194373 24.535761484933023 -0.08301519745396696
2.9412778774427513 22.89185881998706 -0.08741545015204495
2.9316287959131477 22.848814858403287 -0.08143638567672531
1.8369274245450098 20.137681254801382 -0.043831576508140666
1.862447142026319 20.054573765636164 -0.019211519187778595
3.63003360309743 24.50721888918708 -0.08409141671338713
3.0796801144058517 23.165010433903742 -0.05465625910555333
3.055028006315923 23.07390191296798 -0.044829596891927795
3.0493447550861674 23.002188029822456 -0.0378682533853853
3.0167792965529405 22.89795099278306 -0.02647351199687878
2.982444360952916 22.804323448231848 -0.05954861140051461
2.976025479210322 22.69808227195918 -0.032220115273019635
2.9529141031537693 22.61627496875381 -0.042528621147642845
1.9377777457263305 20.08778951002385 -0.02314065939070882
1.876566970835476 20.04522464570195 -0.03519010010733832
3.673572771494573 24.456403220298245 -0.08212136340065712
3.659460361009163 24.359296149602983 -0.07532333307318965
3.6543890573155715 24.28078735572445 -0.0700480864754357
3.6228318775248827 24.171788635650294 -0.06193994717051858
3.591687567647246 24.066931613472622 -0.05412029174936664
3.5712069556458923 23.99275593435941 -0.04865168519698963
3.522539628040679 23.87722534701862 -0.039573184802078276
2.9466123184205744 22.58008691489834 -0.012613765277483903
2.923438146425544 22.50146384558357 -0.03972171969725741
2.9014327680020333 22.408892000500764 -0.05767702140172243
2.874227514083704 22.30945669095832 -0.03328322346095247
2.8571504768817393 22.209888035580054 -0.034605019359187
2.8330644228232917 22.11477442207627 -0.04468678643223918
2.8035559326340507 22.00627586974743 -0.04239724991936131
2.7833460442728915 21.924978097911712 -0.044002050415619554
2.000418976862005 20.04507703634827 -0.024736634302820186
2.0206218088378627 19.999264018850536 -0.04504107413746353
2.7728608341687835 21.832325602182518 -0.06497716249651524
2.440910708374746 20.5381151176285 -0.045094477656966545
2.267901685584155 20.12401909958882 -0.04906891833295811
2.2988503905327846 20.016235968018023 -0.0183904095297327
2.2904384605731027 19.95695107462518 -0.05374478669018615
2.267693436810639 19.88180627923133 -0.044857012401375296
2.2383432367343508 19.760969566923695 -0.035552971253621404
2.2141016033825265 19.669663532869563 -0.026796327526938002
2.191178183502209 19.573616331116583 -0.04500411747735514
2.168464714410177 19.481200457068468 -0.04934787205511003
2.14213525139366 19.37833602010522 -0.028774488960768917
2.1200236674865525 19.28277924354647 -0.0382037071593752
11.255189589869426 62.66436581215742 0.0430762717189587
11.396719854664326 62.61977075114401 0.04311680069806936
11.541333908587319 62.590414117350555 0.04267476884795168
11.68261718391687 62.5612637290628 0.04268457296521035
11.822035926904578 62.52387881547747 0.042289499548732026
11.969356004811544 62.488122248429335 0.04233360984431517
9.745013513710012 56.54658056867333 0.06341429999274416
12.118114905659704 62.45975115702727 0.04191760327588094
12.262594585145072 62.42772199729702 0.04196856249754459
8.695155283948576 52.853689698543874 0.07587575185749068
8.802291009506437 52.81818193938811 0.07556392092867506
11.768323969776493 59.899672824801655 0.04983782324338768
7.112017390140216 46.82030452657594 0.09582971408546342
7.216598902246685 46.86612269693322 0.09558631303510876
7.305606703940742 46.83727184905085 0.09532140087751204
9.997106456537843 52.522325968578684 0.07420157790016749
8.541841533262657 46.554449631214254 0.0936475006374327
8.625416808487836 46.53230126775364 0.0937085037947048
2.010459338101033 25.821174803042716 0.009716993291061467
1.9788240639889956 25.797766182237687 0.010770087466255074
1.954416379137996 25.66113244967737 0.016009572472770087
1.9241350139831779 25.536400608293597 0.02082610811166903
2.061331719287786 25.729371750956552 0.0128471923177256
1.9022470909629945 25.44645831242912 0.02430344262801351
1.8814797752926258 25.35341804658446 0.027873760217045046
1.8552990261992452 25.255180078276837 0.03166986275999851
1.8303113484526086 25.14378455797707 0.03594613825082009
1.8063583421255731 25.05321340473481 0.03943706473427465
1.790189899941977 24.974738119040364 0.04243231443886365
1.7674655182984216 24.91483970565331 0.044778114162989276
2.158321142662582 25.70445583499291 0.013172390998639514
2.2769087625285316 25.75026723311966 0.010672098868474558
2.2339844928173753 25.691136439543655 0.013166676270071988
1.217019588779217 22.58637718603689 0.0658114024568506
1.198571401453528 22.523058539713276 0.06941581463399077
1.1737638871967015 22.440412239389644 0.0626714311415727
1.2296703207568735 22.498275460173495 0.04781604510180931
1.1738620684657302 22.408776030530227 0.06644344945196246
1.1535071919048328 22.324573386115986 0.059610374811851545
1.1253047041194582 22.226547610977455 0.06680703893785216
1.0994017188430272 22.1309310678696 0.05550552263205491
1.0721748779699811 22.032316503494293 0.058991914987991126
1.045438888317652 21.932024312272873 0.05708409157220397
1.0154492230077903 21.84433694702996 0.04712081689901432
0.9882102850545975 21.755640649623242 0.033360011075129904
0.9573251610152427 21.661059860344352 0.021817690768858762
0.9241610927920088 21.538906266948413 0.08431602144159964
0.8955681656989898 21.445239061655723 0.03460670198668605
0.8756277149559544 21.38798155374167 0.018384463450758743
1.3575104104917266 22.390087340726073 0.060033805376544166
0.9091580375343864 21.42326732882772 0.0529840064176918
0.888421554095105 21.35847822971719 0.05762220017087391
0.8617131194564187 21.26116839602588 0.05537558220827106
0.8422664973397291 21.159670371241546 0.05419469581595966
0.824189347091719 21.063953996644138 0.05850292015916804
0.8116633312772081 20.981553013815056 0.06729603616548954
0.6499586818467429 20.546333029552247 0.06675482533518856
0.61039872473052 20.507305375569466 0.0628523902788607
0.5568302440112114 20.40960583676867 0.05615473474102664
0.5281535972565612 20.309053861647104 0.050912626064353095
0.5106863980276413 20.220809422296142 0.046647317442621454
0.4722108482990792 20.12120016948491 0.0574207376817409
0.39832972312199466 19.90255077510821 0.0582013189988827
0.3961186150004943 19.87614019429592 0.07576132478958314
1.4718880553161366 22.511988556661283 0.07023025190602039
1.4418516602728684 22.38046294677051 0.0954175051576746
1.4134675361489193 22.372035517757606 0.06308651736291696
0.8793882088123914 20.945217697148905 0.05766845405588597
0.5273683327050345 20.16702249259425 0.04570842521400304
0.45637547357727914 19.975680607947893 0.10446549160648579
0.44506568089839904 19.876128112660844 0.07781696984685377
0.4330926632568701 19.854394430580324 0.049454456898266275
1.5505151566740456 22.3583838308871 0.06137753440097012
1.5225255061126899 22.322049269362225 0.043909319650413385
0.9768899653632743 20.9098003184817 0.06192231869594077
0.9771638745372846 20.806802907128766 0.05080176117762578
0.8450936397887943 20.685316969517203 0.08442402467966091
1.6105145283275908 22.32505395509921 0.0720613068840221
1.5912608656158895 22.315751108478295 0.0428736286645892
1.0125249726010828 20.87329084777385 0.06742597445782175
0.9941788941587374 20.806944372206555 0.061342962061169196
1.2385430937108424 20.639628786822897 0.0728268705193103
1.2207342505942318 20.625328024770475 0.07498455963118147
1.2475772522315902 20.63385783296767 0.06138611509689763
1.2753010239694307 20.601343404796346 0.06209278795593
1.3473931521431441 20.520261060258 0.06932187900398283
1.3229261392454448 20.483067995732593 0.05256296001669532
0.046164875227040714 17.02859326763344 0.020680437963733155
1.4367692045854632 20.47597316401508 0.06278849514747956
1.460752226219015 20.42443439473824 0.057735927309166345
0.020518534989844017 16.791984937248905 0.013421781694348676
1.4727500127800073 20.395091968294384 0.06749630788271802
3.6267783307647523 25.366424438522678 0.011265524530812192
3.6003263663586544 25.266844353396593 0.01519847994643407
3.5722055843262313 25.1483518509907 0.01979804957372556
3.547974392123003 25.041142570300458 0.02394295420968503
3.5215549924971308 24.947874773969467 0.02764464227482593
3.4994472343656198 24.865819108164697 0.03085065733553957
3.485941662567069 24.80389692842227 0.033259402060682466
3.4376696611110757 24.667779654659757 0.038743269739116695
3.4443807879787682 24.56557998931387 0.04230166367423888
1.7643042463928684 20.18295370433875 0.060390004039896555
3.532010099399722 24.533276977514078 0.04223800598746258
1.844643529937833 20.13975460084327 0.06542254292306271
1.8654207451587308 20.064430436574433 0.05939770685337671
3.6313135575162754 24.508743292503063 0.04168892546842892
3.0825129756395406 23.16907395305072 0.0966408358279591
3.053975950458424 23.082347056242927 0.06092739775019486
3.050967392980032 23.007285051729028 0.06366039202979559
3.019000685494496 22.892816123198482 0.07612396175786548
3.003472945693929 22.80241052401641 0.056145438932922814
2.9795725099280066 22.7033431524551 0.05388713636298608
2.9558864193469327 22.62336791767244 0.059681663503673404
1.9405178709206634 20.10496231905729 0.06949711727861116
3.674296948631559 24.45701690897355 0.042877925003751635
3.6580893888925994 24.352633297459807 0.046762478011194306
3.6564345294165412 24.28371826093401 0.049192677240851065
3.6204174430012177 24.167430577208684 0.053779851492220365
3.5972112605021036 24.075435411462593 0.057329905371188136
3.561179100066619 23.97663304649943 0.061306246858749296
3.5247054696658204 23.889758493934753 0.06488133489788236
3.502003223555909 23.835535229588046 0.06709338009427099
2.9463199454736912 22.576870859632354 0.06286836429765587
2.9270052016142016 22.50271162180489 0.04273057935330793
2.9004107607271328 22.405047945996202 0.05079842341089651
2.882716128789869 22.311157669088637 0.05421806306560306
2.858449960114177 22.210543508775242 0.06632281145261419
2.827359281433748 22.105388473198847 0.06096101552672007
2.804492712233717 22.013288282246492 0.061118612138474394
2.781244688001536 21.93778830817072 0.06550646852144777
2.013542146783997 20.062484836107725 0.06772805096670748
2.2406903197156005 20.219212875909562 0.0956955036994085
2.453890654470296 20.53383521511498 0.03595114729305522
2.2824451186886163 20.07355118302297 0.03774262463250885
2.288801231260951 19.95850271490848 0.05191255567986209
2.2644812568325623 19.867312358099166 0.04344368996321209
2.2428574882365906 19.776179147702443 0.047757397259296536
2.2170747247280373 19.66950478226718 0.06011415487519058
2.1952051571518902 19.576636208542478 0.05430460876648478
2.1709571149205376 19.474304308059217 0.04782939949547735
2.1494691761422877 19.404036813972606 0.043411740879250135
2.142106780479967 19.346956364691206 0.03966690002300822
2.1266295068735266 19.288640659577233 0.0359256361678235
5.0917034352032635 38.43429210074234 0.12351823712177783
4.97878620983986 38.15413964384292 0.12448097706873931
5.2089641194597505 38.401883559357806 0.12329318425937262
5.146408670090335 38.39759568766831 0.12338307776880159
5.295585288075635 38.37573368936034 0.12309599556076126
3.6570952937938204 32.43238392622805 0.14327143280955018
3.528454414362356 32.11089134161215 0.14453363285900273
3.7529786409552104 32.41555708392761 0.14303088128334743
3.428553170277824 31.69305273816913 0.14587235594584513
3.3358712194735847 31.298228734505123 0.1472299243151785
3.866724125984139 32.38996500233121 0.1427667125698221
3.8073907277965824 32.388117955493705 0.14296865706153639
3.2481164433390344 30.91879747815016 0.14843964553057976
3.0326885426886814 30.15453666247268 0.15113185802788942
3.0776206528957353 30.1487434260995 0.15096761547325832
2.9129518712805766 29.788426951874364 0.1524600964278818
2.773159124519875 28.83819954455196 0.15537309765349622
6.465947895407996 38.094654464171434 0.12153173181834419
6.554248118881182 38.065254517931805 0.1214501981568662
6.614385276960995 38.06088382081785 0.1214697376530067
2.133165957323766 26.12227098439928 0.16461730943439612
2.064617616588388 26.053385916799257 0.1651086857993057
2.021749506464762 25.96205971022137 0.16554617631407836
2.0039158295354578 25.88245185683506 0.16580725100784505
1.9783232559024946 25.764859986999557 0.16622520109006056
1.9543029574957498 25.657133428858863 0.16661238976131465
1.9317008182892768 25.577291598328785 0.16691232819458085
2.190790339670214 26.13332382659832 0.16432237500360508
2.217209136236304 26.019490976514152 0.16449285264402175
1.9094325169186894 25.47734425857766 0.16725922204137528
1.8883121785960637 25.377248513549358 0.1676170902157536
1.8617847888405776 25.28098009361693 0.1679899782996258
1.8365231189590792 25.17054631176408 0.1683914740075842
1.8121498350005503 25.07794322741969 0.16874838154717353
1.795276945386172 25.009401367044276 0.16901398778906318
1.7627668708499478 24.880081538016768 0.1695063121668407
2.4639360661352163 26.479941422601925 0.16236973513314001
2.4330511256870784 26.358539015418298 0.16276527118207557
2.400205401109425 26.209070699003924 0.16328025620991338
2.3631289455491125 26.183847178771995 0.1634733772484535
2.2282962013448717 25.938600884800525 0.1646225469652301
2.2465198459134395 25.860094801588545 0.16474414869336812
1.7876334369824214 24.87508713081049 0.16936446314187614
2.277787770346044 25.854670136485037 0.16462684121063376
1.216090061446046 22.590157643096997 0.15458465128943308
1.1995813027580544 22.524506394269373 0.16250778001257293
1.1746284216689409 22.444977911664136 0.14521622713549415
1.1478816708274688 22.363765798277353 0.14306044893664888
1.1955549456503833 22.475568322486218 0.18543005233704518
1.175068168188346 22.411112658547466 0.16941285718143162
1.151788010896702 22.321224048626394 0.1665825965015585
1.124324086259614 22.22721986765737 0.16712785256426882
1.0968766594006936 22.12928973089663 0.15193891950054506
1.071231171509712 22.034187372349127 0.15155578851028223
1.0439224963280624 21.937465930182675 0.15438080481283206
1.0151294513421507 21.84933006055891 0.15038705804589786
0.9781382825470315 21.75482977685989 0.15370369911085882
0.9446740958805259 21.65306305455763 0.16017294077704336
0.9233037613343387 21.56198420667623 0.16184188237736408
0.9048494942780649 21.445518736274142 0.18138433454544783
0.860070819755911 21.334710272877544 0.15604234590247312
0.8411550581362619 21.28992738692163 0.15324974967692
0.48149322863556865 20.400927530213 0.11142516733589754
5.019107717121259 32.113772027784485 0.1412053133594463
1.32393529542516 22.430036671272116 0.16339850530887778
1.3530914668445606 22.396461096414946 0.16129470979004196
0.9049459112185099 21.422886369314856 0.15402222195904414
0.8902737137600663 21.35735081606054 0.16616011724128976
0.8633505913022486 21.255594832256403 0.16983653135593646
0.8427529101060811 21.16000333773803 0.16773557927926336
0.8195609127884835 21.06422595072448 0.1648235350478594
0.8083474812712901 20.98050339180725 0.1478385957118807
0.6499654142604447 20.546040559723714 0.17251945384829243
0.5832548621959055 20.480933219689337 0.13042665111853805
0.5251313127415314 20.378006339029785 0.1726305580979841
0.5355953278463674 20.32278696262237 0.11261344750817945
0.4882969897046523 20.240586458543124 0.14133907182655456
0.39209137896108603 19.900615674116583 0.17495036800436958
0.4008268911890249 19.873081648902996 0.175219064900485
5.130671531163433 32.077477458802 0.1412096095244561
1.478500003394846 22.491899915473628 0.15009308745965622
1.441560143144573 22.392088380253853 0.14754153302599388
1.4128493372360664 22.36890701002453 0.1683218593156527
0.8776064315477139 20.943394745758738 0.15159488417207584
0.7938020707690245 20.653240897391516 0.1265974081385509
0.6779675362592068 20.560121750344074 0.12097979141479137
0.43187371140658537 19.861931400707284 0.17557812156541347
5.207781906394703 32.06249347711359 0.14114021787900577
5.200757421468988 31.911816116179352 0.14166928433229625
1.545521481908021 22.375351986626264 0.16117764094692594
1.4804692685273757 22.331109129962442 0.16454125891324595
0.9813661949910527 20.910231537530258 0.16568113237316728
0.9769317392044565 20.800031979140133 0.17387033697684473
5.040427232533531 31.278844454541215 0.1437203788681336
1.6052653455846508 22.334002494355957 0.15762806077148706
1.6117973804611845 22.30706037606743 0.17679763471813376
1.0112202455078978 20.86718650139083 0.15969181769993007
0.9886560612609698 20.804434143883217 0.15496206857668338
4.939338477461236 30.84300106413896 0.14521908978386228
4.849290950642292 30.45184901592917 0.1464672017216222
1.8064880079146393 22.441563254030775 0.1750085419768055
4.75202978144675 30.052343983187225 0.1478459800688094
4.600096169573966 29.4960240983552 0.14966821376857614
1.843944597566095 22.45613171419371 0.1747565304139706
1.827983873695241 22.43731210727353 0.1748905247613941
1.2328667716118407 20.635368354164235 0.1426456058729802
1.2156859258417876 20.62865110957219 0.16341830279931763
1.2798296187474543 20.591020242617535 0.16500688656785362
3.5457323946503663 26.248845482209262 0.1607246463836114
3.522150457839963 26.12178990171659 0.16112352911675498
1.3536897318474432 20.52307616073376 0.15519095176747988
3.5105284331557183 25.9053892309575 0.16185309113164126
1.4393442224164827 20.485769790387568 0.14601660424836352
1.4657734302511305 20.428904068098248 0.17498160156673664
0.012841599755112343 16.779186897059645 0.18653822390405822
3.608387153214448 25.879541370623112 0.16193294464781882
1.4845206865766953 20.4040984216293 0.17423677991907993
-1.1266024393037914 13.358606850469851 0.19327736753246483
3.7039149896984234 25.848751908457523 0.16206217293697195
3.696993042621674 25.678668137512275 0.1626825486190145
-1.0732808918694332 13.327229458224926 0.19355250007990749
3.6735259914548672 25.58019068886605 0.16300560774019063
3.64785114913974 25.47817507031946 0.163387302018766
3.6185880746814574 25.350494603594065 0.16382957054684716
3.5873650271152115 25.221369543474694 0.16427827043196402
3.5595737593132175 25.122206700425505 0.16464901685289418
3.541661738944067 25.0471118982095 0.1648979326737165
3.5167168645676727 24.940011737616334 0.1652944139438134
-1.0194432661941526 13.299558192781602 0.19384671204395998
-1.029751021896261 13.182078479850883 0.19414878597274848
3.487494425120822 24.82596130722656 0.16571403903415216
3.461215900295901 24.736882050057172 0.16601372503299483
3.435688859166894 24.564009515419485 0.16667938511921554
1.7546684549419256 20.170682602593672 0.16080690221356575
1.6927613001612478 20.12660319933515 0.1374883722887359
-2.6428353357699423 8.548652837246138 0.20296263871733145
3.5220820935847668 24.529965424458492 0.16695643238492047
1.849778471615438 20.124504597929292 0.16086770316288646
1.8666094551237722 20.067459725663955 0.136047848619616
-2.690788987081005 8.268645297752082 0.2036163939144462
3.6216365302062172 24.506667143822746 0.16725469272889287
3.064369853067272 23.149253952059166 0.1722009251945264
3.049309963850835 23.073148356451046 0.1725442459561891
3.041133483306805 22.997576143025423 0.17292595208112488
3.010347740672444 22.895959133226143 0.17337108782295474
2.999352570797366 22.80014086562337 0.1452310250775971
2.9741077344080793 22.702301021997265 0.14634204731337735
2.9460154628008732 22.601268889878536 0.14657284433342702
2.929369267684293 22.54948715058599 0.17512846557810596
1.945374131053224 20.11809391576271 0.1589043216384745
3.667548189227894 24.46030292220491 0.16756893650591154
3.6524273405311822 24.364907841606723 0.16797590531628637
3.645785556858387 24.268428650088044 0.16840839964411036
3.61455883487578 24.160071175988833 0.16884613848281166
3.5843083791424086 24.057053529500664 0.16926527531698993
3.5673194085767297 23.988368145149405 0.16954542618937457
3.5130141010570703 23.873641846909077 0.1699597899311584
2.9404648303237373 22.557024192601165 0.11978770004171084
2.9239270418208427 22.504082334469846 0.14854527267350148
2.8970232771110194 22.40804744276593 0.15194749987175632
2.8746890710591835 22.306589754750952 0.14921975772617427
2.85654668269409 22.208252520123697 0.15584327079196786
2.827856553833043 22.10921641085316 0.15881158318406208
2.805103700132526 22.015713151556163 0.15823079055101463
2.782768063133962 21.942175982270946 0.16375066128376875
2.0204991274732564 20.0740061684312 0.1609156214609595
2.225876854366083 20.27093116425008 0.1394505602456531
2.280133774606695 20.08188483428931 0.179483422245086
2.289386204229465 19.95651558380914 0.15427280564144286
2.264232905881615 19.862670883371244 0.1531434135885512
2.2388326995445382 19.77199883849127 0.1520776867107529
2.2170225918240174 19.66890813102807 0.15079833230216672
2.190932331014221 19.57094997803433 0.15200306199983787
2.169431219591878 19.47371889943599 0.1447074525430583
2.147594448834748 19.387505400562052 0.14330387889415014
2.138755008873787 19.342196495193335 0.15826631513749634
2.1252157873772415 19.301327107331584 0.1096294023495828
0.14606091962113776 13.035994198105739 0.1972479973685191
0.11465246916765359 13.028431304921614 0.19720483983176113
0.2014994219778521 13.02036544784395 0.19732762949731897
0.3034642842501396 12.997033389418249 0.19747521035685434
0.3885660300661937 12.956631257854959 0.19762635727734712
1.8830950817429897 25.365107962116568 0.3078966067320559
1.8635015776337576 25.2829216475547 0.30534387574973554
1.8378878989079341 25.190534727656008 0.30249382399092617
1.8136672569546533 25.08599567694813 0.29924821430970633
1.796785207090507 25.013492695085862 0.2970104230315153
1.7491659757064935 24.891143442011384 0.2933716915052463
1.5468633840198904 24.250621799979342 0.27452254531713216
1.5393357966702088 24.18714919524502 0.27257133143885
1.5195537356725444 24.11732892647291 0.2705652728310475
1.494920724804179 24.02168080258211 0.26780797835994075
1.2155986632660207 22.59303180922703 0.26411463423823633
1.1951233174262152 22.52145908674389 0.25574040676288906
1.1716539140792186 22.440735697720456 0.2639713395517297
1.1217448833645607 22.301805285204434 0.2717173223071475
1.1921773979207728 22.474517694679758 0.23106002800019565
1.1728740600544096 22.407021723471377 0.24157620586477419
1.1496316470633567 22.32548082990562 0.24951363453366882
1.1210859678346667 22.224490990936843 0.2631080250551097
1.0938181713404462 22.13311908971656 0.26604032443523185
1.067883574242177 22.037526880556683 0.2642030758745022
1.0444138011920874 21.93726617605133 0.262662654035632
1.015276907188714 21.846656551898622 0.2651705790013448
0.9861446452718795 21.766073128924138 0.2634170189465322
0.950663041566727 21.652022817608476 0.2652268456974134
0.9267323534686878 21.55306901380401 0.2704005234654433
0.9049768269006027 21.461451235450994 0.2660019476678813
0.8715600755480459 21.3707967741327 0.2741701622727746
0.8517009356983822 21.314843415024104 0.2771639877149062
1.3533251897845284 22.41811825931679 0.2692234632665462
1.3605518485474395 22.39777871530847 0.22386218135019698
0.9089550211513222 21.42075613898067 0.2800858075972991
0.8906188064916571 21.36134709218218 0.2653691796538555
0.8634498793531793 21.259546057665332 0.25974298356678227
0.8414904166808972 21.160803581600657 0.26355195215056926
0.8191181612874325 21.058486767554893 0.26248622230205587
0.8089316578233072 20.982611851682396 0.2530078973370416
0.610327791158918 20.49615307607372 0.2585442204913943
0.5844201583685356 20.400513830329285 0.25953937463129173
0.5615001254918406 20.304967583017024 0.2641649278125858
0.5415574065280635 20.22677710855531 0.26511693746325404
1.4640795119789158 22.429420464586237 0.27555250494517053
1.4184403307782518 22.362159462045323 0.25547958529792547
0.876415224721923 20.945858195061852 0.24972916824948854
0.8072933381535292 20.661064031496114 0.21924139355191047
0.5360863244740177 20.188475480155564 0.2650678262863511
0.5144918746498031 20.114622833956638 0.27133560484541286
0.48715941190701173 20.007878389633632 0.24411369104435632
0.46587965295734546 19.91271456809954 0.247418892892515
0.45111643914933564 19.85595970532683 0.24943352803261287
1.540253830536117 22.40604571564936 0.26089931192204363
1.4859661838339262 22.31683975425612 0.2654464329264662
0.9757787436555263 20.910889929330548 0.26040602294307885
0.9744207984801205 20.800663582758773 0.27970243459623884
0.9209893154032427 20.74189260122955 0.2975547250974297
1.6109299323315411 22.369098520057506 0.2563581524039976
1.0127355898355237 20.866032499511835 0.2416820644240889
0.9961095705489371 20.809425037077432 0.244338993704866
1.2119640085393155 20.62040693529158 0.24998235708737487
1.2411966152454488 20.633026341739125 0.2128126756245799
1.2756929936621975 20.598262163716853 0.2667987357899631
1.3419756817668946 20.551995938737306 0.2395000533060314
1.4628759217750968 20.467798407671367 0.26128602685856017
1.4694219668627 20.42619275278245 0.29031063326403844
1.48959138168318 20.444496333537373 0.22789622457451308
1.4815635063504695 20.394766243258644 0.2599723452663926
3.557712192321145 25.11640876051071 0.30817867505718394
3.533331328548957 25.026727904347865 0.3052663824190559
3.5143383187672357 24.949848951774555 0.30284000866253974
3.501396781028337 24.887789072620535 0.300882816210002
1.6964113936113474 20.16247628537236 0.25675726906412294
1.6101495494473896 20.08455809854938 0.274269345838786
1.62863503645542 20.05057161742158 0.2763953333328121
3.4880502900485446 24.82580221242086 0.29896404475607813
3.4517528464488794 24.714974519950825 0.29528904800961125
3.4365666215972985 24.564768845908 0.29090262417788076
1.755688011294166 20.173878388662846 0.25372363297700135
3.52324787423444 24.531276202676583 0.29145980569023433
1.8532869392050622 20.130274276508903 0.2504348845664018
3.6222488807051594 24.507094877016275 0.2926158989118276
3.07033677256831 23.158352132467385 0.2471401808190536
3.04443816133085 23.07210863052629 0.24447990766921945
3.0454766405439977 23.016231883953125 0.24318528624134228
3.014582712595838 22.89628234137275 0.2730455534365264
2.9975806849333306 22.794716991916935 0.27111245555827823
2.974171616438344 22.69976158090626 0.266670964175761
2.948804425291815 22.613156012811977 0.2476205980416471
2.932654603002697 22.553431056218717 0.23019314269848112
2.0412532292617205 20.268886708648903 0.2814128555608284
1.9820011552494106 20.15244273188664 0.26346326296098993
1.9462852047010082 20.132988213281568 0.24014425493185576
3.6664208761868986 24.457691311564997 0.29217244423534033
3.6511912318971285 24.346626238312073 0.28901839259007034
3.6410916126822057 24.259873610560476 0.28661990717052965
3.6191293872862884 24.17828501764204 0.284102439968527
3.5924172841210282 24.0802700567862 0.2810981476473869
3.565165679068138 23.994857336596272 0.2784032892987808
3.5165928695233815 23.878996578508932 0.27450587070349874
2.9470905765366373 22.57932870054675 0.2873392120001238
2.9233641255660108 22.499483156311662 0.25724913354269996
2.900538752240783 22.41102156190136 0.25049472961238434
2.875171729642678 22.306977198774554 0.2494497409363493
2.8534125654144464 22.20282180833507 0.25115777077333556
2.8275492278595893 22.11111802919044 0.26121260215951564
2.804530978752113 22.01773236562266 0.25528265657840615
2.784466329984538 21.943994061630804 0.2639823063993773
2.1936208757699407 20.39171133629923 0.2863304672982246
2.0849831473192793 20.26056417989849 0.28184939942533993
2.0233441767179086 20.127498499250787 0.2683115165065717
2.0294774007504817 20.10077392410935 0.23239589816448825
2.1316565018029623 20.054503064676013 0.2739110019953637
2.292604065190826 20.04947946282885 0.2756032989432133
-3.3989281632826085 5.380474920965465 0.21008254389236902
2.2875916456787064 19.964341734333356 0.253431811883363
2.263862630972093 19.86865498321059 0.26438571528148463
2.240151700090546 19.77516615697834 0.2640409513864367
2.216129703363277 19.67714965530453 0.27107692402584643
2.192118275637144 19.578732917638877 0.24468208519803974
2.169990690410531 19.48457856154399 0.24816085653289488
2.1494814943373575 19.406775842826555 0.2510438102821793
-3.5984983910972925 4.578626735742127 0.21178866176128425
-3.612409003186805 4.330680025201783 0.21252513948662954
-3.5330754957369424 4.368158012657506 0.21258855421565875
-3.451781656559411 4.311925528465487 0.21300482361772305
-3.3435120283639854 4.248928381049282 0.2134792941103305
-3.2607716450495072 4.208014279772417 0.2138404942022436
-3.207277568247476 4.16277350990919 0.21404602200233797
-5.056623094413932 -2.3626681146255137 0.22766280112448034
-4.8861245027873625 -2.3913075903159537 0.22814846410991435
-4.970907267486951 -2.3772607309890716 0.2278340016025716
-2.16822709132267 3.6466952178714607 0.21744181069760832
-2.1030729942497057 3.6440869576126325 0.2175939261313568
-2.0116112908877994 3.607243770363329 0.21777510629402402
-6.619906539546735 -9.252319021719298 0.24288132865822998
-6.504902176667329 -9.273751191266307 0.24308706963368687
-6.395412531837035 -9.301588171416803 0.24348833441419204
-3.716815697385691 -2.69743886025606 0.2311789931535435
-6.288847052864977 -9.321964455546656 0.24366668039875838
-6.186757651166394 -9.367710675470175 0.24409033995254997
-6.0766674263825475 -9.39650440064172 0.24427942178517859
-5.968954811046205 -9.420192462554333 0.2446422808494444
-5.748994102387148 -9.42828986911222 0.24506140866353437
-5.64073515820002 -9.957252672947401 0.24659136838864276
-5.538166507748004 -10.000298368668336 0.24676611964369127
2.0804341921933482 26.219965068149293 0.3347983301020251
2.140391047179206 26.237803593631877 0.335191012131447
2.061171198903309 26.138559146741308 0.3322434531131628
2.0423879476732174 26.05313578650706 0.3295197540972271
2.0237979014212035 25.965597451568406 0.3267672013591763
1.997274286992304 25.846197349407866 0.3229868449499524
1.9722954503206584 25.754650077450705 0.32011246051297887
1.9563885111319665 25.67883905093066 0.31773852784548295
1.9335171605279802 25.574058942406563 0.31443404214799
1.9112611820323504 25.487164316292922 0.3117139235839437
2.2407920914211665 26.2161138658603 0.3342318671060892
1.8969575336610986 25.431132299738856 0.3099834929291462
2.4655430180362763 26.477123025737747 0.3424556373028082
2.4365313463936125 26.373681757639982 0.33910012152335306
2.406839827956075 26.256123174675768 0.33533645578820825
2.340529187715989 26.19068344861215 0.333259593519124
1.2193861247811761 22.60210026045526 0.3554632687124502
1.1969231864953502 22.520323114797037 0.35227919507636835
1.1716079960936625 22.43605767532968 0.3462901187650698
1.1468969857252653 22.363047334768794 0.40559554063341896
1.243664875290016 22.611849464497144 0.3807943035374254
1.1693678037074418 22.402316915726214 0.3482794880977663
1.149196733209743 22.323784927029696 0.3569300203536405
1.124493992107031 22.23380631444072 0.36066605309108496
1.0935646237469194 22.133513927248494 0.3640613715783632
1.0668615288422099 22.0329764414911 0.36380411302526483
1.0469800833566083 21.934629091705652 0.3718946097467715
1.0208745042769491 21.839498180951935 0.368556753230885
0.9916569436054969 21.74959712740695 0.3641114423293236
