ply
format ascii 1.0
element vertex 841
property float x
property float y
property float z
end_header
6.798114982326643 45.9217448011906 0.6463175228924869
6.839277225530164 45.983050469794904 0.5852153567450018
8.107443524912723 50.752849112544524 0.49292412535913066
8.437464099243629 45.15515279993076 0.708006628177086
8.549139197476348 45.57368696560652 0.7198946388687334
8.347763522815224 44.84514083478979 0.7605748721589276
8.365285567004921 45.10456219226973 0.7488884282359681
8.45079553792253 45.24087682700087 0.6901239244648141
8.466635779290185 45.351086580978645 0.7102552626422812
8.478441460831117 45.4267766550247 0.6934157807835766
8.532801740941782 45.55726458404804 0.7135037614617004
8.542193023538506 45.6545833627903 0.6881464680186683
8.573599093187754 45.770346505786705 0.6826818096114943
9.883735563481796 51.007796445451476 0.6229374034172278
9.877889754845372 51.06610852994752 0.61401966077461
9.96136098357962 51.18747705332449 0.608163227102955
9.994667924259423 51.61054349740567 0.6273594871493322
10.012770549830424 51.64576540447243 0.6309382295130916
10.235968595326781 52.36401559506001 0.6031726530251008
10.258830401754746 52.400688195415064 0.5978399770937534
9.97941243962704 51.61158995002814 0.5886155595732208
9.980672959381048 51.66947353802233 0.5994340083056776
10.002168177105213 51.760385297358745 0.6146167205544156
10.040014941893276 51.864665991978214 0.6191971296450222
6.989248399325487 45.94571655548845 0.711264181813599
6.6364302298341675 44.926837863953025 0.7533548682411584
6.680075200815398 44.991914757868535 0.7292895036707132
6.947854935474442 45.85541822162698 0.7401069363913886
6.515969339860733 44.739683912789374 0.7554707741910391
6.8098341320966345 45.915305160868215 0.6588090885033692
8.37438933943444 44.349731741379166 0.8071938450466386
8.358451539299498 44.64393954276353 0.8146225232129919
8.363719712164519 44.97642398497464 0.7617300339739285
8.366766579846983 45.09513513803726 0.7807480536626065
8.409297718751832 45.19377579232355 0.7906600051558718
8.4335195563972 45.265031699574536 0.7795068135356761
8.455359235975509 45.37490651993336 0.7724801520351636
8.467108692472097 45.48444306083227 0.771140338695515
8.475974528856423 45.53654701643301 0.7674614222732099
9.894761387169837 51.01859328852147 0.6966025924028891
9.924022894776124 51.05728604023287 0.747126909487924
10.013367299478565 51.663538891142124 0.7158982953407681
10.171276119470035 52.22657960893843 0.7473449657206087
10.246685141441814 52.37348164462993 0.7502421234936367
10.259443359429909 52.4286500068791 0.6971074145168649
10.294371634253565 52.50139145102647 0.7505427472773984
9.991546173004156 51.619682964975766 0.6721423198755369
9.991972721288603 51.64246900244649 0.7456157390775965
9.975795691666942 51.75750441206194 0.7425848362816716
10.041180244022362 51.868232780444565 0.6896694077128367
6.572539853856721 44.683416766779985 0.8219652237201817
6.59683504935893 44.775875600738146 0.8040210388208465
6.669064466415057 44.899950195018874 0.8003254779763916
6.7033360047419155 45.093904218195675 0.7715195264619621
6.732882342599535 45.19848087028045 0.7724202231519371
6.783215344159071 45.424249360865055 0.7740963154607141
6.812320927283854 45.50751826226551 0.7818089772806035
6.826568847353921 45.5777868201277 0.7788559893753304
6.900183874008762 45.77998857572966 0.7662240208332025
6.500024863579872 44.665356308426745 0.777327192872283
9.932352591296471 51.067709728801105 0.7803149809405032
10.031378372170051 51.691802499775555 0.7969322548869818
10.09057558693227 51.77589542388423 0.8465355287921849
10.193133787333384 52.27335928952823 0.7882686821618652
10.303016365380525 52.47547877487278 0.7857973007523029
10.315695260624866 52.51461389279715 0.7920720042986658
10.015434296863098 51.810196884133376 0.7816427588969337
10.042825915919225 51.86982441060413 0.8029431724262265
10.093789039726271 52.092315573821054 0.7929968377807229
10.130689160636493 52.169396692685005 0.778650456703293
6.6102632279510605 44.74065914599383 0.922679097369234
10.189793011597091 52.38999983082956 0.8963214336930649
10.240061512985138 52.47960468066616 0.9152743387067883
10.294283398282237 52.57802144863738 0.9415250228098571
10.307520429315163 52.626157844141176 0.9431367665320437
10.15785094176577 52.35806575640261 0.8912174170196061
8.97282021317595 53.336852551029835 0.9189420092874173
8.93568527417003 53.3945781925296 0.9207912481959946
6.603252488268341 44.72761010563482 0.9785582978188593
6.641469857965452 44.81226759339884 0.992855905996474
6.677709134408871 44.898891701641 1.0177843843138799
8.897532955464102 53.441482517213565 0.9316418109597121
8.885940582374479 53.47421132417257 0.9430682716380503
8.452577530377537 52.17585459929327 0.9215323684984126
8.468139223549464 52.29044274989415 0.9386694547976588
8.539878482536341 52.572493690801664 0.93082599433035
10.313131925490039 52.63848144664463 0.9535684807100663
10.4039932188768 52.88345164740666 0.9845081541318348
10.458152167901048 53.08525553567526 1.0015367536276572
10.494054002730222 53.23180391875946 1.0190911465036632
10.486393330195746 53.315519864809076 1.028411216014438
10.366016168259733 53.246214121928304 1.0004866539200696
10.360618771306955 53.32594269891284 1.0128072525524798
10.300142163985718 53.40602981281357 1.0333896925906014
9.04239081571639 53.57403032316347 0.9706218975351868
9.062744762996243 53.70088077946844 1.0097142072490113
8.884159638821838 53.51387038377061 0.9574063798974417
8.850073425145023 53.57975792690994 0.9794674522462102
8.452044008042954 52.29242594412128 0.9697480153871204
8.474106906452711 52.37528248798847 0.9667003244191105
8.518491404661292 52.57330361587598 0.9657498096644229
8.538998509712023 52.64796737360297 0.9616976208057298
8.83391313526592 53.660638643634925 1.0168498339433685
8.843197137065452 53.70372247090743 1.0247534720868356
10.514245406299331 53.275006920808444 1.0427215960416432
10.528462476552864 53.390209989166266 1.0519315258000208
10.354405056874436 53.45625815551011 1.0460448341835953
10.340037296255765 53.5338475585786 1.0596139320010038
10.37087218028044 53.68032073353707 1.0837999548186037
10.476686317283331 53.97334606647498 1.1638183454088455
4.791000027809069 49.01358898087334 -0.2960265202384496
4.842104192147087 48.992791978440984 -0.28950123316253745
4.922128596793307 48.97274346555252 -0.2795587078646916
5.06170258959767 48.94141399277003 -0.2623098464430575
5.0002701540060785 48.95368912508431 -0.26987105737462397
5.63187586758491 48.81079856820435 -0.2934952246220585
11.220603345582509 63.0237245751265 -0.2943089678821671
5.776828607425438 48.77375891381822 -0.2706804849356998
5.712795800308671 48.789640677497125 -0.2807398307766183
11.261485894258506 62.97499995622974 -0.29322630518938303
5.8009875318995086 48.7659045576161 -0.2668708118084294
11.334426310619147 62.96340382021579 -0.29346710737893017
11.43248205989072 62.94313216505296 -0.2936783512816758
11.549486398638898 62.89511686622626 -0.29324300274377735
6.156613380798864 48.67779823548748 -0.2953529981186193
11.672505594242526 62.878192637714825 -0.2938004234477561
6.213389183615494 48.66373160684105 -0.28462535893210655
11.767685796103647 62.84481275668023 -0.2936454602131396
6.3066886228177435 48.64343986503308 -0.2670541402386307
11.890953094450094 62.821349188096455 -0.29403073829500925
11.840808061618159 62.82740218298642 -0.2937892201793427
11.963107383425832 62.80552148268525 -0.2942257714656816
6.5255973998899215 48.59307945629007 -0.2980860026950852
6.541254993232342 48.58191826369123 -0.29477436327676004
12.05695543513886 62.77238450110022 -0.2941041756418277
6.568956661908507 48.57612528614993 -0.2886851672900711
6.5867219196481175 48.51784958189725 -0.2861524368622259
6.589773492785783 48.40751896675585 -0.2891712891627697
6.562971531120784 48.34245911471656 -0.2977593684670653
12.157256164241634 62.75957875386479 -0.2946487257132968
6.613127299765983 48.40982637919283 -0.28389150553258746
6.591225743443364 48.315207997435934 -0.2929535555190294
12.253067330481679 62.72966010339391 -0.2946637582055226
12.348733696543743 62.70943989580757 -0.29497489151630596
8.727445983254583 53.12967666763456 -0.2817966142735075
12.447109474211578 62.69190021733446 -0.2954011755503586
8.78772622882309 53.13620788477537 -0.28309098913985464
8.700346792330253 53.04753326475343 -0.27333489419100254
8.681255104350146 52.96282389566411 -0.26469269142850393
12.5429165329317 62.65773404010109 -0.29532917994750457
8.88126551648831 53.11184780284054 -0.2818032994345129
8.489751294773214 52.1546534892264 -0.29855694416957035
8.472416433186151 52.08432582838718 -0.288947963937075
8.445521372239028 51.98015397648661 -0.2747332078797409
8.425132003802204 51.88480139681467 -0.2617596616065766
8.999052208613001 53.216924875458176 -0.2939171035108987
8.952669546300804 53.08212545280615 -0.2798329969937652
8.31783293934146 51.46140466428773 -0.296968106648974
8.300399556809051 51.39016627562118 -0.284896029309285
8.276295143977071 51.30385540056324 -0.2703360431452597
8.189267634536444 50.98070200370653 -0.2931259768895656
8.167172168892604 50.90461919411918 -0.2780116706080593
8.145932915548041 50.833625727264206 -0.26400100576703667
8.106165157113502 50.6583757340294 -0.2961703642505654
8.098181081983629 50.60986390006081 -0.28492700253456227
8.080096867085489 50.53378550308269 -0.26761899893881796
8.046030253254884 50.38631200757405 -0.2930198881608904
8.025088271378628 50.31502751649916 -0.27347266796955516
8.011377812721161 50.263055226235004 -0.2623365972938203
6.74289528679979 45.437256311258466 -0.2642510331379516
6.727653707983334 45.37597610179031 -0.2707264765867537
6.71017416884684 45.3091316976766 -0.27787284829720976
6.687937725616725 45.23144912207705 -0.28623752018431425
6.674625399010278 45.171533022601885 -0.2925467951538958
6.27652874948371 43.565799749537035 -0.26118541359306274
6.246487642840089 43.43790381096466 -0.27034854977774664
6.21530621163724 43.304152608511195 -0.2798714763909904
6.186959497716575 43.175732201258725 -0.28904007781500374
10.917165460647752 55.093461389263105 -0.2936715905285117
10.83958728773707 54.83869618671686 -0.2762226739563946
10.112278136229818 52.89346812803315 -0.29234402957440414
10.086714414426199 52.792089274271305 -0.2818979501966212
10.157763400334355 52.788739403416535 -0.2843591503690102
10.100391644100284 52.786459077307654 -0.28190486894051575
10.250992669829241 52.762176251233775 -0.28567570072387133
10.202728172004344 52.52326995933546 -0.2617403728511766
10.068785159409392 51.67218170559627 -0.292975102377173
10.051939582993601 51.60031156826798 -0.28331319248058395
10.023052816230614 51.48786121849247 -0.26806418273628296
9.90121160307674 50.99077726990892 -0.29283015582676164
9.87346893076312 50.9191013544889 -0.2799314680524115
9.831132726397142 50.82854073036391 -0.2629660605887026
9.75894033936148 50.50694229229303 -0.28588928242331096
9.735505363098346 50.416790090420605 -0.26811255703657755
9.6850602738098 50.19992236780719 -0.29262866938168713
9.665938686062441 50.11816220733297 -0.27470625615766175
9.654009705402979 50.05987025220404 -0.26234234567488185
9.612689820882412 49.92141107160535 -0.2890292442294
9.591441846814119 49.8465860129864 -0.27036346746916706
8.517737101161476 46.57240056350363 -0.27155287902716296
8.49367949794933 46.496836017380616 -0.28479131027213567
8.47285734170973 46.422474059153636 -0.29787357280640614
8.373669737136668 46.05213801531357 -0.2613662061617648
8.97976785252066 47.36800844739525 -0.2670181727175421
8.961795695347192 47.29643886266194 -0.28254660155980016
8.361078272875694 45.97730335988267 -0.27202375296780695
8.338968564295 45.82269834861527 -0.29401810885228274
8.952313422581502 47.251650867531374 -0.29250845138448256
7.9336366188726775 43.204226316381664 -0.26349263318797944
7.900491970587194 43.07119373088424 -0.2730019293978977
7.867615832626767 42.950173208061194 -0.28173091537960254
7.830765977397485 42.79961162032699 -0.2925093447123098
0.5848521824936173 49.524364234998934 -0.25265620679176176
4.556485580605269 49.071309810166085 -0.18680313973699755
4.673647833004307 49.03992662259559 -0.17631440280788516
4.781724887055606 49.01069389020535 -0.16665105139399114
5.085430547412649 48.92945627644232 -0.2592635609566705
5.170768139318738 48.91182850067305 -0.24876933235154897
5.238309930800169 48.89492399085684 -0.24042064489641785
5.333742880730506 48.87909947405139 -0.22877817566664133
5.437372835754966 48.85378006351303 -0.21602493461031488
5.535228545841086 48.83009577676806 -0.20401102772694524
5.627314502794497 48.808282814428836 -0.19274168813995257
5.7757446440433835 48.77613958727705 -0.17467052293339427
5.71855804095078 48.787568094981566 -0.18161231194059313
5.842154482975047 48.75845138066288 -0.20383053839475343
5.932721376337085 48.73755805595231 -0.24630075986758487
6.018354683670889 48.71380511262135 -0.23294836958590032
10.698758777106693 60.561167822430946 -0.2174744975463289
10.621107267061856 60.48418140440793 -0.2145753161892704
6.128563025080678 48.68959983256908 -0.21586924726229867
6.226384005976081 48.663310532645 -0.20077855044306053
6.328669647539528 48.637860068010966 -0.20053274851470781
6.421741113505338 48.615601568299674 -0.20816142407192437
6.5448480028158205 48.58777000260182 -0.22252781071849448
6.484261318756541 48.596965275888195 -0.2095723914687906
6.566511059621223 48.5774628758171 -0.21859294543511196
6.585653509150688 48.515895257705296 -0.21610696222636674
6.600935226006758 48.439846512864875 -0.2150340792897848
6.509434732981294 48.198788668092135 -0.2058020231133567
6.504406131147879 48.15873790251334 -0.24363356024784097
6.612557914309917 48.38690498742877 -0.21452791071651128
6.613936224668343 48.31350835265821 -0.21695788005573552
6.535558373810369 48.20927373872783 -0.19804555029935517
6.533025823371957 48.11164643936003 -0.20053751275162723
7.2776346710163375 49.48247739437019 -0.16654548807789957
7.289879977305733 49.47193972610224 -0.1627965847735095
8.663054029529109 52.88405338223102 -0.2566665787602059
8.63744667796487 52.77960742423055 -0.24601021554872743
8.61361056148286 52.68494864243191 -0.23635497073634587
8.590841851424877 52.577220581498715 -0.22541657078707858
8.568460382771617 52.47138452932027 -0.21467820001006166
8.54175862612215 52.375764470096456 -0.20493807491769522
7.389707096841295 49.44891684574108 -0.18460449726485104
7.38125128708515 49.434987928970656 -0.18473897362726174
8.515711395478554 52.26343660047535 -0.19355072783146224
8.491406047101673 52.17208433061572 -0.18428196641355557
8.462728582216625 52.05273626486289 -0.1722105895049355
8.44161727399803 51.96105528488793 -0.1629566173714983
8.415312901233685 51.852889397228935 -0.25741185446782533
8.396410184526935 51.78903443579145 -0.24873555670210906
8.370527207959965 51.67189453619663 -0.23285998466741648
8.349549249735952 51.59501675961281 -0.22246541346445417
7.5517740679047405 49.64273728340705 -0.17945322991102852
7.523017298542895 49.54908250509474 -0.16922197491723326
7.486729713743516 49.45895411152892 -0.16334399639990746
8.326223765584796 51.49758754542125 -0.2093261578230753
8.297879295663627 51.38064187507837 -0.1936055541713052
8.274086175059516 51.29173382390828 -0.18170799404442753
8.250209206343278 51.20063752880737 -0.21579350151809218
8.223324857531283 51.10711749406535 -0.2141598547736529
8.192134354860123 50.99558486399451 -0.2188552714225759
8.167056061480949 50.91164351071576 -0.20505630777242417
8.141084177808768 50.80506561247582 -0.21095073612894538
8.121419567028779 50.719475502621236 -0.214218025028499
8.106612912997633 50.66106815410609 -0.22999607726193821
8.115612361497663 50.67008789988405 -0.16542709527238922
8.09834864979402 50.6098642975701 -0.21053731111696983
8.073841355456615 50.502116982019416 -0.21563207603992987
8.052273952958037 50.410599703604305 -0.21085130994954246
8.025738988760994 50.31880818802936 -0.1964777682631671
8.000539536462611 50.221229604400456 -0.2240589851116523
7.972577292726672 50.1314434482734 -0.20168077195729164
7.953892611311325 50.01659267553544 -0.19442306832375023
7.926869964895692 49.925438411846905 -0.17785870060894152
7.905021162978247 49.8566242904535 -0.16347990965699272
11.893309134647179 60.179184065199934 -0.2169127887429137
7.913483246710458 49.86221417289862 -0.16369520524073988
11.985256146563794 60.13278549612106 -0.21648054023707874
7.475486214817127 48.23571332339516 -0.16134770469432186
7.463821466436464 48.18258568078667 -0.17100675357756986
7.440399797287652 48.08641299084285 -0.18959815685520345
7.414440110010377 48.00282627012733 -0.19691308199677193
12.092788397005627 60.121103958688195 -0.2172170160775255
7.409142286870293 47.96707677321949 -0.19969447046005417
7.390107135329304 47.886313503433385 -0.20589956028510645
7.367554463137935 47.8123600018024 -0.2220836379259494
12.145787809743105 60.08708566973347 -0.21676044979866585
6.848680119690004 45.850662155025724 -0.22046975796590687
6.821121346365406 45.7470620095954 -0.231462765840374
6.795880375409713 45.64356549042001 -0.24234991036477418
6.7656076880680756 45.54169145837122 -0.2533603001829138
6.754087776749086 45.48956380628695 -0.25878577288280574
6.619745728286626 44.955894651210045 -0.16196492290597403
6.601479871898565 44.880677477357594 -0.16731455598745354
6.575275727872917 44.76858041539556 -0.1752252898694914
6.542553166618477 44.63764890428764 -0.1845386291716891
6.521458001256693 44.5508030877998 -0.1907353728969763
6.499821381961691 44.462142823187044 -0.19702413821426978
6.479785914556416 44.37494970741348 -0.2032244464315571
6.4549303548637695 44.27475247868678 -0.21035553719936648
6.426776228505284 44.16510969543699 -0.21824242693813048
6.3985964323369 44.05344189468982 -0.2262168237370429
6.372459072212132 43.94524298423875 -0.23396826736798892
6.347643004879945 43.838783445005774 -0.2415239995987242
6.311522137359571 43.70245677366334 -0.2513835509943494
5.576434847691941 40.76212135995376 -0.16073867751126492
10.187000349333763 52.45799837439447 -0.2550997078841643
5.490059036981545 40.42582624335846 -0.1730620501909589
10.20283398233156 52.36579666379059 -0.24740187719083456
10.21417165771528 52.255716297935884 -0.23793786259285452
5.213976205146731 39.37806557557843 -0.21139378008645765
5.1681563929838585 39.08220794555231 -0.22194690167789766
10.19047009497412 52.15367481378415 -0.22767893964173244
10.165300288815953 52.052204803351984 -0.21742002483553421
10.139079172154819 51.953361468589655 -0.20736305567241717
10.121416011033524 51.87119696777028 -0.19920890730221996
10.093420601489578 51.771812904456446 -0.1890491747264167
10.071475971436326 51.67602260258313 -0.1795145726171331
10.04128798024405 51.57018728537119 -0.16871586838897945
10.031089103370709 51.510426552921466 -0.16296569268666738
5.240073338671792 39.06741672689577 -0.22173708019283458
10.000200231595995 51.38909280668113 -0.2548772459741909
9.97473029893298 51.29079483768939 -0.24160709972311106
9.947966674383169 51.18566226811801 -0.22749248852696766
9.925194783327479 51.090464543074695 -0.21486011156350782
9.900253987485431 50.99661286522223 -0.2022770881535882
9.858852270706151 50.89721396011433 -0.1878804222288609
9.8280768354455 50.799104449047036 -0.20571079806498632
9.808826490268842 50.71466388555438 -0.2039407806587704
9.785873858461706 50.61999847280472 -0.22916164913618509
9.76018050959963 50.51971347615557 -0.21270074520314933
8.687456919176944 47.69222921062707 -0.16637549821225484
5.343563155594448 39.034583586659004 -0.22194999719471625
9.748367913591062 50.465010975464594 -0.2040008485005122
9.733826225232674 50.40905244317401 -0.19490160723251046
9.709524144527222 50.321164520894946 -0.2176345763589701
9.68753614417271 50.22996801822139 -0.20361318770292955
9.6645341890994 50.120740787708456 -0.2117673297044469
9.639557869785852 50.01835490368462 -0.2183531723625907
9.612869301545913 49.926888445470254 -0.20257223567970958
9.58516131356535 49.826074909396404 -0.21333731533661068
9.564370962507217 49.73319134696122 -0.2169584111224994
9.539449715733205 49.64879494046526 -0.19922102960024854
9.519264054519358 49.58578297024006 -0.2086502360131472
8.716595928995183 47.68844772368517 -0.16899308886534953
8.758183818533885 47.61814148681097 -0.1888793411970272
5.434028561458556 39.01844184943151 -0.22172708444775155
9.538206466229651 49.622802915182504 -0.1948472431172079
9.51180479716652 49.53674214944472 -0.19446623848012
9.496058758408475 49.436780591118364 -0.18059266947752317
9.477011243824562 49.37287802246969 -0.16722882912036338
8.493458285628856 46.50409833275234 -0.1975761265984196
8.455337763157974 46.410172980950925 -0.21068175595236974
8.433688759562727 46.32118063726035 -0.22323854914217567
8.394875868704418 46.104899978021265 -0.25391442874732634
9.106264693537893 47.866335964553386 -0.1683264856054413
9.082519321478857 47.77294181079989 -0.18526588556467266
9.05938404153988 47.67789397153174 -0.2035242115157553
9.03408354178907 47.58174113637231 -0.19606289699879462
9.00811008019826 47.48625352476453 -0.21263156931870042
8.985602386207642 47.396616000358 -0.22152862058153353
8.960156475880787 47.29347029753447 -0.20070060918080335
8.9414772097043 47.235806965313856 -0.231704099597477
8.382719738107347 46.03535711584415 -0.16205914626224918
8.36945131925565 45.94034696828345 -0.17216785210580265
8.338817365396157 45.82818638634833 -0.18410093337436056
8.9541908545564 47.25665580822941 -0.19731649551130065
8.93491147607523 47.19198519160343 -0.2041488645862534
8.916556453463814 47.12470814522211 -0.2530387485683484
8.092818910759842 43.73365583643183 -0.22559193603212488
8.026638259470664 43.594429281086086 -0.23549726691472161
7.996431601809576 43.462868408510374 -0.24495199182231897
7.964768447019808 43.325554707454614 -0.25475696841843465
8.172583541331875 43.70538439004359 -0.22776990340956974
6.528998522203438 38.70144558342733 -0.22704738799065616
6.604488438210384 38.72456041442594 -0.22609493010928092
6.708187695567081 38.69179467779586 -0.22707603106929045
6.832240072843782 38.77155389699138 -0.2240147191559068
6.788399996306406 38.72607400929907 -0.22576925748946156
2.524557242646404 49.50941277199137 -0.15774728871728458
2.554496046117385 49.527327681690984 -0.1567032488926202
4.85297548807697 48.989588213103325 -0.16025237617468463
4.948164306338599 48.96353792377641 -0.1517611103511561
5.0693975621184 48.93262620315767 -0.14101200340303352
5.021670990351094 48.94483465930743 -0.14523845056330578
5.153038689912271 48.91486498586501 -0.1336696699603203
5.266682860877453 48.8924516267498 -0.12373834963531888
5.326603776771119 48.87634459585972 -0.11843543210638628
5.429869916744133 48.85639544865778 -0.10944467355742216
5.528217265769275 48.827558542064615 -0.10074549649921569
5.637240355042058 48.80626057403178 -0.09128648243792312
5.72320354463504 48.785500179213855 -0.0837917898785012
5.8310399543189515 48.7584182031308 -0.07440549487995948
5.928147379616441 48.734206998746046 -0.11748200999228972
6.027947406293299 48.71262145044658 -0.14407498003341737
6.122967406823837 48.68708063940042 -0.13262969257878998
6.226497339991924 48.66140335787969 -0.12023623169264298
6.318848367828496 48.64122652273363 -0.10925132858495815
6.465334176567783 48.61379926794929 -0.0918510667038247
6.403854981636205 48.62305241786951 -0.09914881847289911
6.533991434093198 48.59102320265836 -0.11462718943731592
6.485004062891484 48.601639656067555 -0.12516624181904373
9.468934841786034 56.16356927189929 -0.0780052798819544
9.413717222854011 55.945119553645924 -0.07114668565998312
9.35874204569194 55.714391905658246 -0.063902330560393
6.5764640552306455 48.579234679638354 -0.07876141155720164
6.590766259985968 48.51433498935532 -0.11079056361710746
6.606521205636167 48.44860937003921 -0.1274758040596717
9.47346666856928 55.7540798896125 -0.06589957161369464
6.662446983880224 48.43500093402259 -0.06974441821865385
6.648258474653143 48.390099158026516 -0.11010820414830018
6.619876798357823 48.260827518179724 -0.1196079897997491
6.554400380505333 48.18897508728378 -0.08655792777797809
6.546511558043571 48.111965925066585 -0.0894742680718227
9.748191593312592 56.13012363959618 -0.07909723672271259
9.567495144282036 55.740769577790694 -0.06619735794384789
6.7185961924377136 48.331392900946014 -0.11206062402853871
6.668554671667867 48.27485208600057 -0.07178957184189641
9.771114960627669 56.11587586607353 -0.0788418937924327
9.638523456385744 55.72302921892785 -0.06620855986342108
8.730517027653402 53.15081851648266 -0.13343182923286487
8.788986417216817 53.130148495700425 -0.13257852864619943
8.700946516593229 53.02760047950255 -0.12522927577808232
8.682197849999074 52.948625627619066 -0.119968332660255
8.655930109750024 52.846011899015394 -0.11313525267925899
8.630648387260791 52.7432536800546 -0.10630455914734374
8.614725983954894 52.67394166478512 -0.10170045518276093
8.592090962758718 52.56889631412911 -0.09474888358082392
8.563347063418554 52.453921051764674 -0.08711853304712497
8.542992176998997 52.36656498904876 -0.08133855081987194
7.401228015054786 49.44249371301656 -0.12197909209272309
7.383395264356972 49.43747086457344 -0.13954529895834872
9.034851529166954 53.36606041594028 -0.1502553632205276
8.881919028865042 53.101524243935195 -0.13158432874614082
8.523441155511685 52.2820534295761 -0.07574787043110806
8.498682140718973 52.185532774727754 -0.06935920662340064
8.475216904880686 52.07885755933274 -0.06232752482954868
8.421142496524435 51.89709313262314 -0.1564897455920782
8.393039172102418 51.776521326864355 -0.1443609177810244
8.367072854964766 51.67066401777823 -0.13373126388681458
8.346586782044088 51.58282521644138 -0.1249352777766882
8.329956982472927 51.535496014987366 -0.12019981531168018
7.546414945555255 49.645160243454605 -0.11599312184459913
7.5194412075366985 49.54860277864356 -0.10635004179265853
7.4918622586987595 49.45708207860996 -0.10871181402395681
7.471917133514369 49.389886090413114 -0.12915953842919933
8.998117786768486 53.19561486604873 -0.13885728801392921
8.954398897862012 53.08287997111909 -0.13112036570575733
8.31973402418527 51.47015178180923 -0.11367882353361712
8.298211980380831 51.3929823650061 -0.10599673601052986
8.274650313630893 51.299085432950285 -0.09667505125032755
8.250524069622646 51.19636999364277 -0.08651245199450404
8.220607995227653 51.09227425920057 -0.10584128258726341
8.196422404480948 51.003856970862515 -0.10562432218525503
8.173058217823657 50.91379413883504 -0.12117684324986994
8.143129194715593 50.80116973721286 -0.11710965516783793
8.119672844609042 50.705505292665784 -0.10474765350944745
7.663460472942589 49.611931078345535 -0.10298429258179981
7.541345232881714 49.401567895271825 -0.10357365765216144
7.528463337597412 49.35711581731929 -0.10034618258163179
8.122307125077363 50.69041134476304 -0.10268533056295513
8.100353510668068 50.599658061853084 -0.11997926032214005
8.079965133629694 50.506084083696216 -0.10905897353558545
8.05626144493117 50.413163009173886 -0.09603010873252742
8.026360743172367 50.307459854164044 -0.11595976055200063
8.000543807011711 50.21846983788822 -0.1196325954181032
7.970432642623828 50.1373678134767 -0.10613237750729264
7.953620369405475 50.02089702873688 -0.11031352287112414
7.927898183132532 49.925736056063286 -0.11113249091435634
7.894492288798096 49.82775242202399 -0.10758696705178658
7.870566598024384 49.76178776349347 -0.12154470191698247
7.806219713503589 49.626542333701124 -0.1140829131798876
7.733530170716608 49.5609634040189 -0.10856447733312355
7.927848404705315 49.89595986795531 -0.12850223865616606
7.900196599478669 49.820157190752425 -0.11995445433625687
7.874213738985581 49.733845688277285 -0.10483227528972715
7.8548672391133465 49.677087276588956 -0.11649905130510402
7.472507962801818 48.460496974768546 -0.12188848607134822
7.501682374443009 48.44899827573578 -0.10995778183583745
7.500130157574343 48.37747653272389 -0.11878260007811109
7.491280087559227 48.27943990679154 -0.10561760621394493
7.464078048860338 48.181931447564274 -0.10239657094352808
7.4380673666500785 48.08470942770488 -0.11648711001129822
7.415413562774246 48.00907850687638 -0.1297572392510191
7.410950066828866 47.972915571410056 -0.10890205898588867
7.3913457029178 47.889505323430974 -0.09584649067250554
7.370568711305042 47.8313951987589 -0.13083727706611942
7.660602307968918 48.09384457229376 -0.10267361385532917
7.7560993609342495 48.138378071175744 -0.09892519912799998
7.773762074292398 48.10614153581222 -0.12268932497951543
6.840636667593852 45.838359206160185 -0.09968285651056569
6.817143253065005 45.74239434126217 -0.1063926606423684
6.794252665649121 45.657520169862735 -0.11241654371913201
6.769581103029379 45.56698429428735 -0.1188443042052849
6.746818903585283 45.463274708769305 -0.12604789340351252
6.714769377122703 45.3532571821182 -0.13395050443081125
6.702542070667899 45.29693295549151 -0.13789014087006873
11.060604133392726 56.55797040903944 -0.10357164795391968
7.797921850649672 48.12023220985436 -0.07768496517384602
7.785989046460053 48.09455017981659 -0.10643228397890914
6.688076259936813 45.23516076484444 -0.14221004559195907
6.677289449044579 45.18046056522096 -0.14601186853645687
6.64725596300902 45.06761612706513 -0.15405896581738876
11.150861811356718 56.51960897926938 -0.10341357321194732
11.237768126753519 56.51412660655676 -0.10417866373697778
11.223395202148039 56.315099488898746 -0.09831570704561117
6.243582097661634 43.435950159622294 -0.06371904116223095
6.212281825813581 43.301973120910326 -0.0685012367921986
6.171265441135117 43.14175674692062 -0.07433914878741917
6.135517023523816 42.992497824895565 -0.07968926039718245
11.17289477802727 56.10138196933596 -0.09161733863722804
11.120221884689485 55.886304718842375 -0.0848879644772297
11.071803069293253 55.68655751978413 -0.07861731785793875
11.017692738732448 55.47611251167007 -0.07200716081014148
6.087659249220225 42.809359179460955 -0.08638072244870783
6.042505574504252 42.62960411179402 -0.09286404014623667
5.991409781376181 42.430738091040325 -0.10012840445466568
5.940974393416694 42.22963335255943 -0.10739182078030951
10.969424374475144 55.284687006011055 -0.0659801721930718
10.163660287327028 53.09940738121523 -0.153663099029709
10.144597543861423 53.01024828145916 -0.14775269843168662
10.11964494120296 52.908405950816324 -0.14094489329831605
10.098571012313156 52.817796441341734 -0.13490265336097443
5.892602675724347 42.02991313212792 -0.11466381783664156
5.837253028369774 41.807351615262995 -0.12270853605998103
5.781350929374989 41.57863519358896 -0.13105056811200136
5.717455413890934 41.32320744944572 -0.14030142977734375
10.154379051255113 52.78447198457379 -0.13430112567898586
10.115188827619322 52.78061821281007 -0.13306110586217512
5.646168783669427 41.042861045829675 -0.15056296190924973
10.250083592932842 52.75776160258575 -0.13519495492892075
10.200057652097826 52.51543818654463 -0.11934226083557406
10.1937196656069 52.46979526973181 -0.11643832317648575
10.213108193379508 52.384479537909414 -0.11191766675922805
10.223291012660987 52.28588036791137 -0.10637133363508977
8.52581706391516 47.840085362089575 -0.09719309236566162
8.512836627853927 47.81732856242187 -0.11107883339668027
10.216771315447739 52.244372429152484 -0.10374539196685195
10.198848985058566 52.181684867879255 -0.09952967211465376
10.170354468916289 52.07340767752217 -0.09234469133796004
10.142176101887483 51.957571219823215 -0.08473055058139968
10.11479852021408 51.85769834585544 -0.07808510878684086
10.10267713160381 51.786823466124716 -0.07359735552246008
10.06905457424677 51.67056601408409 -0.06582991522254891
10.054785731042452 51.60283702373126 -0.06148139873724986
10.019749634035946 51.46047291211874 -0.15803090418450338
8.583187738899298 47.86785753472521 -0.09900770342238248
8.522741486568831 47.81399956908752 -0.12982663856048535
9.996993257771326 51.38276526832567 -0.15010563164348018
9.97681643080666 51.2931905489268 -0.14130035762604579
9.947266096519488 51.18361255694515 -0.13031235663204835
9.9228237366817 51.08607063013557 -0.12065998190164515
9.901764742663367 50.99813210243305 -0.11204496071158047
9.837799488155273 50.86601556397064 -0.09739079723772606
9.826647641053551 50.799810232796744 -0.0912081285314264
9.807088027982637 50.70117535103704 -0.0977396055049658
9.784685856443273 50.61761314702116 -0.11226168119049673
9.760401396226944 50.51929744343581 -0.10115089802955977
9.735740769450274 50.44340452234632 -0.1278661754482713
8.650859273446143 47.83159676643365 -0.10315475120596662
8.690799420299705 47.73865704064848 -0.09169778627033642
9.726194308267932 50.39942194094264 -0.12234820843674218
9.706439232364467 50.3194469692245 -0.11218156568761843
9.681423504468 50.21615535789833 -0.11332835532702505
9.659729091656201 50.12200504597651 -0.11664856968409579
9.637568375507612 50.02305949337231 -0.10176981877037104
9.61514189969208 49.93063911917564 -0.09805120442358972
9.587532967235482 49.820510033080225 -0.12491644757402515
9.562401637021894 49.73010690088107 -0.11768473359557906
9.538642826652113 49.64849958408349 -0.09643853865875085
9.492741139329999 49.52268466951563 -0.10326565118645054
8.735033056417565 47.72074145193814 -0.09479436733800997
9.561993904662705 49.687998660390086 -0.13497460954558746
9.533724529966193 49.61325236111736 -0.10161460811214305
9.510985125918129 49.53680893663083 -0.11016715624900579
9.500524861982313 49.47985107370386 -0.13093293976691883
9.459097800246095 49.311700901734284 -0.1506425147586445
9.458578229022033 49.237150447642726 -0.10777223946574586
9.43417716605417 49.14500181016643 -0.10798848369985062
9.42322525283773 49.07796161210729 -0.123678092871045
9.217522242229197 48.258637153531986 -0.09098707616859182
9.18283003727214 48.156502021063396 -0.1013685335533353
9.157222626579381 48.0846758692185 -0.0966263890815779
8.500951361691913 46.56871958332672 -0.10565216627686003
8.480798879087153 46.49904380004159 -0.11294230094141161
8.448585533158024 46.404805313434956 -0.12281496994080368
8.428203425940971 46.35344281820019 -0.12818224628845848
8.406760867432428 46.197761712042436 -0.14476498102547677
8.394577388627951 46.10066221427259 -0.15509492570412603
9.225676081817753 48.23502517841698 -0.10036431971215877
9.191127542933202 48.15034137449071 -0.11043272889164371
9.158137298722057 48.057886864476245 -0.11750398219313916
9.130827104421519 47.972911796871536 -0.10959016084762016
9.107319658494344 47.87916759799439 -0.10197650038690026
9.081995956761867 47.77878129323135 -0.11364469673677646
9.05832873106193 47.67827421415707 -0.12778053560977326
9.03167757515895 47.57934187154933 -0.09108433700914155
9.00487278804216 47.48405106935271 -0.10424814805076293
8.982219390036054 47.38845793124178 -0.11704001439575124
8.958153785967815 47.29742354092907 -0.11637458808378885
8.932312632065427 47.20912974518032 -0.11011752454283855
8.337825042928882 45.813625318705114 -0.07681710293182867
8.931661180078068 47.19188846673406 -0.1124537982887159
7.934470396881441 43.2214424596326 -0.062407052241761955
7.900351154830547 43.07821759638177 -0.06753924280705018
7.866021800529202 42.94305452698885 -0.07245352040613984
7.83097143172355 42.810110512358364 -0.07721211873377262
7.7932379448005005 42.66138468506026 -0.08262612260999863
7.752958347496083 42.496989890452014 -0.08853389992521289
7.711121761012622 42.3267501631214 -0.09473779240668431
7.266586760517888 41.20082300395978 -0.13557600607827505
7.664927432295043 42.13502472314414 -0.10164286295623272
7.617748280236771 41.951492304026466 -0.10833837178495444
7.57484891621544 41.8098682685098 -0.1134245542269156
7.370446900465725 41.25552237976261 -0.13355088803746248
7.310286307597826 41.22131722749658 -0.13483500096395723
7.496367125309595 41.400804926458335 -0.1283392983164828
7.45839687364188 41.311124731223074 -0.13153696106059162
7.429424679399342 41.286810042561235 -0.13245416477400776
4.555410351454198 49.07497542375737 -0.04930286193739148
4.654670133653875 49.05728109384736 -0.04409889868432611
4.76976578548449 49.033760465786735 -0.03801660424467137
4.860720246020929 48.99923587748608 -0.0329156406870724
4.961956240750839 48.9665098581044 -0.027357865109376402
5.091451623758157 48.935604157308155 -0.02046733044690174
5.005666414979712 48.94809989103321 -0.024884988718017916
5.143319725342557 48.9178790803466 -0.017616562338273852
5.247235702785594 48.895245344176566 -0.012141042781644934
5.34730276684581 48.87399586186472 -0.006886297475792815
5.436295792391407 48.848636079461144 -0.0021157815999875177
5.532131593272305 48.82520109097593 0.002944174609970697
5.650098236586478 48.80437798365864 0.009033144361961499
5.766988079399271 48.77594051148299 0.015168844860247825
5.705459951081426 48.78708750238776 0.012001454944832755
5.827107343834665 48.75580637758901 0.018391071599201426
5.9353003167538745 48.731402539927544 0.02400511255532418
6.029257715405766 48.70967866673882 -0.02045136994885066
6.1226706180886055 48.68600370262963 -0.007698839427767611
6.218270871681565 48.66226155654488 -0.010945147951302404
6.336336264066825 48.634144042240884 -0.031031677332434723
6.437608074118679 48.61160078996998 -0.02242953593860632
6.546679380116145 48.58988326723271 -0.013234924796019738
6.519578485671602 48.5910882825024 -0.01549680042451609
6.578642406972792 48.57443662335672 -0.010518383034762255
6.5916119868140655 48.50862356972408 -0.009326051389693744
6.531381919565942 48.212859208773786 -0.015709464691115095
6.512017446304449 48.16712679689231 -0.017759865068823485
6.630713567299926 48.448973714397255 -0.006144117822675775
6.64568070101028 48.384222352059034 -0.00520713004664766
6.582466276882364 48.257057972791536 -0.011211701878120636
6.539934588859451 48.20253146135633 -0.015160150813098485
6.528925464561773 48.118373369411756 -0.017117565098221366
6.501075749019207 48.05050410690938 -0.020291868371338992
6.731474947014632 48.34033869627118 -0.0111900069694877
6.697036029146157 48.307188317677415 -0.0016310911951972883
8.732402069795103 53.15282628708987 0.016320790395617412
6.855751237102558 48.37163187375892 -0.04866035397922666
6.814280242928228 48.36511851605856 -0.053480217941553505
8.791123158997136 53.13576853737038 0.016482675172914563
8.704189149132667 53.054359485617674 0.019413554066170416
8.686168677412727 52.99123283107766 0.02140459013191763
8.658491417505676 52.86450236366649 0.02533349446982559
8.632194821821725 52.74161398581159 0.02913889075382647
8.609336084223381 52.6564488585576 0.03180560284862289
8.586972321279907 52.559175191075944 0.034829229066409936
8.564771945048115 52.45081816970416 0.038174241947727734
7.396754858050586 49.44513078443212 -0.050412749580792254
7.366485303186929 49.44178801060411 -0.032241198438123404
9.039249868398807 53.387224570604545 0.007394391264771746
8.884340013502227 53.10896969683171 0.016700587108769083
8.448218017565543 51.978628934633704 -0.055706879199796416
8.42273770576057 51.877864383695844 -0.04907097166468807
8.398877949574755 51.79418457076015 -0.04356135386389025
8.372709017378806 51.680895826939455 -0.03613580612740335
8.347725754954622 51.586002238772735 -0.029924288419833026
7.546240794707379 49.64461832169484 -0.009908297099078145
7.523027496678572 49.55142024387582 -0.006843424976738313
7.498434116623349 49.45811498532631 -0.0183599946851984
7.472205450083964 49.392246317341844 -0.015148257723420544
9.007044917982785 53.25420433062256 0.011574582842448652
8.956079489529914 53.08308970727777 0.016998612696616948
8.324718072057513 51.48422760676817 -0.02328456536049114
8.303309648585959 51.39892536557682 -0.017731557236140266
8.27951932008324 51.30728573341769 -0.011781343276856714
8.251065557835473 51.202720838390576 -0.0050174078403170995
8.221700211710084 51.09653770937987 0.0018166234091952912
8.19410132274445 51.005114399701796 0.007665509716811658
8.167208934799215 50.90366707515417 -0.02182853552079592
8.142846214411874 50.811597616420975 -0.014420390768947949
8.120664529978558 50.71812834221066 -0.013543724856313399
8.102679252710884 50.646449419762334 -0.03323733605658235
7.64076189461934 49.63038406873734 -0.006772617651002182
7.5499091467144055 49.38826333613764 0.012920999651121631
7.561996666310341 49.35517689865545 -0.019609308001216144
8.118440945831487 50.6701495541687 0.028883339835761978
8.097466195629652 50.60472772877437 0.007272125363184587
8.08021408470501 50.517124684969545 0.00620520329907944
8.055988424440292 50.40855326660571 -0.010748738630654786
8.027598325590779 50.30850945967069 -0.02720820221718186
8.005344637788335 50.21611397775591 -0.02069222180592293
7.9744101143628665 50.133731753311345 -0.010625949638313772
7.957384015584701 50.0154276150021 -0.012837518519174338
7.928715357216595 49.927984288740575 -0.013651716806145315
7.89915402490697 49.84289868726624 -0.007915841499136829
7.86543480570422 49.74577367044861 -0.029722317625090564
7.836028548427014 49.68634300001568 -0.024068696852291776
7.711004704453926 49.57797638731141 -0.041709046484064254
7.964595712686311 49.98838414153633 0.010973583653104723
7.933407611947203 49.90860059425164 0.03139485236477527
7.900371898273581 49.81718211602198 0.002989425441874925
7.874896718542403 49.73422301201237 -0.017484053434280895
7.849430259760833 49.68206637185506 -0.04585848567164015
7.473423958047496 48.46185923081379 -0.026059949163669136
7.503566589847136 48.447837192524716 -0.0075672512742451
7.5022957057996695 48.37891414035158 -0.01835020843982102
7.489490752223909 48.273927780638424 -0.0027337902513028377
7.46405664365215 48.17595898682753 -0.014952262568168211
7.442915968693671 48.08883347070343 -0.023621160358702802
7.417178042514032 48.010588584084296 -0.02991469480322267
7.43860416276287 48.0499546368726 -0.01979144300839352
7.42332368081213 47.98613325778133 -0.02646930700538982
7.397309481784829 47.89996435687754 0.004683419507705763
7.683795922514136 48.141714842669295 0.026599323881636425
7.756684507630879 48.149614951782205 -0.004408205716151299
7.775434808843256 48.104201633403434 -0.04479011340290045
6.8284005636892715 45.80589131394836 0.020848707772816846
6.812854932793024 45.73719197227338 0.01845856284565349
6.7919518639122325 45.642108866537086 0.015166476946358868
6.76913009854854 45.554911455364426 0.01206775280434923
6.74277729725401 45.45846206020686 0.008633810727652695
6.714683983943473 45.34064442755008 0.004488670363176571
7.799780817168177 48.1196789617902 0.011915121936694617
7.7915252641140285 48.09804748300484 -0.00957759766376691
6.6939323523456284 45.25060134372499 0.0013360619966646227
6.669160621321304 45.16702464893978 -0.0017135494495616231
6.650219646139319 45.07743559428305 -0.004833967314202802
6.625077409785241 44.97098811946886 -0.00858929870971302
6.605056971903704 44.89201893472722 -0.011431006113600154
6.579354367814429 44.80038635850573 -0.014722140325963248
6.551831512374484 44.68211647026282 -0.018929507088665278
6.524557462429446 44.561663213592475 -0.023209599441871686
6.500362715879989 44.46739126552187 -0.02657320769975829
6.47052287814475 44.358124690303434 -0.030553365391124066
6.447228103619755 44.26139645434087 -0.03398802338797093
6.420603689384558 44.15521633964168 -0.03782965637568368
6.396281518178608 44.05253305836701 -0.041477459211529885
6.369303854064672 43.94229266172465 -0.045465005871329865
6.335108415654213 43.813535846370016 -0.05010343311786077
6.305052020048058 43.69171947647602 -0.05451848256243395
6.273013186086949 43.562204937480274 -0.059157856862236506
10.875177980339403 54.98242793128059 -0.056299656532102574
10.838439190732583 54.83140854286226 -0.05156108668815757
10.175857170351746 53.12645547355181 0.0045745939784026975
10.144759143822679 53.007494204052904 0.008328974308858124
10.10074814542664 52.83979491603136 0.01360327934796634
10.153392163718715 52.79190000343376 0.014348092411072925
10.25357536628329 52.76280254662245 0.013971630148162804
10.319919734244246 52.74703987227115 0.013599691850314986
10.312211745958233 52.66312238465302 0.016047063637018036
10.250725332958215 52.45762519971027 0.02256471618535177
10.241778397978642 52.36447025859247 0.0252776803094569
10.218757556330043 52.27522140265832 0.028061222315503048
8.527666932733876 47.856251611047725 0.0020338563451401414
8.50511660293811 47.81107270169361 -0.016258570899165856
10.19558760813029 52.17392025852496 0.031168770150070225
10.169076023122892 52.06889172506468 0.034431770800973316
10.146296475449375 51.97603849984843 0.03729374197689568
10.045070705295007 51.56458594692238 -0.05896846429412116
10.024501629466467 51.487923684193206 -0.05392042659053724
8.589771801603291 47.869371705230186 -0.004400109360971701
10.003994448569237 51.39313952925249 -0.04784146516275942
9.97600195341044 51.29088514074258 -0.041115916217423006
9.94952032031636 51.186266811840405 -0.03432241700540054
9.928516181069861 51.09388224560027 -0.028421554454959055
9.906888764557905 51.00481819257957 -0.022709280549351184
9.854578636430466 50.88960006147977 -0.014502913251737925
9.832376532600847 50.81411512977033 -0.009552863273072292
9.811612701474083 50.71713943088304 -0.003495838966341403
9.787210708727764 50.61390465506168 0.0029953456894355173
9.761373922518004 50.5139713621144 0.009320116534749798
9.733882334130147 50.4316021925152 -0.031895540616956854
8.663698605212494 47.810001990791505 -0.01285657895528343
8.692331358178158 47.74943255132657 -0.0070191385874041395
9.75221197936282 50.46891012602597 -0.05970420598851572
9.732588029203841 50.40221328994678 -0.004468583031034549
9.707886481715787 50.313738661591465 -0.014010807214845367
9.686573622504644 50.22174360722564 -0.0064636672321719555
9.66481204644556 50.12406859869146 -0.0002378404749465374
9.64333180725634 50.028970892247074 0.0007351476896974569
9.613061361876149 49.91543051155135 -0.013881578498143969
9.586386851659245 49.82870831018354 -0.02652753817722423
9.55726413352756 49.730425191736636 -0.0191038966049166
9.534884450964064 49.641315632188366 -0.004438768450113438
9.498887292084632 49.53857502882351 0.0031670251593837054
8.740658431324492 47.75516658174742 0.011179112884042627
8.74735845718259 47.727263929327364 -0.016638849972425773
9.535809282347838 49.62201006935359 -0.010975966827249835
9.506214633195633 49.5346333245235 -0.00672520111497145
9.492578554816395 49.41470569688722 0.03213297589805022
9.463546932953102 49.32504898486714 0.003595465988917428
9.4584302612477 49.23665570531171 -0.012419109380767932
9.436628513577563 49.146599805730865 -0.02304661545026197
9.221438687755242 48.25287259545397 -0.033723226529609414
9.18310825305519 48.15482381253747 -0.041293965029121416
9.160829212212153 48.10299510025071 0.022705448912453255
8.492436652963718 46.59426378069884 -0.021581965360079197
8.468177612466237 46.51250128272889 -0.027271585590713975
8.437725087454423 46.42207413542605 -0.033566314594013505
8.41943990588797 46.36061843946697 -0.037862134419445546
8.40778007769782 46.24914284129065 -0.04583223395655032
9.191970583399979 48.14849565421351 -0.037196744843230926
9.158895433791166 48.058193616750195 -0.02367769333564979
9.133104237002168 47.96957049437082 -0.0063088987606034755
9.10400168199754 47.87155423013286 -0.012220007723391685
9.078350078508878 47.77632143730947 -0.026032072195304203
9.052458175311742 47.67622243129638 -0.022739272178382963
9.02766575734402 47.57926120634393 0.007929702732113906
9.00494961248108 47.48225172044919 0.004287383546841396
8.980145021770896 47.38565437226985 -0.00393924730779491
8.956850303786581 47.28994269430334 -0.007327891329714749
8.935008882734248 47.21966084885477 -0.0346535180015088
8.360079162070216 45.973797480719156 0.03725831704674391
8.947076649433052 47.239427116761135 -0.04541358563033137
8.938456429039562 47.21804912311927 -0.006433578609023201
8.091964255315586 43.7311382019469 -0.04416684311093551
8.02306934247737 43.5605993801272 -0.05017260928032161
7.996543541968343 43.47260861181564 -0.05335810822305722
7.9666831314262225 43.35494309049597 -0.05755761406745733
8.168673293004787 43.70094798018387 -0.0456059382541206
4.763730608514386 49.037268244739565 0.09148593351778012
