ply
format ascii 1.0
element vertex 851
property float x
property float y
property float z
end_header
36.602374678765756 50.69908989186541 -0.016351555840294116
36.54869646102053 50.64086136124092 -0.01670107509363508
36.47640209116326 50.5632210763089 -0.017168134514595867
36.765395720874736 50.855924051592275 -0.01579794678270141
36.70183900778425 50.796137625160775 -0.01597175342290995
36.640095356270876 50.73291255237725 -0.016269062270876475
36.92853630588712 51.007112789937075 0.03394260122011347
36.87569316857429 50.96327270484253 0.014600420353439447
36.8093641206817 50.894217231112684 -0.015756467761509144
36.97593638404207 51.07068124689154 0.07174267437209247
36.97691666578004 51.04365985302532 0.028126146306849287
38.24441770145289 53.67113426391598 0.03630718464577465
38.354150382213916 53.646192252203925 0.03477653723376575
38.321816475124606 53.64767473485151 0.0315581281844087
38.439504769314965 53.619594753529185 0.01722416230786658
38.390352253465934 53.62973892088392 0.03410491662959875
37.21950740278739 50.33507728336061 0.07574812893452718
38.52638602608388 53.59782927292318 0.01057752844253064
37.27494292513005 50.323863365267634 0.07475488928001375
38.61858125577362 53.57445338364748 0.008627029516714013
37.376400299367354 50.29749124609812 0.07305543790381933
38.716814860086814 53.549965873517436 0.0065649476760437225
37.47427386303465 50.27021215645226 0.07149284429019714
38.809131664156666 53.526568769126065 0.011715272133957275
37.532284249003226 50.261262453586745 0.07049935659310039
37.55625949780128 50.19841653734763 0.0708324281117308
38.91555816026195 53.49754587879219 0.03189311160051653
37.59808662089761 49.92337890430361 0.07349414498920481
38.97435903256583 53.48152311358127 0.03165898715741425
37.65022792211404 49.90804918165366 0.07271642557234595
37.74991571664767 49.8814369715418 0.07123512426809028
37.955550102819615 50.01715598000089 0.0659825241248069
37.851764840265204 49.854566509118094 0.0697633801519715
38.03573249244572 50.05600511925284 0.06417699453503989
38.002313665230574 50.00894463537461 0.06530089394464833
37.94348056099174 49.82299934308813 0.06856628531060235
39.455616345024744 53.44494056873817 0.030065405009370494
39.40594903839575 53.457851970784354 0.030258051645515982
38.10537780245842 49.95813101562829 0.06422897120060336
39.5650244931155 53.425433337764694 0.029670117445747102
39.62849212863115 53.41045827533451 0.029431454792058276
38.363358349677505 50.02410264312708 0.05943484830100376
38.271693572504375 49.886165370901566 0.06245895888685099
38.23281362222351 49.75422137089807 0.06464286536982711
39.71983867440407 53.39400232103637 0.02910363701390631
38.423920501724666 50.00670372553094 0.058741291369619586
38.35971942809864 49.867336970699505 0.06133170456783196
39.8397811218702 53.37007639925408 0.02866876196319526
38.52560369171699 49.836868356972 0.059235068404778796
39.92057383475187 53.34676613717317 0.02835882353175867
38.6519235320269 50.09445803418197 0.05452414048915247
38.58026235811953 49.84498515872674 0.05835816167077543
38.60695085663434 49.79435611367541 0.058554616103352664
38.71606847015143 49.88928787165347 0.05595632811555745
38.685515099185636 49.846533844174374 0.05685732191107068
38.65722454849815 49.758623986040575 0.05825539849696712
38.817374977935685 49.773662767643806 0.055879331436751445
38.970469042076374 50.020603591375185 0.0511960635358516
38.86119148760703 49.75353694605139 0.05552503852970184
38.964823958172104 49.69181879635277 0.05484125758837735
39.03157146785398 49.668660182880785 0.05423328615009643
39.08171111871028 49.61504358168644 0.054181315648726414
39.11569530476015 49.63158590259635 0.0535676317417213
40.744694437351114 53.24025207050752 0.025546458210141842
40.73091153554033 53.12441702096682 0.025330445328954204
40.723453427368156 53.05866296509105 0.025220780603020382
39.294707021114625 49.48109463741036 0.05295799214809785
40.73288515473095 53.0692853462447 0.025204564829092252
40.72592387670346 53.0465991802703 0.025183108655978087
39.382757223472886 49.46808368139239 0.05202721289568196
40.82531941498956 53.020494644464236 0.024827383039817186
39.50477593314792 49.39588994117266 0.05133294889934223
40.930561922300164 52.99297772346206 0.024436146747482984
39.59937009893585 49.34462737509371 0.050761455308723696
41.125686139689144 53.17010292845372 0.024203215633979563
41.05936287835607 52.96117446069114 0.023978621363836133
39.67812263444904 49.33106641333859 0.04999470173636042
41.16231121903307 52.932387600717064 0.023593818922749227
39.76719926414761 49.31098677414997 0.04919552482545164
39.86968789988097 49.292356430125544 0.048249731517296945
39.99976065069909 49.28269889556899 0.04694773316363232
39.94731638811428 49.28228441467377 0.04750919629744696
40.06798717781008 49.25999693926699 0.04644585466698317
40.16504012003246 49.212303020599464 0.04589368132420768
40.27224350858587 49.185821160964345 0.04504848992214805
40.3752698563964 49.153369964607954 0.04431559138131552
40.46781647023812 49.155135800996256 0.04339291976339882
40.60111456971696 49.16802020168898 0.04199506670236633
40.543982503895 49.16348510069208 0.04258061881274752
40.789376879234666 49.299534105457184 0.03914358918763111
40.688522333352694 49.13282857618567 0.0414884385040214
40.85903737122532 49.29202754823388 0.038586883698907504
40.77285800067732 49.10511561883165 0.04095247636392654
40.96042302560329 49.29500530631953 0.037683987671632
40.87949341352652 49.09266793816764 0.0400829594884802
41.06445267162979 49.30989227067804 0.03667644023397651
41.038166484691004 49.29546827605252 0.037019275226115866
40.926600174285284 49.0752019870196 0.03981760878739751
41.47203694417985 48.92939618783032 0.0363054778640943
41.43653258405803 48.93474997898062 0.03657321921808765
41.54639398229421 48.91406505168237 0.03582506776903155
43.09750662388322 52.614278124151845 0.01687951522849998
43.06670967629555 52.5469220710477 0.01688357276051322
43.06725151324184 52.485218839369644 0.016795360019281724
41.648883970259284 48.88582367410654 0.035209464853029865
43.098714878252686 52.41685326839328 0.01662703902938406
43.093602028627835 52.323152469788035 0.01656266744933471
41.74766117833429 48.862105630073216 0.03459839384783789
43.13616081498841 52.261983284523374 0.016371227835147634
41.862105039218875 48.826820199349065 0.033962785927905276
41.947736478528284 48.80769484037788 0.03343634418590413
42.04083395710106 48.779516503483926 0.03292662053499082
42.1278743578448 48.75988741631786 0.0324059238226401
42.21887759522637 48.73762219995703 0.03187972999707556
42.343320031317795 48.70461383987183 0.03117712271138884
42.296920977074784 48.7137536472175 0.03147465563165355
42.4131870401646 48.688598451426884 0.030784443047728788
42.521047520165126 48.65504384208002 0.030231307653204503
42.6198377449897 48.63280492418725 0.029670787006969096
42.72477062462215 48.605942182102254 0.029104781245267525
42.84033593998001 48.57350394296152 0.028505645099916016
43.585463044040864 50.18057065664831 0.015083354072956481
43.40395419813987 49.69429126727615 0.018793402977825335
42.920152400862975 48.55536717960448 0.02807791366979054
43.63090503369072 50.1983533354218 0.014755528330756454
43.60603273819896 50.0853083912952 0.015435027440494437
43.58233965565409 49.983870839856365 0.01608947940109179
43.54772735254842 49.888270479315324 0.016802343516984203
43.537154523341464 49.79205965637765 0.017389582371366535
43.478734862919026 49.71809822073506 0.018179231906541138
43.40511433732583 49.63457706939828 0.01912194403389378
43.41618267351853 49.5673079447367 0.01938135288177925
43.0047357683744 48.533868544121376 0.02762396273031542
43.51888287120158 49.713473610870786 0.01793606277914675
43.4599300406327 49.49301225031574 0.019491982706652228
43.43877401107164 49.4150574346181 0.01997261112112453
43.41125190454481 49.308558643128244 0.020642574365708266
43.38722364784744 49.21472665880798 0.021254373324217313
43.34128250474102 49.12031187305102 0.022010630135652298
43.10528182115335 48.50053389121301 0.027139275177372246
43.81148333671268 50.133948811977994 0.014019059256693098
43.215989020816245 48.47961079907872 0.02651962716140785
43.161203849655976 48.489160442476 0.026850063737645397
44.19130901868329 50.68580439854939 0.009845285974253215
44.18100400438111 50.619175912742406 0.01010422126021325
44.15916026169999 50.57247435912904 0.010405596549300011
43.29859269119976 48.46150461805837 0.026090009227340227
44.19205920488894 50.61433017763156 0.01009444482794812
44.16423535272058 50.513619723707116 0.010571287275831079
44.13509292327756 50.42551811778454 0.011054572194544227
44.10478984673434 50.32448935835409 0.011611980830260854
44.077750263598375 50.219690729300545 0.012191357209587847
44.05631901138997 50.12749990537405 0.012715396267860238
43.99278399456492 50.07103210928254 0.01333313564325174
43.40233637797979 48.42843104357284 0.025614841235590075
44.348969933419475 50.664718411919246 0.009154601351992683
43.493278236593234 48.408455852071036 0.025127024919725266
43.69738001009927 48.728063294317295 0.021973225235037835
43.67480933865784 48.67336472915789 0.022428826428116666
43.65130992590363 48.56930344893403 0.02316007797586525
43.62702666004124 48.46278734559188 0.023930181721771027
43.604117946991714 48.391215456951755 0.024507143496566547
44.55176566722335 50.61167739347397 0.00830057599035558
44.74583373545981 50.56385762108183 0.007536692641212553
44.9497309134205 50.514087726425934 0.006670295043004773
45.19337416902871 50.45077677190996 0.005719946735555245
45.442738841714444 50.38603567099834 0.004679998165441429
45.6965070538999 50.32175463400468 0.003688655200524568
45.94745940236268 50.26176410851276 0.002631759921940216
46.188681348215155 50.81093156635528 0.0003295717408740295
46.20178573538613 50.72240057541971 0.00043542460242208814
46.232706916611214 50.64345257039309 0.00042230185848106394
46.27209448123888 50.596151745310344 0.00037654211397215864
46.21598984635149 50.197583340706146 0.0015781725891481635
46.52968879648782 50.11763164499637 0.0002807108742236414
46.84607536866488 50.03940134136003 -0.0009540507838460138
47.649672566127805 49.78573843303449 -0.004087315175448719
48.18203567290102 49.63502125611034 -0.006134388837632385
48.29696860347215 49.63611541897936 -0.006713974475024864
48.34989420042681 49.66009705007721 -0.006969555417969106
48.85477315036589 49.52901311445811 -0.009019206102196961
49.41577864449645 49.383082792960394 -0.011192378549159984
50.0410041604415 49.221649014111634 -0.0137157929134257
51.02071627492671 48.94767109648894 -0.01748803970558943
35.870371811173975 57.30306408997236 0.1575433520508431
36.12305859600586 56.714705373767885 0.13755126804098078
36.13703665035285 56.7088549757853 0.1370114794634202
36.18912811725438 56.406432894130894 0.12895843404426766
36.155962532307356 56.3606292222988 0.12892267284608955
36.11056416942745 56.27563616141316 0.12841316625299107
36.06863790923019 56.21723273784607 0.1284024410558854
36.55165383404336 57.02437406431609 0.13275213187866539
36.527941949749405 57.01644641991854 0.13318318789909944
36.62163792108541 57.01379016293582 0.13069792712240091
36.72286442782353 57.00181085729458 0.1278483400595358
36.380212041483176 56.04813870984434 0.11571833932514702
36.82153378487115 56.99078610794488 0.12513562116012478
36.43077936757251 55.997096993846355 0.11318610168315288
36.46248981750961 55.96723980624862 0.1116464039442859
36.94989734681782 56.97567140437361 0.12166471625108527
36.895123605242674 56.98048106322921 0.12309714297001512
36.53303666774474 55.930005891897444 0.10887573163872816
36.04808840148499 54.54852846753906 0.11418988408374683
36.03997981751467 54.51894808352619 0.14957143354076644
37.02820965567759 56.96762461390446 0.11962219752832334
36.693419344701944 56.03296192672409 0.10686252436783447
36.64230435228643 55.95887166226371 0.10656165018305919
36.590260410208124 55.91803714621584 0.10704969453954893
36.092125532534894 54.53671999412225 0.1230771750716256
36.04023374983075 54.47438635259259 0.12153055064578377
36.015512836376786 54.37845059232434 0.11949518052489361
35.99029012463784 54.28106918858428 0.1184556712189768
35.96411004538026 54.18324408645598 0.11881354655370013
35.937604155958574 54.086057689203045 0.11819557127270525
35.911436007880084 53.98846447127554 0.11652354096991632
35.885047870488854 53.89097679761332 0.11680010046879019
35.86012316623925 53.79765230881352 0.11675528404344032
35.83240925499358 53.71018102001675 0.1082382633794747
35.80004826282866 53.62093516325015 0.12645963663857104
35.77105139968208 53.53847067346761 0.14417414941967285
37.12978221894415 56.9569531414915 0.11701675004818402
36.21497559739193 54.59435436737905 0.11653281993007616
36.18609544693494 54.54100718445893 0.11460521526496434
35.86457338479821 53.76969555673429 0.12404206794053246
35.8369136410437 53.69094563450281 0.12403253643781498
35.80912002517111 53.59861210147908 0.11545066587407804
35.776142239602514 53.499767212271685 0.11775974476856735
35.75344314769957 53.41566477673341 0.10905342371320331
35.723292119006494 53.313482830825876 0.09438019535366843
35.69084270508291 53.21676579226923 0.09525208441007815
35.676795365741626 53.11903617812448 0.09549527689932841
35.65697398010095 53.023190926353315 0.09605913542252917
35.62355445806431 52.91912089024687 0.10975343191375209
35.60240946203739 52.832294558651576 0.13143211216675477
35.5687742720112 52.736928987730714 0.14722186250131172
35.551261219668724 52.680200496130496 0.1652520399642993
37.21274391808572 56.94778234843505 0.11491605634507782
35.855389439047634 53.4184140280824 0.08971005386849532
35.81218242126176 53.08785777142376 0.14142781793640316
35.64569112917232 52.915358126119365 0.15518051505810768
35.634003317683025 52.80585444386953 0.12682801809547536
35.589166209682894 52.70505219050285 0.11687285050251459
35.55050812255053 52.62106727276969 0.1497772436527092
35.52802950489292 52.53141005890123 0.1323595797466955
35.50993379197355 52.435039282663936 0.12561566312576972
35.48007430562823 52.32971642110515 0.10347302306770362
35.4437048867472 52.20253470242685 0.1052830995839922
35.42802813503752 52.1293233507731 0.1061726485509232
35.40585303546267 52.025859279151376 0.107462254602747
35.38026939173786 51.96639423707581 0.10867008953612703
37.24737082960997 56.838042434131495 0.11165520453960207
37.279334252900036 56.72387124293675 0.10834428282132319
35.99218884551243 53.4083918359246 0.12702922899143435
35.98471676783554 53.300396295267745 0.12759452816362687
35.83710397112236 53.11671280888384 0.13937812344424547
35.831210104725834 53.061553219924576 0.1403086788238572
35.79665309698549 52.98399380947804 0.14361935857503946
35.83512835150802 52.89225608087209 0.08910685873971269
35.68537428266188 52.53761659797061 0.15899879517691753
35.609401073156576 52.287867280144454 0.16995151183735377
35.421020729754645 52.04661521414074 0.10682137875770625
35.37538954482673 51.92940281796567 0.10904272644967106
35.35727639397323 51.84384991155508 0.11016115623857353
35.3288086640093 51.73851222601126 0.111778352956629
35.300737547958946 51.64766576079049 0.11331638428018137
35.27829425804578 51.564642998312685 0.11462793514864561
35.246173456156725 51.44055044344651 0.11656603618159106
35.234444705608944 51.383387479517225 0.11736903373330321
37.362194379489864 56.711008271195254 0.10624453318427654
37.31206519116691 56.70462791259297 0.10719440486024504
36.49543516152023 54.333230351423246 0.11428311601681032
36.077895481097734 53.4013257120667 0.12063556693245092
35.95399833690581 53.075370879684094 0.1313450929516931
35.91452655506474 53.05556345093141 0.13438922030438896
35.89764802555954 52.915809569137586 0.13742453947072755
35.83876034570384 52.62286499397701 0.1469980014463891
35.65588281518883 52.37602283769007 0.0969465525828197
35.098621364034706 50.83164131204147 0.12614261577138294
35.08635973267451 50.751716314245776 0.12722098359006728
35.060071711431995 50.68168438009935 0.12865102050575497
37.45371652449098 56.681811989408956 0.10363171118399297
36.59474775747725 54.323532610656365 0.12591007872896637
36.551666956403395 54.319050721249084 0.12508277041238797
36.13473737016409 53.34496445325775 0.11642008973315138
36.073878131655526 52.99986238762202 0.0799737622092708
35.902353452885244 52.609577249037194 0.1237948652673859
37.550241940205886 56.65475314800952 0.1010222254113641
36.00330890048317 52.589006386047934 0.10515101855633252
35.799448351253226 51.95344090424376 0.09448465963877878
35.781061000083476 51.915568629424236 0.09537515598745427
35.74549601016398 51.80988653442141 0.09734901897064618
35.44797855073329 51.09477497961254 0.11284911542645065
37.645718219985326 56.62987220336495 0.09854052630710039
36.813302670317725 54.454088963872785 0.17522099008211603
36.81481564111569 54.44183245621645 0.17366340589994397
35.890072769440046 52.1512316028122 0.11674175172355003
35.802833207987405 51.9239073318231 0.09459528996806693
35.761311091737944 51.771372544311276 0.09714111814804183
35.76248559475265 51.72883218974403 0.09744891988162768
35.511167762422204 51.03973249923151 0.11139476422529171
35.52326577543955 50.963302569394195 0.11173402855088158
35.34613059442795 50.59195928868599 0.1206592431945128
35.44362374554746 50.56848470401021 0.11797774296337829
34.61351023217932 48.40507636575053 0.16450041223379638
35.5123732711167 50.52014970359433 0.11644376248372296
35.488234426875124 50.388805306644514 0.11850514015326741
34.7150143150173 48.41065171607977 0.16157931430563374
34.72458662242673 48.39133271005736 0.1615268556751119
37.58567149858767 55.60323554830612 0.11764146458872338
34.7860597179201 48.37461744732529 0.15999216893497395
34.80523477103726 48.30041692547399 0.16027898638142554
34.557247376999804 47.62292067777496 0.1746382361948665
37.720028625885796 55.62843947276854 0.15040829072252984
37.652170160284754 55.57915506504624 0.14833571632397588
34.62954659565875 47.59623430566987 0.17297050210845907
37.77483828524936 55.59800423940004 0.14822579291884533
37.79164483199593 55.56446273666442 0.14621808099691677
34.72863064150162 47.569898890078704 0.17058655573302425
37.884471202323326 55.565109187810926 0.14566424029514294
34.82702763875099 47.54733239337309 0.16821310656909447
38.318476816065846 56.288333843760356 0.07927370165781555
37.984452378899306 55.546248905281956 0.144220863696954
34.923406914085255 47.52072011603561 0.16597602472258857
38.33802816747386 56.28114039909352 0.07883310137149352
38.04465026570684 55.515381736839785 0.1424248582082062
35.021083297668326 47.49618987075899 0.16371296701378837
35.11734504858359 47.470986672965 0.16152044862989276
36.44703086431637 50.54322369822978 0.0909103382410735
36.39954178970264 50.48689734433751 0.09279218763482919
35.213896662460115 47.447789367451136 0.15932891010888037
36.599650345925646 50.697544567508245 0.08523574286310084
36.54645375779516 50.64174115241208 0.08723011439291678
36.48213396290294 50.57478328148969 0.08964672044965172
35.332662101900866 47.41907008146681 0.15663763578754927
35.288413954431725 47.426453286876814 0.1577028990114602
36.839890530250706 51.0148170664466 0.16486728701947764
36.83077423887113 51.014130567784406 0.16516149827755025
36.768232377806214 50.86927718108895 0.13076056967248917
36.700500289720075 50.801768927022486 0.08150520679455298
36.64009842443561 50.74438307532287 0.0836736214737139
35.4054683594056 47.398244984806965 0.15499065162182032
36.91183634694975 51.03092828020073 0.16213169045817735
36.83788579919353 50.946363119310824 0.09136523494363707
36.80368899081944 50.897414094937936 0.12461152141440196
35.488738913278404 47.366733679529275 0.15321421580508623
37.03567115040315 51.06740172777761 0.15722979286436825
37.0013926379494 51.05332972461876 0.15873707923366334
37.11031113963563 51.091079645922164 0.15433922137050357
38.23586453811783 53.6739101779975 0.13374146508957227
36.94766013750631 50.18816851611467 0.08341115119053755
38.369201414210345 53.64340713179877 0.15589794423060346
38.325963138558976 53.64898323970834 0.130949354848155
37.07657446741396 50.372004787030846 0.07829396003873637
37.00968350697887 50.26026173634019 0.08114378633251301
36.97580127779841 50.17686140992551 0.08293311305749143
38.43663176988322 53.62151085632732 0.12169370407860006
38.388231739681935 53.631612814093714 0.1369284167549336
37.19162220793913 50.349983035327156 0.07613675551376056
37.162451842414974 50.34924851423706 0.076757120670985
38.52741458902926 53.59923239225698 0.12745864977202895
38.62247076695956 53.5748741127741 0.10667332711006694
38.72398525122476 53.54922892286644 0.113967996235769
38.818773255411465 53.52385521986581 0.11296568686571729
38.91576560742465 53.499453447463345 0.12068329533305913
38.977477418965584 53.48309546107235 0.15463648757706386
39.07939321162119 53.47871759015342 0.09631095441070739
39.443688359954024 53.452059561641576 0.10784614276253573
39.534858149569246 53.425686587004414 0.11069665991288352
39.61309329493044 53.40622897820021 0.11315692545677983
39.70239067557432 53.3898200201948 0.11597691782385153
39.82744671249298 53.36975465443026 0.11993395587829456
39.91047398575831 53.35108759384247 0.1225603912654761
40.73977255787635 53.28821049398565 0.1488672690257877
40.751831230978645 53.22792984318303 0.1492711382300775
40.727321946595964 53.11311592315144 0.14862361923156844
40.723574165547134 53.057553639364784 0.1486243246229074
40.74533930304687 53.1037386135554 0.14920726798315523
40.73594152988744 53.044119310416825 0.14904132790829291
40.83131448701567 53.01850649971638 0.15211955902689175
40.930557129664344 52.99179085720354 0.1553086241543218
41.12231091140119 53.16905605612653 0.16104211045479647
41.061263681188436 52.95967761945863 0.1595212600447066
41.18194604939236 52.92820528062966 0.1634029565574999
36.16819213757826 56.426469719343885 0.23782631522534473
36.16969922042456 56.35157919259525 0.2336930740127027
36.11914417181541 56.255271074437275 0.23057720037653398
36.08587115416788 56.22234452807081 0.23021862722112077
36.543190931457254 57.02122752818994 0.2574004650644237
36.218208078275104 56.36373280495647 0.23238465590234322
36.61309612200663 57.012161368321216 0.25463933773795033
36.31259280912106 56.13873776510155 0.21627422974434554
36.720247539925964 57.00171842344862 0.25073118266817573
36.35694997569585 56.051589963560296 0.20973418419823117
36.82513125228465 56.990235762677415 0.2469904013460302
36.4338327004372 55.96302832878816 0.20185136307941245
36.93493151522929 56.98056763382404 0.2433871738218307
36.88662508441107 56.98210267687723 0.24478932465915562
36.56256494168026 55.94712248099419 0.19613956895196796
36.51027236948677 55.93929433082891 0.19763015543535842
36.047661549867755 54.555088365826485 0.22508576708534608
36.03057317024134 54.50672030234885 0.2362015470315483
35.99348243084515 54.403480629426454 0.20089961135157433
37.01392623478979 56.96419913631984 0.24036879544264225
36.6909593000928 56.035705988225345 0.1966638520001394
36.62944360681398 55.966745406008236 0.19487189306918593
36.112466253711474 54.54442687474269 0.227524778119955
36.031625660641325 54.473600391756385 0.22824672081418493
36.001157200154076 54.383937456062654 0.2253146429713154
35.975115022961035 54.28782173564208 0.22211269244269952
35.95222586399211 54.18949883434263 0.21904803927404135
35.92964658002398 54.089442058874944 0.2164507180840908
35.90524865592133 53.99031683658105 0.21481970192670455
35.878657612019 53.89347434056855 0.21429016459181996
35.85172654932957 53.79790737310519 0.215189028161588
35.82407428387689 53.703940730827256 0.21307829831998074
35.79383082260518 53.610786095659364 0.21618085343583401
35.75924346166486 53.51887655937263 0.2129776985671725
35.73826833917831 53.454093802724856 0.22399025239394002
37.145394104539264 56.945560586441374 0.23605772004863582
37.08200775946015 56.90448391863124 0.23521347490041897
36.20459745830124 54.6017626767444 0.21302320679013156
36.18430220619002 54.55144069994754 0.2199516534732762
35.831289282237904 53.6852121666504 0.23093131452468355
35.80011313149459 53.593392704754095 0.21900683387667977
35.7662805543982 53.50155930119475 0.22569209345016225
35.74680080688701 53.4431468555532 0.24239116963323562
35.68269301139047 53.18355806856596 0.24216752761986873
35.671897656670986 53.13065915058365 0.2319050462436633
35.645728811437294 53.02156959803023 0.27015620773856763
35.620397509870166 52.936831687172145 0.24021392325262073
35.590033851342234 52.82983493911753 0.22231133201518374
35.56125241546492 52.7241699887308 0.22838335585061673
35.52513904933638 52.625764358756506 0.23528131090223328
37.216189753442734 56.94378290441917 0.23431941452474772
35.798488011863896 53.13618550319053 0.2196722499723864
35.77014529940871 53.07549829193674 0.2084789725593049
35.7443068020142 52.983002387180974 0.2023850197771935
35.64582001496816 52.91819108067084 0.214200792963638
35.659693462876966 52.808946649682944 0.2157881780798724
35.56573294903239 52.696437215052526 0.22882872593567502
35.53988051449737 52.62890794254582 0.23369581013906746
35.513060094161744 52.528998614434435 0.2399752767641181
35.493482740540664 52.43564325256221 0.24553974794562763
35.46273318549974 52.33340157035197 0.2527578512770363
35.44418051912245 52.240789295377795 0.23570114841825687
35.421205365214895 52.15144914738491 0.2648664319831373
35.39742285330715 52.05378121086266 0.27174194713745103
37.249908693921725 56.75951686331754 0.22294756382704936
37.28257077514727 56.720968409036765 0.22001215086452566
35.50096788967771 52.22550866129676 0.17844064623854436
35.49131168087469 52.11689090742431 0.1819270384852877
35.445035933948446 52.013825062285484 0.21510418160179937
35.42413804799053 51.93728466577976 0.22259720831535026
35.41551442694686 51.8672711377843 0.19370899759887542
35.327386400161835 51.748411922495926 0.20255909247129192
35.30381334230954 51.66204663946812 0.20660625471485408
35.282633357012855 51.57440653036947 0.21060023631729088
35.25149898218548 51.4445328183626 0.21658024279653534
35.23304093388079 51.380126790681786 0.21975670251501403
35.20634672660066 51.27371770810691 0.22482166187998057
35.17832206669116 51.168751912069354 0.2299600741416666
35.157558601234925 51.09346780072769 0.23370611327072885
37.3761770967412 56.70350662391307 0.21708725116129404
37.32686335763507 56.712380937181415 0.21859166324733117
36.48180937188869 54.33077943986994 0.21288826657632667
35.150117157408864 51.050329421339484 0.23561847083311824
35.127057412343056 50.96802091243965 0.2397707653393463
35.08095247650138 50.77687417223969 0.24909126624827413
35.05857044184066 50.66671392970988 0.25429166819211035
37.45711190413189 56.68352380454506 0.214400748134814
36.5481591394594 54.30631942050511 0.21812966070164683
37.55379005472744 56.6566734069451 0.211172324016526
36.649396086600376 54.34586893801316 0.19413235576307744
36.01057774767464 52.59670039662363 0.226078357003514
35.88737787257151 52.16372913453491 0.22364576664221766
35.447502091407706 51.091889900275845 0.21831214670112112
34.15506381398568 47.82069844253715 0.18377345474123488
34.16984063913914 47.725537320369 0.18435973353964943
37.64939295157088 56.6322148534488 0.20826362510960825
36.81427554049285 54.47921772308589 0.20800545867950518
36.810548074224414 54.43757547218232 0.22495010342105762
35.889699352106796 52.15189536725831 0.2241378769595326
35.79369296985808 51.74934774213205 0.17603024956785138
35.767789449030865 51.724365658773365 0.23254763111473928
35.506427728141915 51.039698954211566 0.21727907855311276
35.51584404572321 50.959243458142566 0.21989739970408564
35.34691959906034 50.590378521852955 0.24259890971354045
34.21476100051529 47.71277734334368 0.18319911808336223
35.443715623986584 50.5654947808955 0.23893010860489214
35.514871453048045 50.521330129787515 0.237379209726553
35.48732575384371 50.38369697776231 0.24428309707938403
37.56958751308701 55.66620593168142 0.2304985505433262
37.59712135245706 55.60937015933884 0.22511268271154036
37.72747726310897 55.64962332862702 0.22827006072890096
37.657170413350144 55.59191057580179 0.2232241912494113
37.793051219913565 55.603880564894254 0.22417667380822273
37.88662809602217 55.57681515256669 0.22210408388006667
37.98440554782475 55.549838158466926 0.22047473807720633
38.054285953500326 55.523000113317465 0.21890498181370746
36.40044703668741 50.48450833400216 0.20334711677034875
36.35611676526882 50.44503428956153 0.20668233991288346
36.61550807704115 50.717532896573886 0.18550075957319065
36.554586814759546 50.64894710484652 0.1906320253011717
36.47719262440736 50.571002218308436 0.19677652371093693
36.844920565800976 51.042386734476146 0.2520700977105006
36.771714784358664 50.86334393847235 0.26917354072176003
36.710525619726795 50.80896390731055 0.21702090798177778
36.646290986694645 50.74288162125308 0.18335477033367667
36.910462110691384 51.046147957049214 0.249665640111194
36.793624014355615 50.882774135023176 0.2668336919868992
37.0341966081425 51.07983375973253 0.24331441218542063
36.97256236423557 51.054559016958606 0.24709643921460275
37.10714918224918 51.092853982512494 0.2403694717289552
38.23861863430574 53.67096310507116 0.2220214152754816
38.35785508473773 53.644930719544135 0.23639951189960454
38.325027924197066 53.64883024135588 0.22455699730648135
37.16786831323347 50.55346751359564 0.1786226577068558
38.42390383438718 53.62552293998099 0.22265277122730756
37.265055873239454 50.54018166777966 0.1772679419713852
37.23265076418186 50.53935396990971 0.17794626316433557
38.52261994797635 53.60162578809089 0.2420130818679809
37.34535191325747 50.510547230845624 0.1771604360911753
38.626292646953935 53.57474596129158 0.2155545702509313
37.44185136037882 50.48317750443306 0.1767853850811499
38.72017845262177 53.55057877881277 0.21423683448182576
37.5411054512468 50.45343656518503 0.1766361444793075
38.808955366555104 53.52662843177559 0.22756610097637595
38.91726994525452 53.49938038105695 0.23697839810572693
39.00108119206334 53.47884375704972 0.21888503866748935
37.657775981709115 49.96223323827622 0.19812601678668554
37.6854469863197 49.89333981228627 0.2009939641711744
39.07938946414043 53.448305187323456 0.22685991131140396
37.75150396331711 49.881174576412555 0.2007009639432534
37.92038921354826 49.97741651593071 0.19427008973427065
37.84725342614326 49.85142502937391 0.2009350756796003
39.28124991941105 53.45869294341162 0.24743782456137378
37.95866819597179 49.94762298741071 0.19527430308721042
37.99108881908863 49.905219296657236 0.1969413168412041
37.91242597950511 49.82038020918378 0.20166296899438316
39.4208507689608 53.455384516449314 0.20975172598951244
38.076033951231324 49.86658697653547 0.19797274037548565
39.52116044484693 53.43325025618508 0.19089758133988824
38.14831142567085 49.7945063031293 0.20071359599343572
39.59931919893872 53.41401761139671 0.19611154726802912
38.33772080592578 50.06518776134509 0.1873030224233784
38.26416338336889 49.84597160375238 0.19758243632321296
38.21282551162292 49.78152178347974 0.20084972488146755
39.708428917319644 53.39685465118494 0.20340001754058853
39.69761097875721 53.29456181371062 0.20291196091782257
38.38163701301869 49.824493894161705 0.19795796718712302
38.360366650279055 49.76296029826423 0.20082564597657113
39.81742721834004 53.3693870846186 0.21069778013864124
39.77113605169394 53.26590633042083 0.20792139137916085
38.64024456378473 50.1252639286566 0.18404360593459737
38.4755691475386 49.77696173504854 0.19970295296223098
38.42637640143605 49.72838277923633 0.20207569620275187
38.56155070401684 49.76086731357423 0.20015667098593912
38.53930278248393 49.69886359980531 0.20297928747834973
38.65139815391912 49.719278669686936 0.20180675746449453
38.77767772066423 49.76245390383673 0.19979139713448693
38.7446828280468 49.693683871463136 0.20281193313180265
38.84849780040496 49.668283543220845 0.20389172275529485
38.944230442887104 49.65110504267539 0.20469782659114819
39.10939986972686 49.730249499649005 0.2016904136714415
39.047131104627766 49.62176627588974 0.2061171269104856
39.13302997030148 49.59923317696072 0.20727848982590877
40.73564706145009 53.28719810122028 0.2720631621741325
40.75699859181583 53.24897816197854 0.2735814118559956
40.73546101433415 53.12455049282521 0.27267731964880615
39.3093856332828 49.47296496648433 0.213158608346621
40.75309516202652 53.099400772982236 0.2739888624046628
40.72954736954453 53.04975711010717 0.27274981668266096
39.39428347107612 49.4663232067976 0.21379327079971835
39.492430124909895 49.40382172445788 0.2168423949131907
39.58668576463251 49.353107381948114 0.21942280924553617
39.693447682724255 49.327365210908475 0.22111272020470116
39.784655319439935 49.30113096840694 0.22278141026529205
39.925444433886156 49.3021008161828 0.22381830974102587
39.874432574254875 49.28721041915779 0.22399473823675556
39.99920753893381 49.2856966111583 0.22506286739991774
39.97260004482689 49.27785862491893 0.22514916790878922
40.05405568578497 49.26696684994339 0.22627855147948608
40.17139511227249 49.21049538375351 0.22952677209011815
40.15519767521128 49.2122846358069 0.2293121947273877
40.26002308242073 49.189315402240794 0.23119332200457007
40.35659428951168 49.1651194212584 0.23309757149387164
40.46935468825033 49.15481445746684 0.23470355596433526
40.5980747455525 49.17361031349144 0.23549772007147116
40.55293046141931 49.153491622976446 0.23570109563853306
40.684429533553704 49.17065814813473 0.23666741634027053
40.83468150903147 49.232561714649805 0.23642803672766374
40.81223602525138 49.089403486069145 0.24121121593081615
40.95086457131089 49.23209794885379 0.238069551519175
40.90754956816687 49.23687733195779 0.23728420084903037
40.86724706102663 49.08533494043596 0.2420626154549491
41.04164742144851 49.22690048238619 0.2395549067796284
41.38217787424151 48.94713265494884 0.25415137590745174
41.471343214963085 48.931308619256896 0.25603894764595614
41.43991456368884 48.93225039420965 0.2555401696427564
41.552081126206595 48.90921060569169 0.2580488070202245
43.09040235534336 52.613551113922604 0.22431129644749412
43.022544657619534 52.55249003003317 0.22244162296724054
42.99979002249465 52.45428390503954 0.22220132143036778
43.00561330393991 52.37040507339676 0.2228514686949065
41.64747328337512 48.888527227751744 0.26024728538918485
43.0266219637225 52.314334895306345 0.223843073520799
43.06719104818524 52.26426444522906 0.2254199822359498
41.7340856957897 48.860929842368805 0.2625570878583756
43.06955385588454 52.16849012240186 0.22618195112071274
41.84279628920317 48.83118415655326 0.26531511720668977
41.95810821007847 48.79832565195776 0.2683139512124645
42.04276814671197 48.77872615779792 0.27038867641560804
42.12829002353054 48.760451484156896 0.272451936797104
42.228654649147074 48.729228269800686 0.27520017711716316
43.58101652791679 50.18222746147095 0.2671840422827113
43.63263865718723 50.19674184403868 0.26819781911148177
43.60157205286794 50.08705957515384 0.269734417026087
43.58446652172799 49.98214271415509 0.2716079392172561
43.56149997693296 49.87981162936604 0.2733521939344563
43.53591378676219 49.79234248772967 0.27475077049093777
43.46627025327563 49.71547062021733 0.27492503371621724
43.4076952164617 49.662320967054804 0.2748203874299143
43.96504428364811 50.34501742000654 0.2737911039135975
43.901668736657705 50.203862032726505 0.2749245848445341
43.81130178161315 50.133174629882994 0.2740290863991395
44.188007996637936 50.67172018760587 0.2739742407352085
44.17658726197002 50.63376093628613 0.27428223843389843
43.95877053781576 50.27639068264533 0.2749672456299106
44.22564886050672 50.68459656457548 0.2747635965300108
44.1762866685688 50.59177012807533 0.2749710423091707
44.16589571567782 50.54034857694887 0.27559881048198187
36.18507667837054 56.41887429515346 0.3446202038515582
36.17473997261399 56.3410102067858 0.3383397765183275
36.11969879186019 56.25348025447222 0.3337161374495943
36.740723495076104 57.01461472335013 0.374535055316472
36.36271147923695 55.999829652332664 0.2985768082437745
36.85717057792246 57.00646971585676 0.3699240391512565
36.8085951463552 57.00806476122421 0.37163848706459857
36.437368611864265 55.93977911914799 0.30043887173359374
36.40888079960785 55.850413913192256 0.3700818924382919
36.9312851231279 56.994495534607616 0.36654564499702236
36.55970147585475 55.95049468842176 0.28465794757359086
36.50475756988693 55.90297178383991 0.3396119967955158
36.044348798097566 54.53419778162011 0.3695600232164178
37.03452015900379 56.98196204932362 0.3624393670477001
36.69610108063062 56.045733000421095 0.287435527515967
36.63574843427406 55.96091370918713 0.3008022250651453
36.603175045886005 55.8925816163679 0.36396145954181136
36.09378150079638 54.54106130753278 0.3338203730121413
36.03765661482365 54.47742013607532 0.3359534971756861
36.00909972470997 54.38075714005549 0.32907751691007314
35.983609632726385 54.282819660979094 0.3247855069070087
35.959878329347916 54.18556655817493 0.31854703200725276
35.935411674051934 54.08813088924028 0.3155665744357695
35.91123848364715 53.989187941855896 0.3128259629623731
35.88467248333971 53.892619630835384 0.3120384439648327
35.85733061108995 53.79538252745071 0.3120851770164411
35.829950062687324 53.70479434046479 0.3164992870333697
35.7978497172014 53.61208081691089 0.33606723075857114
35.76015990598389 53.52138984846753 0.32013111523295323
35.731388783199776 53.43577002960627 0.31744366887594844
37.13653075019819 56.970847476964565 0.35877152292504444
36.787405084337514 55.976431430036484 0.36550641152036345
36.72356048109977 55.92425632370334 0.3618702869058411
36.21032883127361 54.586277019929696 0.3158960493195472
36.18455740879901 54.54577083623982 0.3226943231605377
35.88406887227393 53.824592340417965 0.3332837084474114
35.83482287822205 53.68579961580108 0.30641725444025847
35.80531064457715 53.601709525267076 0.3107288181692627
35.76834643446895 53.504722567669155 0.32459645973501194
35.74593984873436 53.44181923823666 0.3081019389682328
35.71728429959703 53.28856382623122 0.36299592204549336
35.69254427574562 53.21160395952608 0.36714560476408786
35.67343506800505 53.12425698894317 0.328436435148709
35.65546010124723 53.018523909881345 0.32745962960294994
35.616692158447314 52.91720974505215 0.30955654324608883
35.59250289762457 52.828612202997974 0.31735307329445583
35.559349376914284 52.71577424111228 0.32982044595535764
35.539603439366836 52.66109603634227 0.3666942922447153
37.21980819733831 56.959911827903774 0.355789389261445
35.618183638322265 52.78728693432588 0.30808575754931633
35.57411258455223 52.72176948445812 0.31042916235842566
35.540442510221695 52.62402053019276 0.3297257986413591
35.52295247569907 52.538222644258724 0.3239868507025223
35.49460333287502 52.43979091461464 0.31728059202096415
35.464055545757624 52.34219367819802 0.3270793707002376
35.44374660617047 52.24196847144325 0.33604676148480683
35.41545654869122 52.147416885911014 0.34585079687821596
35.40149789631043 52.04545083004584 0.3546989675223251
35.372150530570124 51.944922400847 0.36546478123486537
35.35374275590336 51.88970376450743 0.37170968654865266
37.27165769051802 56.742083131424536 0.33445355144102695
37.28040373883176 56.724635341683324 0.3326513571824553
35.39391614828177 51.92357380883722 0.27867325549335376
35.37629692445885 51.85544191487881 0.3278537651071257
35.32091022459508 51.75323580918458 0.2940481741984362
35.29371322091239 51.65692379355527 0.301647279233045
35.270227493167816 51.56008159296259 0.3090527978541371
35.233236903482776 51.43038428556483 0.3195532303317815
35.222558603220115 51.366816489367274 0.32415041917318477
35.19954059905507 51.27196189109012 0.33163653413318306
35.173519214048326 51.17773250214075 0.33938586547522
35.14709084636532 51.08176802239825 0.3473270907370334
35.12446107895291 50.999205867610286 0.3541864186003403
37.36916836239369 56.71801822821121 0.33031819984002153
37.31328246318516 56.712863369914636 0.33089135283309645
36.458570161363426 54.313507814185876 0.34728266999245905
35.15702222048405 51.082062764621064 0.34653291870298153
35.11732939210775 50.95366462578106 0.35757815769710033
35.110024366063065 50.917372085231925 0.3604105677818711
35.07759778182526 50.77998323524338 0.37157904503583283
37.461138376383246 56.69216663669559 0.32637260495888787
36.549370144248385 54.284633520156156 0.3052759448187712
36.032328236486734 52.86398339301819 0.37170511646411364
35.93589847854234 52.60629091075185 0.36553056032095554
35.16662302870373 50.758617286287226 0.3663912927151247
37.55812037132941 56.665975102472466 0.3225800936328759
36.59965734159961 54.27830196456593 0.315526992221289
35.98243639216964 52.579732706005814 0.33608206662732054
35.88413497968818 52.155660625463916 0.3149114578034037
35.445505863547204 51.07782924396173 0.32525001413479526
37.65353712819105 56.63820223351336 0.3189344183187146
36.81816711587083 54.47115267561137 0.3091431013468324
36.803789034126346 54.43304125327755 0.30619291279276695
35.8979722461563 52.1571304069575 0.33583172383237425
35.49688803364888 51.032599935689895 0.3246072535793194
35.50774415608714 50.9637660758898 0.32849346683959335
35.32076277522442 50.64707270144206 0.3629308987049308
35.34154862418062 50.57890105310915 0.3662070178973613
35.43794232157028 50.55268493918811 0.3616300928357149
34.63541676576074 48.48535064037634 0.3613542910637153
34.64530886256376 48.373508201407645 0.3656005179874168
35.50858600531199 50.506788083500915 0.36032928896966476
35.465736338400454 50.34046268275722 0.37495032060750166
34.702081203305625 48.354275657685164 0.36396497294293506
37.5672231487694 55.6845489634776 0.30950379338849576
37.59594928360047 55.602482960391384 0.33006978797627573
34.77617129080889 48.300853747910324 0.363065918918249
34.78555076137977 48.203142644035076 0.36684507739388816
34.77978667796696 48.140040011209585 0.36982437311384264
37.71896054485816 55.64321202243045 0.304626016276078
37.66131766858652 55.59020113071713 0.3330874621827431
34.78696721161312 48.10400358087913 0.3710519904166425
37.792729408886636 55.599234273643155 0.30495024413573224
37.88444922826696 55.54796763482669 0.3293125867037916
37.87694652919879 55.5363581574998 0.33095147264572145
37.9807393127914 55.536170551215584 0.3321004141403676
38.0915887955442 55.58628080154355 0.3038852338793421
38.051876401752494 55.53010217098287 0.3475394595471426
36.400778108082605 50.479684626551766 0.3146766697927219
36.355474148315146 50.436894571348795 0.32005705634827897
36.6076434486473 50.69779677175658 0.28866234212239483
36.561318556383554 50.648689603813494 0.29445089767102695
36.482321770488994 50.56339293148624 0.3045272062543325
36.843711663177196 51.05574217131579 0.33972777711292224
36.75008080479899 50.837259075144615 0.3689002014348899
36.69695679191097 50.787702971700924 0.31996170267328217
36.639029748131975 50.72528798075929 0.28523150726293756
35.4642205963563 47.43241181717291 0.37518954446368336
36.971333915562795 51.07456243420945 0.33299532189325254
36.90813622744928 51.05274144687676 0.33772220768026806
35.480165571536546 47.407125292661455 0.375771028734483
37.03920043162092 51.08348965173031 0.32989301279910455
36.987118733702204 51.06118118598375 0.3340617521216217
38.18006350560941 53.68507562815373 0.2784753569652044
37.11730542830206 51.10309839027133 0.3254481652726332
38.23050540848379 53.67212891253948 0.29010066845932314
38.328158181978544 53.64329034287629 0.30214030853577445
37.16392790324945 50.54221844550441 0.2845357917765633
38.43933588177931 53.6189864010421 0.31837662276374656
38.392779644099065 53.628976755691475 0.3136354473672248
37.24197615648778 50.51966351131417 0.2847892320994706
38.522970981323375 53.59703087816959 0.3351992083374401
37.357470861125925 50.49918742825572 0.28440252857831894
37.3344284089942 50.49272978513272 0.28533021526176683
38.62493904652396 53.573432588054864 0.3163393554199999
37.44664969414835 50.46804972132701 0.2856494761212828
37.41753738135113 50.470019087531256 0.28589526110880303
38.72342664201746 53.547837630885425 0.3253470301507815
37.53222332579157 50.44773378659046 0.2862529044820854
38.81371550427194 53.52627336661318 0.32992635607513776
37.58938631770885 50.4197095380776 0.28794163065079115
38.921611765454124 53.49691585322061 0.3320094138807147
38.97790819685162 53.48474300044654 0.27883252729511476
37.68107440769835 49.8907947838537 0.33038706247363925
39.10225001261405 53.475220908443575 0.36326466075492725
37.74846250574621 49.86842431948661 0.33165758777690624
37.84428745267125 49.84007037844197 0.3333348831320847
37.942738804242445 49.80890081675426 0.3354222196299569
39.43692725442179 53.449670035329405 0.34188807312159186
38.03791007489026 49.77494306078862 0.3379258632650137
39.52475077044193 53.42729229663237 0.3539830142899787
38.121917263331525 49.7764676878108 0.3377530088117263
38.149578529008515 49.75869959387718 0.33919068671137875
39.63961021278685 53.40637881842178 0.3698059203281002
38.23623627122282 49.738017508283285 0.34099240675249287
38.22776280287981 49.73235548610794 0.34141679283893145
39.78057050971401 53.39246607092502 0.29838860918174814
38.334690189029665 49.70598782460094 0.3438691861525158
39.81509309967427 53.35059497395387 0.30204140648901634
38.42448088429289 49.69463174246271 0.3452355433158506
38.52021184677615 49.67162153584713 0.3477041371045364
38.62497698604267 49.6314099134395 0.35173770353994227
38.7182139242472 49.60822770199403 0.3544859924935667
38.808006528582354 49.6932682220957 0.34909367358819576
38.80703683333499 49.581640674089805 0.3575723049284242
39.01032305654112 49.930946050619596 0.3346299856209076
38.92154096109483 49.556838812580786 0.3609902770896193
39.188515619009 49.866444642363426 0.3429136110565202
39.0302581460294 49.5369440075463 0.3641333304730724
38.98568275378901 49.54343471215781 0.3629474390641405
39.21139097398954 49.869810724998196 0.3431594347471659
39.232353406109574 49.75408475794036 0.3519308567609195
39.12531103216673 49.51261683637969 0.36753416317394005
39.073929728444234 49.51426028803864 0.3665361498274531
39.19455277875158 49.52030956116869 0.36821744454814476
39.32580278381435 49.546237603239994 0.36891027225288686
39.31257285924605 49.469478371817715 0.3742041456378704
40.80732922100768 53.014330564937424 0.2781585655730284
40.8748035185876 52.98547493942468 0.28285064207228106
40.98943663726881 52.955499149300564 0.29065862534396036
42.339231892821154 48.70926772079625 0.2777886947384861
42.29866948275182 48.71292005305841 0.2769652161789602
42.42521705968956 48.67833774666534 0.28031310621073036
42.519837159804 48.65703115763749 0.28270347690031694
42.62372927421337 48.630061784571765 0.28545385569525816
42.73536284833422 48.59726275693127 0.2885447120613265
42.83962373239153 48.57474424669774 0.2912047796238162
42.92474746249007 48.55209782322085 0.2935264899564278
43.49698501728323 49.69649291066748 0.27611359302440963
43.41219426272293 49.6150169551881 0.27610115845609673
43.414410490899044 49.56816697079792 0.27723245059180335
43.0138237497214 48.52667991107906 0.29599868156700426
43.45985205990746 49.4776341821065 0.28046018946702034
43.43824625714732 49.3998060258454 0.2817991180445072
43.41696426000023 49.30466591039524 0.2836232560662769
43.399107189192435 49.2063598528203 0.28565915389165164
43.34701467664225 49.1162356747365 0.2867694779814317
43.145850593038375 48.50270222271483 0.29930694387072676
43.09307745763045 48.51157361067451 0.2979851582776355
43.214322205595906 48.48150586780275 0.30126105700375694
44.0488572810415 50.33526660719042 0.27620962748082223
43.30773445632952 48.454566123052224 0.3039203815023669
44.15514229907553 50.487245230652675 0.27622081537442345
44.13897866806055 50.42271731317331 0.2769649780011968
44.11445778298376 50.34836554716164 0.2776809147079221
43.399059074506184 48.431641878096066 0.30643136221705203
44.3598019236413 50.65898038993653 0.27889470604356315
43.68557735557505 48.770136401052305 0.30327709220347665
43.50001421090156 48.403443157061304 0.30927832334146776
43.7050581508663 48.722438881000514 0.3049336295112439
