ply
format ascii 1.0
element vertex 849
property float x
property float y
property float z
end_header
4.475979880618924 34.212027976874715 -0.5928322040413703
4.482054570508971 34.31847074649184 -0.5960900817701535
4.520895614944939 34.41272957596039 -0.5954030499556628
4.526096604904854 34.47026590910266 -0.596889170485408
3.700151012591067 31.67540311890235 -0.5846228564847928
3.807193930701137 31.81211386514283 -0.5922198104753567
3.835393630035227 31.854127045985916 -0.6040416110700468
4.33644871100337 34.16237188145992 -0.5980536367000504
4.380046564086705 34.218992101902394 -0.5929928182038968
4.397651810123657 34.31339142646542 -0.5955962082482344
4.4164687446156305 34.4242193439893 -0.5936184223662861
4.425439214144318 34.54179276687357 -0.6028799336313553
4.446265517670586 34.61759772731746 -0.5989660425440861
4.450828294752259 34.717938365101645 -0.5946040442402258
3.6613594061552357 31.629859676836116 -0.5970544631556334
3.7794228351904415 32.329011877169926 -0.6047629263891336
3.8409550329585156 32.36506736651424 -0.6003495081862797
3.9296299404091304 33.04729354235016 -0.5922048324690128
4.1742444038509525 34.037433151794914 -0.6090348544089836
4.304757434489958 34.182960423940685 -0.5996339913911084
4.260372631035552 34.24134170009744 -0.5962124148474708
4.304939835759145 34.35802760085873 -0.5932035788275611
4.331539161113757 34.45657773518026 -0.5943858390011425
4.39848331192376 34.591966327108096 -0.5959652323199216
4.414017819646905 34.71364274056294 -0.6001648910317374
4.423486140339069 34.877369175683356 -0.6131527897389397
4.406869022306642 34.929655221784394 -0.6041671807028508
3.697688668679239 32.277393731449656 -0.6110651349075269
3.7205561906587636 32.295918986643755 -0.6070219634715888
3.8957813806272465 33.05068203433277 -0.6057264954949098
3.888896509415333 33.099360691481415 -0.5948852106842963
3.8787391720014432 33.21931026353474 -0.5995438566812001
4.15708771659867 34.05078558758162 -0.611263808794462
4.123490223994721 34.235310250939264 -0.5939007195805617
4.134890363481695 34.30433533642679 -0.5964975828722701
4.204112152386514 34.364411608579594 -0.5960915975678576
4.186590480775062 34.49520553777811 -0.5948423818471829
4.230024163890596 34.570612469826195 -0.6019719851936769
4.2579303401191275 34.66992149248306 -0.5972415516388947
4.304110661411461 34.74269234784669 -0.5973597896058145
4.3571393355901 34.89360510692288 -0.6045413292991744
4.34525280890564 34.953586969326956 -0.6117567010024296
4.491501798661902 35.60343048127172 -0.611395253151714
2.862412003878754 29.263940289022404 -0.5927212847600758
2.8596981549278357 29.341626881420254 -0.5803494694912574
2.891976001051588 29.39811196427921 -0.5884540703171599
2.878173686391298 29.53810510875644 -0.601222025870265
2.9465388431657096 29.760551896613414 -0.5931053804177553
2.978055210234027 29.968721182611894 -0.6007060367128878
2.995594503276494 29.999605031776547 -0.6094004849845658
3.131591636855166 30.532759830052328 -0.5918639397544418
3.158259997678102 30.617515107770572 -0.5928324549863648
3.1746782405551563 30.708184140753993 -0.5629582140598883
3.194691844164799 30.801030329270567 -0.5669913417276782
3.213403791265044 30.919782633569334 -0.5925683447747581
3.2577767860111324 31.006222964897223 -0.5924903027681097
3.2837122236333682 31.114332442508157 -0.5931161998968164
3.4852646709257815 31.995509875852143 -0.598692439690812
3.5079309143810846 32.06629506875116 -0.5969365512968752
3.543858537356627 32.15747190106735 -0.5872960974776562
3.82671102005503 33.14709030460389 -0.6014569296024697
3.848036537328868 33.226765035426034 -0.6011327629804184
3.8451206111051244 33.32449222242542 -0.6023702342035782
3.866770489906176 33.434458209505884 -0.6007515514209965
3.8893738216311897 33.52534066305954 -0.5965169506933932
3.890933004292486 33.59826077460671 -0.5970325623639157
3.9228505489074097 33.728325825785014 -0.5947705526742624
3.9548868733473164 33.80984577841402 -0.5963577257459831
3.9834548248698205 33.919213322925145 -0.6098103913705202
4.0081208459477375 34.01284411686131 -0.6027628170711947
4.028367049927811 34.104464393334325 -0.6052594751318048
4.057929186079614 34.20045448985415 -0.6069683995420248
4.120233171288389 34.304216761323225 -0.6003072797358597
4.141164824228433 34.369346204792386 -0.5975258597610014
4.158849629699394 34.467383648627184 -0.6010170734517091
4.192064188119687 34.59879043044801 -0.5989826000392566
4.216204675982418 34.68282081111406 -0.5980833454558239
4.24142444238221 34.81802425284454 -0.6000190612976029
4.251864897668105 34.8653199259323 -0.6022112605270638
4.2861387346216375 34.94562064289947 -0.5982003025044238
4.323450914361769 35.156805872818374 -0.6057369252846245
2.861256509276221 29.542351573174667 -0.6011471447853594
2.8884409538813927 29.657242308277308 -0.5914880145457513
2.9119125721840318 29.732651502431946 -0.5996470363829236
3.0634663116477165 30.473062555521658 -0.5506246037224172
3.0974526483698344 30.522086686473024 -0.5448046638347308
3.1373573265873347 30.73045615256956 -0.5825200488442237
3.1681702944853276 30.82735430051365 -0.5723977459990963
3.1924264035177634 30.925968981195684 -0.5706261650736582
3.2140346642794384 31.013969933801732 -0.5615959327729141
3.239803584723737 31.107408706514224 -0.5782804115406555
3.4520982826343634 31.98951886465514 -0.5521868588232903
3.471341262065261 32.05331929138467 -0.5501136073783386
6.702261743978186 36.758644073687144 -0.595766566947155
6.473142833232595 36.27779960127682 -0.5666759261594547
6.501515703807537 36.36578869137448 -0.5748217151818371
6.5622766255687575 36.469560758918234 -0.5841872815747711
6.594744729411124 36.600199700627684 -0.5745925212464811
6.659992965797481 36.70001505116415 -0.5920457066343086
6.628966297410762 36.79553185870948 -0.577178210986657
6.626473602392603 36.85056491459411 -0.5779172115082929
6.536863188389106 36.61086720801907 -0.5491443751259875
6.541707440431728 36.648196138782666 -0.5581081611508103
6.553074935028086 36.77656668647407 -0.5739996788344148
6.57872902739565 36.89375819021689 -0.5804661025163365
6.551657865599623 36.955223515178275 -0.586632884096939
4.985694540073653 31.004547836462308 -0.49871076904996653
5.01996543850018 31.122256704874257 -0.5305913646596974
5.041448701308297 31.206937500415744 -0.5292815059228071
5.051551742520838 31.273177936335905 -0.527432848264964
5.079680011689611 31.391009306098947 -0.5267487956838797
5.106792875795508 31.46385929544108 -0.5317233120221536
5.121479190853987 31.581838340792054 -0.5224762780135022
5.153820217929126 31.686142933069476 -0.5247746247674638
5.174407776878234 31.787908926034593 -0.516945500088662
5.198328305144537 31.872065373670434 -0.5215047391829484
5.220166248196297 31.968437968148418 -0.5211947822367955
5.2359208875502015 32.03871947422396 -0.5201437694550362
5.4377032449611225 32.88255210937911 -0.47257963183089907
5.454358996930184 32.94221185276116 -0.4972556577797637
5.476285875177163 33.0428534821895 -0.5003682060885255
5.494207718249925 33.11900758271342 -0.5016082398390156
5.525908593710591 33.24514088893559 -0.5037740691270456
5.546606709165036 33.3346227109168 -0.488334784095019
5.57135508667351 33.424840843256334 -0.49789538122332805
5.596119048644764 33.526004906995574 -0.4984733549068427
5.610531881521014 33.586962064570706 -0.49761767755673086
5.691903036641676 33.92297119655746 -0.5042694696705323
5.715496284720909 34.01125477913137 -0.5192219063357952
5.742342850051808 34.100456658381965 -0.5365702371616008
5.77446133798774 34.21040776810051 -0.5428991247962791
5.7827229930898785 34.28456678716499 -0.541935074475357
5.810282461330828 34.40454619313774 -0.5448530238403972
5.833882627370461 34.48879129882812 -0.5447089850282569
5.86737071996091 34.599105615524245 -0.5471853591542915
5.882049624946054 34.68716554220969 -0.5353111117441982
5.905780691234028 34.76724488661661 -0.5120943701662455
5.930936573881811 34.88584789156904 -0.541032890724193
5.964717664677235 34.980253550756494 -0.5562175035956998
5.97203480467048 35.071921540793525 -0.5448578757505231
6.00173688137723 35.15271012081097 -0.5158957365553152
6.009257132134323 35.23315352118438 -0.5119135193343898
6.057408303949158 35.37370638729376 -0.5417991547746013
6.077563947143711 35.449614225933914 -0.5834300024154491
6.1203546463338885 35.65578996803348 -0.5765893128538935
6.486493512969524 36.93427213607598 -0.5838563472261624
6.477097798073279 37.01168009422696 -0.5836342419445524
6.531250444184999 37.09261226201671 -0.5812784060791236
6.534171708067322 37.19950078230206 -0.5757780919043785
6.56046719034306 37.26963955606909 -0.577882839429285
4.974755999651315 31.047239412499426 -0.5280656542599489
4.987324673922304 31.09530834681529 -0.5140422823958017
5.057312277825603 31.35845956552433 -0.5146457666282453
5.107240629902343 31.574139628775807 -0.5076794766423802
5.128954030105321 31.66195645951341 -0.510014462009794
5.490617957414843 33.13375479294071 -0.49709439582836074
5.518217650705831 33.248976974701996 -0.4999034816643078
5.664927747125242 33.95126897794863 -0.5672529112257705
5.655275102070471 34.02352439057213 -0.5733754517548173
5.6868425001775 34.12435247842728 -0.5824420128157577
5.687014080195301 34.193609704768626 -0.5858825193013442
5.733958234106497 34.311326439605274 -0.5665012831652516
5.757224485422365 34.40654177661354 -0.5879809700867482
5.762176007272081 34.50580676943207 -0.5831998847097355
5.794679203332584 34.610700726377495 -0.5859931280095012
5.8360872410965365 34.697246890898334 -0.5789270965157289
5.849860448716009 34.77591691085539 -0.5678595508021167
5.872079991605887 34.90768166499113 -0.5790887114816963
5.881298790386851 35.00127451721639 -0.5882390650054492
5.911334730148763 35.08086241267505 -0.5758438824643912
5.970778198378409 35.19215644801139 -0.5630588742965514
5.994482547244114 35.27855308111069 -0.5667860606590367
6.027177805013525 35.362113988018294 -0.5811568150990218
6.05055875530511 35.477421463229845 -0.5666891981215358
6.067847484134208 35.536858470847136 -0.5708166186752215
6.365329863933648 37.068030205069284 -0.5744553673487378
6.391960244315328 37.137230194719635 -0.574384496741325
6.449392962852683 37.308467521030174 -0.5906656770114809
6.459514348616246 37.436324204085025 -0.587279121565282
6.520347416419221 37.62761388371968 -0.5926781582764844
6.527690142017145 37.69127565409973 -0.5876776068142626
5.5423484435214085 33.98243044479329 -0.5837314870273698
5.56654695264645 34.04696854391793 -0.5838792510144744
5.590452677024196 34.13856758366305 -0.5834065873570975
5.6025414105516385 34.241942986699655 -0.5862239919576551
5.631842606348009 34.32829648705669 -0.5859890303944364
5.644453980910062 34.43277125311193 -0.5864652818324334
5.693544405459523 34.51003256834354 -0.590174982582234
5.670668703772176 34.6461321710031 -0.5907728333438373
5.697032518247179 34.68754143643162 -0.5892360503177614
5.715165524748025 34.85861560587362 -0.5843933016223164
5.748819680307498 34.91349636275733 -0.5905419651155484
5.787210270582736 35.1675609812391 -0.5659027542488562
5.8007402933660615 35.18733123335405 -0.583052013047803
6.086625244319701 36.29001576625595 -0.5975379424689358
6.12467977073511 36.377629143832166 -0.5736561939213467
6.159906611405789 36.47630613901077 -0.5875140984665788
6.2039635994128135 36.569056031108516 -0.5717400472648573
6.253882077053133 36.72765361021799 -0.5670672816644311
6.356154141891604 37.14739167541004 -0.5779437291427032
6.39202701442255 37.27306827120294 -0.5810238439402426
6.397777972756395 37.32862657086443 -0.5764511375501733
6.398606469331077 37.46008413711368 -0.5554046228466734
6.413653161219847 37.561779768928396 -0.5663711427372402
6.465710978731135 37.71599642502872 -0.5830882918909308
6.489737182787626 37.8712802836318 -0.5940309731137321
5.446650145098913 33.986337118703354 -0.584021325258228
5.461599331300105 34.07846788956879 -0.5853515232568209
5.490294400747846 34.1652135610693 -0.5849522898869088
5.484558058883199 34.237121591189975 -0.5880413457189289
5.5509229281925325 34.38561458669563 -0.5822495681345936
5.542752424418023 34.44558763796483 -0.5831827110663237
5.60733547029251 34.651178835577895 -0.587413475766968
5.589582577122772 34.74673629011688 -0.5902053477151512
5.66523066648979 34.85028567916903 -0.5856291501820012
5.692671952342321 35.175623795204984 -0.6000356530327478
5.701979469044114 35.22085344961536 -0.6009236138387164
5.80821172299417 35.6760502331405 -0.5941253252466367
5.832886743964254 35.746550964004506 -0.6008530414270117
5.865803587374321 35.81876718469641 -0.5962276942113218
5.895721314340356 35.87326289029233 -0.6014057708417879
5.978237800769287 36.08720200637145 -0.6049698370798788
6.024600142512965 36.193983213024254 -0.6030461124569395
6.373739538047652 37.89497771738181 -0.5875238445198439
5.3690411776312965 34.01814133754514 -0.583815147062559
5.358347607383123 34.10319750123808 -0.5849622670592289
5.395637614573506 34.19224079558095 -0.585691250083747
5.404266394917173 34.266710401152984 -0.5859722573987682
5.436288007026629 34.39195311971593 -0.5865518742348437
5.4741068630629 34.46422374118303 -0.5847461513509258
5.46930444541502 34.58597955415575 -0.5878540831282624
5.502592606217085 34.678731719290454 -0.5902581958342283
5.510302126971798 34.78167767651002 -0.5905232286386022
5.561229643421218 35.08643666848827 -0.5873365201018965
5.581398579148569 35.1422782351142 -0.5974477628323343
5.676168367231124 35.25512981832825 -0.5887359423976275
5.704963264682176 35.35580254034894 -0.5985665375795786
5.710232867628305 35.46894571621933 -0.5869052699705299
5.73483954695188 35.54899129162206 -0.5873267776894537
5.781250012968878 35.62729276884956 -0.5886396953801472
6.107345465142178 37.30277571044906 -0.5966466721657204
6.14360089127516 37.427281754242934 -0.5906715646060434
6.1822459676161134 37.52781192658409 -0.5883727079747969
6.195755962091216 37.584622482079496 -0.5848911286789145
6.229654780217661 37.6693516353601 -0.5910350406947373
6.267070824014574 37.82971530695037 -0.6059866894251686
6.315574664868934 37.850246122021225 -0.5950791111419682
6.286314290121253 37.93826177573942 -0.6165238553135521
6.314059204575789 38.04976354893848 -0.6171796003239398
5.233083261493468 34.02642061432638 -0.5843349709139003
5.2747921684401335 34.118121867389355 -0.5851998068880067
5.29394368007054 34.19954223782354 -0.5863425857180524
5.337259834062968 34.349617749879656 -0.5895610197403167
5.348721001091395 34.416211453165886 -0.5873555321688879
5.338613378781773 34.515310494570016 -0.5885587745773451
5.381169356233981 34.60385004493835 -0.5879212248776235
5.388567823321469 34.699306130215746 -0.5930906309207993
5.435526409852443 34.806748783751715 -0.5925057566213907
5.451675844013168 34.871687604875866 -0.5916698083275023
5.509249493386278 34.98717904647937 -0.5896341981950559
5.5247688413753515 35.070642173151654 -0.5867901323864972
5.856373091756945 36.5631981469131 -0.6182908622370797
5.878470224333446 36.63414249396706 -0.6115196674439769
5.90781230521977 36.72245664138638 -0.6112723637201889
5.938301738204523 36.83329384874553 -0.6153945233792548
5.9585732987200135 36.8947771652384 -0.61446441658413
6.056794836893469 37.150200224013936 -0.6062527300661957
6.096716119048114 37.31569067831264 -0.5931357671991397
4.755923384375065 32.27716904598362 -0.46623448546833984
5.177455197284974 33.98239579156605 -0.581904260878332
5.1714987976396 34.06797974364452 -0.5846807427596659
5.195969122509867 34.14763068021999 -0.5857146900824779
5.1789470505816135 34.25669014281889 -0.5851898538440232
5.230172066179158 34.337210562723 -0.5874367304031725
5.244267493815231 34.43089382866828 -0.5875764668145269
5.245294611403934 34.52967935596343 -0.5885178715538182
5.268774340320416 34.60570045500263 -0.587754613768751
5.3552923481445465 34.700505292645694 -0.5916740654347921
5.3878829228487986 34.82827623680414 -0.5959315833102117
5.5516710271467264 35.67091775836077 -0.6037781317113555
5.568112529626624 35.794760896468276 -0.6132314497335172
5.587655447709599 35.861043901333964 -0.6078019440664797
5.637492159537305 35.96074389757535 -0.6028757081312708
5.790271877841611 36.884884593452654 -0.602092133397808
4.557801853048968 31.94782720450915 -0.5430673942239808
4.991994521521621 33.9956729639425 -0.5814432630741471
5.035029013046827 34.06709348463541 -0.5846675771539682
5.06371032502859 34.175843949275624 -0.5864795219953349
5.118835049337335 34.2898846135991 -0.5857088602096143
5.135344376852721 34.36392114322389 -0.588516819648949
5.163555659008193 34.466052259813 -0.5890982218086311
5.166938447844351 34.550242118686384 -0.5880053476276281
5.544641721534369 35.893184470320016 -0.6091593816060747
5.563187251527676 36.01783677292065 -0.6153898293846911
5.577599514128254 36.100858088752375 -0.6125358195024542
5.704787961255508 36.58216426134954 -0.6193854808308348
5.738333087229744 36.70123715278992 -0.6087107770014042
5.752281892796529 36.750428104563625 -0.6087301183027214
4.4485976844002915 31.88684446145975 -0.5386172467263344
4.451827717263495 31.937481242672565 -0.5083106926254921
4.49799207219755 32.12674782252987 -0.5503618091409417
4.8716400361620025 33.948153610492945 -0.5820561748910391
4.908882545411867 33.98853902537311 -0.5820461895939435
4.939609326648468 34.086804023031924 -0.5841502315728766
4.977019267740215 34.197315287615865 -0.585168504472189
4.996643828364619 34.28140056418596 -0.5855718066467799
5.023601124011012 34.379737608180484 -0.5845753976068759
5.026723288499124 34.47232619843969 -0.5860619143969796
5.064479913128499 34.56953738338264 -0.5825403990026274
5.071441496867257 34.6719647891168 -0.5886174767921275
5.100059719805055 34.78568957999058 -0.5860052884937612
5.112296978964661 34.851158446413436 -0.5827398363060465
5.14982465752668 34.95777335110914 -0.5795869613121571
5.1794503430856 35.03532115392747 -0.5907692595876448
5.2059561925897 35.150460343333684 -0.5869197066394389
4.848589512040179 34.14887021751641 -0.5841328457504535
4.855821134689183 34.214670827613375 -0.586696048275628
4.9009742099544695 34.300160448808114 -0.5850268325518315
4.958597236160957 34.36826617295363 -0.586035919212959
4.927241477599044 34.509385236408775 -0.5864004101298699
5.019370095836957 34.62067754947053 -0.5841913862678976
5.0544399978504035 34.73991728430944 -0.5861140576583368
4.764145096605276 34.146723300150406 -0.5843488111087232
4.7823913545490155 34.207664013762006 -0.584164705829719
4.844401348825091 34.3569580518743 -0.5853248332247039
4.834823484655174 34.44323074371976 -0.5849421591556005
4.861295460204642 34.50291103956723 -0.5885075993703679
5.57987332993112 37.38208741108659 -0.5717363415799082
5.597339090163939 37.44192384265092 -0.575496591980865
5.607820830771898 37.580367691497344 -0.5719360566811054
5.644857687532243 37.794181087451165 -0.5892265032018134
5.6777623311329375 37.98349892946203 -0.601226828561038
5.704931857268699 38.13900949849035 -0.6068797150102019
5.724551085376859 38.250186448265595 -0.6050977356091676
4.180680831463234 32.34242465894579 -0.4768593248107949
4.181711454177751 32.37698842243707 -0.4642998129171567
4.654746968339962 34.104584900329684 -0.5816947235931778
4.6420523518769485 34.20177616951356 -0.5837802166671384
4.680134425523019 34.26704322588868 -0.5851876562106473
4.722174349755253 34.33079681886553 -0.5855308248204949
4.152639742975528 32.38008472123104 -0.48028780691561374
4.149875795730118 32.39034973939903 -0.48055219397664733
4.562022093248016 34.18283768557099 -0.5832790046873348
4.63047944100564 34.306830982139985 -0.5863231270091822
4.589643144542399 34.34574315967278 -0.5857863712896283
4.461401292543965 34.10353464729715 -0.5832423882618405
4.500157224936906 34.20978349396585 -0.5851390026039753
4.4662219438666595 34.297087335806694 -0.584651388365333
4.549667657317357 34.433962200096346 -0.5860692841253863
4.539293702979265 34.4637124871583 -0.585484189288473
5.437499656274947 38.00639157493063 -0.5711351104998004
4.0189498972501765 32.897641293574246 -0.4663397276259466
4.326813630447326 34.19469161255483 -0.5828695101056232
4.404690669979319 34.307730522478714 -0.5860972051444704
4.410932874932096 34.419762945893524 -0.5843437610134918
4.459809154935773 34.61724966976592 -0.5875895757742338
4.445884545196173 34.69090813403596 -0.5864911217352855
4.661602338120999 35.29995008114593 -0.5757683513950966
4.660567621146616 35.37779798373527 -0.5753117573211337
4.67001979934321 35.46463678155544 -0.5806680526321428
4.693535080290742 35.63859172563338 -0.6018505762610711
4.737925844890227 35.69909961774043 -0.5983136952923751
3.9371111399396277 32.922810564406454 -0.5192414697112058
4.263692089397057 34.253870033151145 -0.5839539642983216
4.377256634393355 34.69034745756587 -0.5897650791620619
4.4107487072062295 34.72121176092824 -0.5799775164536778
4.465254545886439 34.86259748189374 -0.582520637414728
4.447744922700224 34.919469169476955 -0.5832171371698769
4.428561027399008 35.01417937021659 -0.5778394239717572
4.487204303995412 35.16677814511529 -0.5848992012338212
4.478835449423641 35.22209786445085 -0.586342784565866
4.480951657034761 35.29029480616038 -0.5751429548687927
4.528621963572269 35.51434544321186 -0.593651774326365
4.572718873694691 35.62791080668942 -0.5802485877758392
4.602410684241642 35.71597023859583 -0.5831571004571874
4.628495007523833 35.803393626295076 -0.5742432028121989
4.735941831015995 36.2157754448981 -0.5815555470961775
4.725564071234686 36.28419005015575 -0.591214769697268
4.785648321044772 36.39369529639065 -0.5637483431769006
4.8089804762686414 36.472121593311364 -0.5486433920687646
4.865063496249051 36.57419074981558 -0.5491202593828042
4.864403986181002 36.66044724310972 -0.5534879788913951
4.950086194254377 37.18469994358244 -0.5830719639240112
4.968737271210611 37.30668077231329 -0.5766532611095947
5.0236949446535535 37.497078404121524 -0.5537973619830445
5.041772023690681 37.565514945211284 -0.5594408583855781
3.8454582549167338 32.94400821626752 -0.5198762702674078
4.159531629250486 34.388533379711866 -0.5855723624430675
4.19577083725544 34.493381398981185 -0.5865865767295564
4.2075007512933755 34.61155039910809 -0.5879119771858379
4.273376111094379 34.6833758393247 -0.5875837136330628
4.296514614777054 34.730897033994744 -0.5878711663525236
4.302790807446369 34.89455790878242 -0.5879192948429348
4.302157264148073 34.959260091796665 -0.5665724656389406
4.343449507290387 35.08689793707905 -0.5881434882585781
4.379400439856825 35.173256152703814 -0.5868071974891362
4.3960409061166095 35.272075883405186 -0.5577114907190628
4.4281658087379805 35.33920432664752 -0.5727122450937714
4.452032211211208 35.4342414980022 -0.5882887280999283
4.476301124995192 35.56761161764988 -0.5886005849276414
4.492843611628631 35.66791931707884 -0.5716136865868691
4.503166726134685 35.7459187463465 -0.5639339365009111
4.520804411879652 35.838332026756234 -0.5456648082513482
4.545517297316575 35.949239901984186 -0.5210406702318229
4.580112306039456 36.02015597223868 -0.573573627061871
4.5937114713617015 36.139030108275634 -0.5575620717308918
4.639885671060637 36.26169834628497 -0.5707987984784462
4.677441254164096 36.32984253482841 -0.5708802658920642
4.7141684868106735 36.406616905513665 -0.5752464877598795
4.7400896639056604 36.51059292290034 -0.5595379434812342
4.925236266265264 37.19891089538583 -0.5859400650157915
4.954746432981142 37.39151954104314 -0.5828319356574054
4.9405503484599995 37.495363753190276 -0.58642237862416
4.980599610141395 37.597089107590094 -0.5883711218539558
4.99872891209303 37.68627636453775 -0.5819411526404534
5.03790324051653 37.764989956573984 -0.5682520014135533
5.016273713271882 37.846093377162546 -0.587440559715176
5.117591444282399 37.983324432783164 -0.5916221900581249
2.956320941522735 29.82910303501719 -0.44571054532739646
3.1340553403501374 30.543453632080272 -0.47403794444894337
3.1480607577805997 30.622143119079663 -0.5139948117441737
3.202843222474303 30.693116221439823 -0.5204543188955701
3.2195735037527853 30.79232849415683 -0.5147481154102285
3.2732068604828015 31.18641591824488 -0.45444268801417553
3.4717189590485376 31.970753653015805 -0.5339545494460038
3.4945617494452685 32.09341806979282 -0.5372205650624469
3.50824920420305 32.15452390962658 -0.5433786002925529
3.79852174206731 32.97101746976388 -0.5121575096566697
3.8016846027432387 33.039845148966755 -0.5204959160662397
3.817958672806519 33.13428999406193 -0.5257154419330519
3.8406904416717214 33.18733752866082 -0.48854802673829173
3.910068740167719 33.729238152773725 -0.5656684396459157
3.9336622118994717 33.818759302774815 -0.5641966959330336
3.956583232670795 33.91809223359147 -0.5655405874029256
3.9732561092869263 33.9895718161506 -0.5670703021374921
4.098296890874929 34.30892872405357 -0.5268157701346974
4.126328327974276 34.39389749192526 -0.5310854422133928
4.148857585616722 34.49506655895747 -0.5332808799264712
4.159690724052935 34.59426703482122 -0.5405021452826937
4.1918419243789655 34.677624203410204 -0.534065298566551
4.201288036296949 34.78222173534956 -0.538743239450614
4.232490523139423 34.875839279851654 -0.5489552998480196
4.279749129463747 34.97370265622893 -0.5436728612098507
4.291362599641806 35.07121129361958 -0.5293531364965338
4.309562116046193 35.175194710035065 -0.5480271603424918
4.343325335885696 35.270254034251934 -0.5527074496488242
4.37648748625001 35.35714526808315 -0.5245198909822555
4.397769285825432 35.450714016197544 -0.5483054283493931
4.404333593787363 35.55669055277949 -0.5479387406873166
4.43408692664928 35.65627442817498 -0.5589482929264018
4.450522314622514 35.74514771627333 -0.5394942977631745
4.504581386915681 35.875604657885425 -0.5197381041438707
4.511817995276835 35.96129299474267 -0.5339792748427854
4.530942210291564 36.05716894782421 -0.5304945736612887
4.564231706096425 36.1703858092323 -0.5243216385426313
4.562379197591976 36.272232063817945 -0.5413512693094238
4.599513524945673 36.34078085884531 -0.5336905656440032
4.742344909860958 36.827214591661 -0.5362862794895755
4.756773505552633 36.94835759484024 -0.5380987957568422
4.778511779859063 37.03456192726174 -0.5383865122088913
4.811840853033925 37.216725481698305 -0.5426309720388176
4.802608837040442 37.29950160576793 -0.543130007320314
2.7596722281948027 29.29922142836049 -0.44180642251015234
2.7880482568604465 29.389030986587603 -0.45407206163925135
2.8179469081472224 29.45246444596987 -0.4390244321631605
2.852563750388601 29.563196725707066 -0.4585288345990609
2.891933864012004 29.65963127002886 -0.4524910043038576
2.9030439973006636 29.789455333409794 -0.45045620975771916
2.9126916006937833 29.806517609619423 -0.45573185312173414
2.9429497168496326 29.953347790471124 -0.44624840595472076
2.9511118360571706 30.050916630478582 -0.4263918674799014
2.9785982142487484 30.260754473115 -0.4435754125952318
3.010513899742752 30.317978679328704 -0.45144357324913426
3.0693968429468033 30.431628332634702 -0.44518695355999155
3.258217356986357 31.165186298967086 -0.4606211333368009
3.4607193609517544 31.994916634557327 -0.542385976975392
3.488486323427397 32.09818899002418 -0.5426237658946589
3.5009495948317584 32.14617253714798 -0.5422932319747151
3.911189449713193 33.827624977141284 -0.4772409813329878
5.355751973483133 32.56287811008232 -0.37911720219977707
5.4377091195020215 32.86721437019474 -0.4593511909311434
5.79555978001152 34.362391603160425 -0.4933238323872448
5.856395959791497 34.62541311526856 -0.49006483678688245
5.866405862233778 34.65132956522783 -0.4952686589068778
5.891957795694438 34.768029590128926 -0.4939026548555681
5.9110286586403165 34.839094310374215 -0.5005861749666958
5.953052529028008 34.999255287028426 -0.4952659459509217
5.979998807006027 35.0798345033131 -0.5042541073091849
6.00939296531257 35.21849281357098 -0.5067422170311737
6.016650747425881 35.265136575181636 -0.49892793393238394
6.054936976856341 35.38015031947033 -0.5004898287946096
6.080787442690236 35.472469369441406 -0.46505700854695686
6.096868975895226 35.514307117778785 -0.4422062641880812
6.5228110810955116 37.20166044159396 -0.51004993790813
6.584608448342474 37.409055420071304 -0.4546691091441223
6.59182202621185 37.479414891343964 -0.4844012028329581
6.637121913435724 37.6197879245338 -0.5063820934870664
6.639675181381771 37.75415950410726 -0.5149472257363252
5.351174706714292 32.56694646087911 -0.40874437939817876
5.77970235500954 34.33983138955332 -0.4914501546342758
5.863889726474866 34.677203450547296 -0.4913216621940553
5.88923729672804 34.78324161838122 -0.49213822425824955
5.972672832230645 35.117959171025625 -0.5028049459833208
5.9753838673953235 35.1455882494623 -0.4929966318045656
6.012615676165342 35.277127654131505 -0.493568453915084
4.7721957353160445 32.239684579834254 -0.3756269741877923
4.762954228351285 32.26090855869993 -0.4151216710461769
4.450523104342503 31.982051608112023 -0.38106420374895256
4.192267197452599 32.36096405270378 -0.41165352417275186
4.186670333035247 32.381168703620766 -0.42145722384771994
4.173108286782773 32.38592099906715 -0.40799521954782864
4.020463942842962 32.89806412876406 -0.40421570127991474
4.479697142031347 35.67272455047101 -0.5087147209238869
4.493995189132301 35.736736708346015 -0.5026621484663694
4.499363038703926 35.804685061635716 -0.5093646947282435
4.567451810151416 36.02143608784751 -0.5139760482061129
4.667910115436282 36.235185842916344 -0.4778867005332415
4.6781447587828096 36.322925439487015 -0.49385048117855085
4.694037834677996 36.41090017982238 -0.49403027521440174
4.717672690647113 36.52602653936644 -0.49561129344023064
4.728745786976859 36.620262880700494 -0.500028172991051
4.732601329227916 36.768507279458866 -0.5230096996593248
4.837563068561414 37.20776619516374 -0.5189831618967593
3.7897977126102207 32.960653390294546 -0.3804464354030247
3.8330133460990696 33.187496973503094 -0.41395697193714864
3.8061922508106085 33.358667043309886 -0.43507198207978715
3.8208189495581903 33.403078162497536 -0.44524215316951
3.8997003345252583 33.760477389361064 -0.46241646368030326
3.9167365406967614 33.83174144905347 -0.466478367207003
3.9354169079594694 33.902221455411265 -0.46933704128595966
3.9817245859924797 34.03591727270967 -0.45813702888516905
3.988363250822659 34.114393601959534 -0.46855179139308617
4.087480959670355 34.2846125797895 -0.4305616240554691
4.560715290585032 36.076782988939904 -0.5156738963012024
4.74047393165276 36.824644128781415 -0.516484393646093
4.765921049957911 37.019336788423786 -0.5256591553719803
4.777830252710314 37.109488452179626 -0.5289304914951194
4.821245954880935 37.19733840477851 -0.5295137575244089
4.8203658423451845 37.300449014509184 -0.5255590290426637
4.864220421141067 37.403970123211394 -0.5207983107177727
4.878555358817138 37.48151458046782 -0.5061791655847152
4.902496659747253 37.56279289773407 -0.4980066884875444
4.904980358071962 37.705525724766545 -0.48428055077981563
4.914916314644106 37.90299700720332 -0.4858005640920023
2.760154067826978 29.32594927928541 -0.365558650008422
2.7729281981699203 29.352459536697076 -0.38953104288021984
3.7938589016072877 33.353650565821816 -0.3772723618949591
3.8980483108742887 33.77259049176467 -0.46532749752899427
3.9122807722187787 33.838335470567266 -0.4687663616503133
3.936276694858917 33.94721106677545 -0.4722508899447376
3.986535353985136 34.166411844833334 -0.43786583795884876
3.9852439396952315 34.1756721126875 -0.40518973842715306
5.35592158612191 32.56523620833832 -0.30361398401313283
6.069668464910425 35.46885886792984 -0.37332038552986624
6.105862250191443 35.544230518398884 -0.38867399827252974
6.525010602677045 37.236752510422725 -0.3734855188576252
6.57086725746969 37.40169203055863 -0.4385501527399102
6.620498120489364 37.471346663983326 -0.4451288518947729
4.955087407899712 31.005373498380585 -0.2402182224182326
5.349541592929301 32.572327534947135 -0.30557067066472143
6.046820426609166 35.429710366460895 -0.3323112568386372
4.564069482458681 31.93980484048033 -0.29632062507407997
4.436917065729809 31.968086340144552 -0.3391577268635401
4.235511379925556 32.33824951347547 -0.2850792796967601
4.01968445541471 32.89846859864257 -0.30788477383759566
3.8050674553999198 32.96192756778471 -0.34187936311842576
3.7925190649325398 32.961092675008835 -0.3074664024412228
3.8161972535835287 33.18321618809711 -0.3353634247036091
3.827857655525875 33.18775560496918 -0.3149063106212957
3.8096934200118477 33.34686808152038 -0.30107911867108983
3.8394653830801726 33.43236134661122 -0.3483623865245568
3.8545733657290158 33.53884267838362 -0.3354894097202035
3.1840589784254973 31.04974019846886 -0.2709298600621799
3.2131175709595534 31.09945125790389 -0.31708257949331675
3.7916258716472577 33.35462727049778 -0.3578747829120874
3.9822379104936885 34.17493248452428 -0.34027166143226756
3.977663920203962 34.18218188519437 -0.32756395318506637
5.356963062230451 32.56611549753855 -0.19449370662545098
6.063069522405095 35.46815186010373 -0.26586154356018066
6.5167495339302075 37.22729747303861 -0.3339558907036292
6.550567866831122 37.308538210304405 -0.3037128220488584
4.9597274359533445 30.95287961828596 -0.23138019217399047
4.952444892125739 31.02236841949138 -0.2293785434510921
5.352316720489781 32.569795728313984 -0.23299102263463933
6.054738999585544 35.452052001409875 -0.2585260289466898
4.771144881348321 32.2277530112026 -0.19936781168940856
4.564272204354952 31.95253516831385 -0.2321275305237404
4.632511989663521 32.21215115520619 -0.20357283630281853
4.428681536105003 31.997200843404517 -0.1902675170592764
4.250141531230028 32.35865425236391 -0.17183410916282033
4.255381462586318 32.38509443856131 -0.17295913988150044
4.171765387447484 32.42271486811006 -0.20857845805550174
4.01701508486078 32.896025688531765 -0.2045716382902854
3.8089083332399136 32.96652203370161 -0.23044171967706423
2.7899760471627246 29.158687674504378 -0.12234949766617734
3.2466471322401382 31.05657977772412 -0.1616834614242501
3.2515767668501905 31.07141437806023 -0.17220136073394493
3.7888042194534357 32.960836290031914 -0.19914843321520898
3.8372276666162732 33.18936325343955 -0.21184161429196782
3.8113271656897156 33.34885573818348 -0.2154902762728004
3.8422040382306974 33.40149525979162 -0.21885909553058935
3.880473658194429 33.631069371782104 -0.18767050336068183
3.998552534720083 34.154551765047515 -0.21237350546168765
3.220188841200029 31.053086539949227 -0.21762907605240062
3.226695575019658 31.071000519155163 -0.2217795699609172
3.9855007842883414 34.170485116162176 -0.2598123009494914
3.9754380563202494 34.18635256220729 -0.2765450152179085
4.951735637858922 30.90286440656642 -0.07381009652571464
5.3566208439170975 32.56645418363636 -0.11306815663176706
5.566347837816416 33.382245300895384 -0.08245270404136455
5.568853689301415 33.38699923207943 -0.0882592146562266
6.079708541534558 35.48954939336738 -0.15470031683968374
6.101670875653937 35.534242250017854 -0.16158872678014363
6.51710034908213 37.22217420511277 -0.19536781581905452
4.948865161241604 30.94288217511626 -0.08856069237559634
4.946653786676412 30.983366252617166 -0.111804522189621
5.35299684900417 32.56986859244517 -0.10820339895459216
4.7746738304878775 32.20058646357979 -0.09286166778277569
4.571280253385079 31.998767993608435 -0.1069173269392894
4.627653208123319 32.1965167823058 -0.10995900871126071
4.424494151543157 32.00798858654087 -0.12489588477387414
4.255904002527129 32.36017686754372 -0.13989488338393252
4.264243141323121 32.37978673909178 -0.083770419704345
4.2517733079780395 32.481534140152974 -0.07593532250382513
4.198144733487652 32.47615595730311 -0.0757954246205266
4.021718534767072 32.89815231251081 -0.10716213211372849
2.786838941870938 29.145232608706767 -0.06809890177018471
3.7864481300570327 32.959805471413674 -0.10909810544366713
3.829426086363013 33.18767706751912 -0.0700402682289713
3.832279632128354 33.19173008161253 -0.11932728080834257
3.823351092102472 33.39363220664352 -0.10648944964219595
3.8315535540650436 33.39746489218299 -0.12497130084705357
3.881477571846742 33.63513725703636 -0.13107719505147208
3.994716478677056 34.159824616475746 -0.1730185918331761
3.2127506472674874 30.997687993316003 -0.0630777103368995
3.8609793591858406 33.6378229762996 -0.09292582482689947
3.990219614666579 34.16688024209121 -0.1252550305357438
4.955316451475534 30.903946558406698 -0.02254821223263751
5.3567443380150594 32.56520532480773 -0.01749261546575763
5.564549061833985 33.380450177651916 -0.04078577368912857
5.570139347119949 33.38520398561643 -0.05980699477388596
6.083563109688158 35.502865510255724 -0.06745196302753112
6.097898942861889 35.542999857817804 -0.027876704966909645
6.5372130976235 37.262969743467295 -0.04762039273329151
6.561538714548032 37.337721506512665 -0.11245962443158042
6.58463614669124 37.3901632599874 -0.10337624119009042
4.954551661724983 30.95967676750073 0.007333363941357526
5.3518922556579245 32.569872507995285 -0.002210566631459139
4.774469039611551 32.133324805653075 -0.01199783714744563
4.7701586096616255 32.17212952501528 -0.0060029674473625685
4.289588851605975 32.3887641247035 -0.013365154460264206
4.274265214307506 32.38689821889557 -0.049351538185030214
4.2839847610524515 32.479082247025296 -0.04686066770262455
4.019636559885334 32.89717773905174 -0.009850733770123417
3.8603462389114305 33.19311676246688 -0.0067157740075117975
3.2422150939486944 31.02370997585998 -0.006901662021348197
3.789502266929716 32.96056804359327 -0.006559555205248334
3.822914775958766 33.18903825736782 -0.057603107298299525
3.843590098162814 33.1922957016276 -0.00913936977863302
3.8254192165190632 33.40288386144193 -0.014854368031836165
3.877454070924239 33.63894270707662 -0.00898851451353029
3.1922613354784413 30.969504807380407 0.035525767534180054
3.216840084173045 31.003994644403075 0.028650277375712255
3.860122042723564 33.63300386417004 -0.03391311906137075
3.9839142446763107 34.17475507987773 -0.03936397780366406
3.9801265878015797 34.18386631665373 -0.03496029413118894
4.9784275678214005 30.98417270056297 0.13046602219169617
5.356710893190397 32.565602404072465 0.06903171564542561
6.07997847674171 35.49662790791002 0.04114406507446576
6.099042122862484 35.525829233491564 0.012086072060609233
6.540437257109089 37.27640699293738 -0.019036601627741866
6.589243394426109 37.39310042235919 0.030575373240089618
5.349068929925931 32.57141391571806 0.0893880149046784
4.782789688027607 32.16181056172443 0.09205980871179631
4.3372668956307905 32.43973609420226 0.12685379499662908
4.022362792746953 32.89626857465969 0.09264717069961663
3.788317870733139 32.96074948497802 0.09668579755493377
3.827841675328893 33.189309264372895 0.11075115380822376
3.8377213331735596 33.1935510308756 0.08412178756062436
3.822479231351875 33.39105412917183 0.06653802352004451
3.8253275593042577 33.400196273899354 0.03485870681119786
3.8976201995316266 33.67336933243516 0.03707597914090121
3.910200182385184 33.75036972038896 0.06360715503838475
3.918463952080027 33.816195350863964 0.1040503760465934
3.9700981739796943 34.04003621542226 0.1157243820694919
3.163178407163496 30.929010132203278 0.12398834539127834
6.081203432199037 35.492664057336505 0.13767965113904368
6.106420748373954 35.54053384810317 0.1622220085573469
6.548015941102628 37.25905554715573 0.14343675260384314
6.569618436461834 37.339916979086084 0.14176797575691125
5.348703987999718 32.57018352004196 0.17742753037703055
6.043982964568415 35.44758513941878 0.10796359562390895
4.797139967036796 32.12777493942966 0.16383136573344453
4.792726249072935 32.145202930804835 0.16142563607822094
4.437380694334474 32.10539202615892 0.16115954964193674
4.393823965177591 32.204566151393635 0.22200889035468555
4.335419933798505 32.42567162383282 0.16447215383051886
4.023420494922507 32.896515669695354 0.17542808629726628
3.7899899337141827 32.96061535373591 0.18562879638126828
3.824725110024564 33.19311432046426 0.18573679195820247
3.8189690442355406 33.24422812064921 0.18790132641592447
3.8109875034020275 33.361386394676956 0.18932580409631428
3.9199335971319975 33.844057192102206 0.1260428325744613
3.971347516194711 34.05846118525767 0.14023083830816802
3.9794896851302513 34.092249421675845 0.12616875837983824
3.109231029001288 30.870135674340553 0.27460654814920726
3.1736820039507796 30.949893804909795 0.22010332451439582
3.7960928502179496 33.38543965467014 0.18744950150859482
3.912985534374424 33.84214861050835 0.17239199598006832
3.9569749191175596 34.0369832098726 0.1753666983459656
3.9718685815404164 34.111748854380465 0.15790278792445261
6.6809873099605985 37.586555346285635 0.1782672744587395
4.988936306222442 31.036600757389902 0.33276520686836963
6.057808500713329 35.42944230063916 0.2584015855405666
6.068767331651978 35.45764076289311 0.23994101587119693
6.565100276211814 37.31318285488543 0.22102398386682942
6.611684982786313 37.41190782732031 0.1898104815784335
6.027584414214131 35.39919933172794 0.2163564658647595
6.049952447613628 35.43325472078811 0.20994759459726925
3.784853070020122 32.959806989522825 0.2520325736415693
3.8364825481265368 33.19204424721262 0.25188253974602315
3.814996162613204 33.25497607939141 0.2500724098370639
3.805233845105694 33.35704755651594 0.24473472256319492
3.1184612266544516 30.878666097675133 0.2880234685337686
3.1625687993591898 30.940565634650575 0.3236629444080102
3.206580443466314 30.989407286182686 0.3273119262597961
5.005209424127849 31.043972830965195 0.4003341427148597
5.008742211519494 31.078123489126202 0.4083704821589563
5.037322524693904 31.17435997683859 0.4094651163163292
5.040509982703799 31.266078148784516 0.3968799876910821
6.0706273685125005 35.38344565270705 0.374864149539439
6.09664863646183 35.47073241413036 0.3434531228259125
6.103365377660272 35.54652308477132 0.37807798495245915
6.563826168726439 37.324945579394644 0.28360061562995637
6.611859816044799 37.39975272886466 0.3204591710179466
6.649188073472234 37.48278380537668 0.34066531000487077
3.2329577790887516 31.02231897415175 0.4241079493847096
3.190472327492296 30.972497427957816 0.38993315962062963
3.220439873570396 31.005909448312174 0.41647033287970586
6.074370723950851 35.376875588242896 0.4386022457249566
6.087616177192388 35.473832358495265 0.40865336190246876
6.09255959743934 35.563841072048575 0.4842821552091367
6.49518230456177 37.150286117527976 0.43906407425816624
6.527681553189541 37.24789227021034 0.4264524010561446
6.572328208328484 37.33655387859881 0.4050067771981751
6.587701817788394 37.367464745375 0.3992565753316441
6.646508940582143 37.483708004528275 0.3687016286401764
6.027904251179962 35.429076931883664 0.4396359438315003
6.04416182817991 35.4530291700084 0.44331402825618
4.869884926964686 37.61585292283771 0.4110362351775598
4.884962352320295 37.74308942655521 0.40389413816300546
3.202420848950073 30.947891347832844 0.5439813630597601
3.203574844043196 30.985357358656255 0.47543377351763605
4.907737815240138 38.040143883172654 0.40764899838385804
4.888600139285344 38.124430427084775 0.4036740749669765
4.904100232183744 38.28157006275268 0.4118138772978959
4.921295586265406 38.286080194085685 0.4077081798477091
6.090482359892226 35.38982127389431 0.5245876919844878
6.091437392958616 35.48546000139828 0.5440434651480899
6.09977090788249 35.55471857588884 0.5338209244292227
6.498142985369655 37.162624700821894 0.46531027622445864
6.532766863379543 37.24583602664551 0.5131514469309646
6.06132357782554 35.48840840500235 0.5250406718636664
6.580599431694335 37.81768527755913 0.48495606503287947
6.626577201587676 37.93492133194181 0.5266766928007409
6.628605542649929 37.98428258179999 0.5417713043003305
6.682836409715713 38.10915438356045 0.5182178776166633
3.2163291554134243 30.92853176223894 0.5822225620780168
4.6454526200794 36.78383308485649 0.4937946107074371
4.682963142346829 36.82644056269767 0.5291512549331632
4.702978919660976 36.92800873546746 0.5201634306745757
3.170345733516173 30.873749911085618 0.6199914244017335
4.59957063185456 36.689565213093644 0.5112248541008111
4.609731217714755 36.76578294244751 0.5034194149199454
4.885261062141287 37.83547328235247 0.4554980883434699
4.902342967255947 37.95989922931853 0.48515182748644575
4.910264550689618 38.032579982913035 0.4941051168533488
4.903714001852748 38.13480843956594 0.5255196002590774
4.936553196455396 38.29479415632752 0.5336033383867238
6.675466545395066 37.5698718420621 0.6300983577356372
6.084023741300988 35.51100939546424 0.6427668396780051
6.098450449427063 35.54866414143483 0.6191797963787178
6.528882250043682 37.22935440698202 0.614214705544234
6.568352036405242 37.32989356051104 0.5561107801032754
6.586071691354611 37.37109254237161 0.5747116413274227
6.6383067577554895 37.48662440447194 0.6044508320837132
6.6236854358292065 37.93397097916153 0.5556516008365702
6.637449265663137 37.989583924550345 0.5670081818494286
6.68281023951563 38.102487076628044 0.591764487101571
6.734133677894981 38.25197843138365 0.619141926392113
4.648304982008883 36.783477681558075 0.659899636359095
6.079391748711474 35.507282108210006 0.6977400025029057
6.445287875684068 37.01746690850299 0.6968948874879672
6.492055062471331 37.15013398986363 0.7292665271762777
6.630974072211629 37.78980875822696 0.7301345509695902
6.74912402573659 38.24776095752656 0.6396714438394824
6.757390812192509 38.31220106520775 0.6423026993029195
6.061981657815091 35.4735343097341 0.6931615763942209
6.62240153265304 37.8275656120545 0.7281280787220803
6.692163106862677 38.08895908559183 0.7275932753894918
6.7406099129848025 38.27896871516078 0.6765555189582417
4.840164438034629 36.91209877253638 0.7578771604815844
4.853888808921983 36.99985818882861 0.7618026821425068
4.632111298996926 36.57220628343497 0.7663280119033908
4.6441255405424435 36.79506304214593 0.7027749037596289
4.65482582746444 36.82338414423127 0.6909774298000588
6.453567674485726 37.05197361036751 0.7702992620612281
6.482587776607314 37.11660718902486 0.7953587677639091
6.537457533357379 37.250205547601574 0.7607541951990926
6.560754963869404 37.31491872216346 0.8060986510671193
6.657895652415356 37.782234422889594 0.7670037385286312
6.663647648673576 37.8886570688649 0.757639298420762
6.721740232608347 37.96803310855814 0.793811200892125
6.730639568040286 38.14912921156292 0.7868015531609069
6.537246827237217 37.67004661949295 0.8160553059123943
6.561884000698722 37.72898927801508 0.8274834968573712
6.664341789481149 37.949688544263076 0.7594174979417683
6.66023651956211 38.02386875623853 0.7745009272832215
6.686674211655719 38.12987254557136 0.786408183985734
6.694362605347451 38.22934536795932 0.809837102074092
6.721603815871905 38.30045396858522 0.7948607525829818
6.745047937562169 38.36415516693906 0.8282672882351951
4.773949399583317 36.90392774283478 0.7961685055797225
4.8322576422973755 37.02361385943814 0.7942901728955463
4.842088288471887 37.10374217302202 0.7939575905981766
4.865418303877353 37.235461047105446 0.7958928580654165
4.618552069868301 36.32817487092521 0.875759540142242
4.643330405462424 36.59058042166083 0.8067854641236805
4.670033877283329 36.62075830854732 0.826322754887576
4.862103771299434 37.32217099837975 0.8029360406518018
4.872924526672935 37.40253944240422 0.8099502046683533
4.884231375800019 37.486700651742424 0.8173701659989396
4.904250580155704 37.60388455623091 0.8221351975829276
4.904669130106728 37.72957615635988 0.8205249685842069
4.855061045869121 37.777955435302395 0.8040972427792932
4.870716887032765 37.82925374309712 0.822238616216534
6.463946229942698 37.05151570312504 0.9206163031198673
6.503147717582573 37.13010531832908 0.9246752383020427
6.608794528242118 37.42139834811662 0.8683255806065573
6.700928720170431 38.09636326499803 0.8639475528341918
6.759149278364642 38.326176008580376 0.9087631596141506
6.4074201450692625 37.157766248859794 0.9294493092371074
6.573310211190192 37.76203049450381 0.8597848831070636
6.645405639602255 37.96548634559289 0.8534568280724371
6.665882041202661 38.01789428666168 0.8771760253077805
6.709861408605796 38.16271777039262 0.8844949667514796
6.7477297253859625 38.40867671593904 0.9082241697133802
4.522927684715621 36.250936820661444 0.9471939205500319
4.564091839175016 36.40164507828779 0.9542848130230384
