ply
format ascii 1.0
element vertex 838
property float x
property float y
property float z
end_header
11.155969920613881 57.639289333121866 0.13667226641812788
10.811713720534938 57.64901593138347 0.16481436820683523
10.811103386181978 57.66286309321756 0.1592741368414752
9.82049862900017 56.52443416867102 0.14954619322184173
9.827924740147159 56.56911849298597 0.14656981608168318
9.898029416096977 56.84836983685089 0.19193039033758064
9.52389721886465 55.73265311445625 0.20521338813863232
9.578485517733968 55.83619289695622 0.18195681349006337
9.61336335317753 55.914002428957616 0.1692386280558781
9.678331268316796 56.15243188420151 0.17575024223808683
9.805836358043308 56.5330138698059 0.15358405988642362
9.886843110946113 56.837304955371295 0.20048043056579185
9.488181475883248 55.69305743971516 0.2083677615251032
9.498342182502633 55.75058346571007 0.20452530150279247
9.55852542242765 56.07129578519871 0.2046000458805444
10.760850168875821 60.83970187404547 0.0884758109438842
11.322840059595965 63.076461517175744 0.014951306725937585
11.32255000905251 63.15824827086507 0.049246569342868064
11.320376167285778 63.21934256798846 0.07702224439108828
9.332600970770823 55.51683352582389 0.24896780279811148
9.371633642929144 55.80558643892116 0.2514702761880493
9.413644482130621 55.91684302586074 0.24926851785639764
9.43280756033493 55.95567932852234 0.238040080267112
9.979640309245935 58.41814054786561 0.14336426918289694
10.066940660247589 58.5438429563839 0.15229682953113918
10.61181031263412 60.75593083328421 0.11458603652508123
9.97430062195773 58.41740992096927 0.17219973424140886
10.84112093429723 62.24008229914316 0.06631019493161787
11.111130440704365 63.127095976072894 0.03673699954279253
11.115013670750658 63.18355727926701 0.07136249009822775
10.834484523717062 62.28207490836543 0.049454899344337416
10.836662373164021 62.35128911495958 0.08247653369930535
10.87520910220105 62.581983189374306 0.07661736744871409
10.875243076723176 62.596422468875275 0.036865857456932515
11.979143380683581 58.17168634698092 0.2690494340788924
11.982923933228953 58.196363106144155 0.21925119573319432
11.77266022548319 57.654825097054626 0.2534225180137702
11.967702317858286 58.17541131303956 0.2499245934296085
11.978067797187364 58.24637466991113 0.2497272118906777
11.975594583761783 58.34018819869289 0.23906297972253238
12.176514063307978 60.39520472359022 0.23448182295117206
11.966218836184025 60.03205693708378 0.18517885894585884
11.979588719448836 60.092405621259445 0.21946203009598905
12.010323715892133 60.192976082621016 0.1748362340088937
10.75976985230786 60.84168290540089 0.17807521259432624
11.329279394568617 63.26210336084027 0.15024608986722982
11.33608123906687 63.316166906899326 0.1955243885093838
9.410321496758014 55.93011218366991 0.26919528122333064
9.401014398355064 56.034907133691746 0.2872685832129038
9.977880544950715 58.418326818032455 0.20954506714128854
10.06464572984111 58.544396093695745 0.20716738714223135
10.609637176484235 60.75494215254194 0.21465721520033723
9.96822812097287 58.416404430936396 0.221229751569083
10.846821375661104 62.25294882828543 0.18909949663192996
11.111032522868546 63.20266910738423 0.15010893644319317
10.837358162074347 62.359590780596015 0.19505365151900628
10.833390159876993 62.41766270998219 0.14272890372411678
10.855150929976569 62.5283070615037 0.1457921651376185
11.986445411401359 60.10823851393129 0.3164236295840941
12.063165199640176 60.262772606234485 0.33924063730150367
12.045849802882739 60.75319208581067 0.3311051182236218
12.052527490476978 60.777145086352064 0.33325017212650065
11.324576211836375 63.29465295682664 0.24835869345885636
11.33493566302745 63.34952750382783 0.24928320586957686
9.41054560963475 56.117349387688556 0.44482032859917575
10.594995351989041 60.79910566147126 0.2895340728537642
10.587342517271985 60.82783855537561 0.3353678067746245
10.8573442860028 61.91638541038113 0.32679051700226963
11.044512388536079 62.612792806313344 0.2538298668312904
11.055844785749045 62.70890029996257 0.25711356393174134
11.218951222459172 63.235831783229905 0.29278937502017877
9.385348827644817 56.085858620614275 0.417801700989948
10.847385657360396 62.06675267064497 0.27574809371244413
10.851124204649167 62.12025071200113 0.26341045530376916
10.845223832912042 62.2374797466406 0.28590851151615737
10.854265948094588 62.335706827734 0.25695311995724474
10.8848012858714 62.42251494226939 0.2502154645332357
11.068083095617576 62.84592590087897 0.2694053917690222
11.065230846462562 62.871743806686304 0.25180763625833835
11.0806778137822 62.99803547389803 0.24850062879002294
11.0966092375084 63.0906260813546 0.23580426932580525
11.112944816154664 63.313301096272106 0.22911735800038865
10.876602763735374 62.544532604524996 0.2339944811290843
11.105255587238078 63.394411908988396 0.2733176494279968
11.979792822257153 60.10349255230379 0.3998875530588871
11.336832361584728 63.36364188650055 0.3450598917672528
11.329530304688562 63.44246817158834 0.39828398252722136
10.597694903503257 60.783113279488134 0.42142013136332923
10.584310485689178 60.82269902774128 0.3728906989198054
10.864711588214234 61.91628933742868 0.36990820382304085
10.867200926948316 61.9838758611304 0.4299969331325479
11.22299306728875 63.277414275643544 0.32381723031161974
10.84420375377325 62.13960370923572 0.32854529883645
12.006351005882 60.712254904440954 0.4794439527533861
12.051171351161106 60.779777333008944 0.4765938217304255
11.332352237148427 63.401598822175856 0.44355475172756764
11.33762853477536 63.45183506775252 0.43726980033574153
9.400135460494324 56.01751440135415 0.6388151106783311
10.609592692165322 60.737448979220346 0.5146513135774717
11.340983947175378 63.562328853800224 0.46726156970021837
10.856300540745798 62.03792262427583 0.48106691677821994
10.851002866738524 62.150003683310985 0.5166059321568836
10.933843395069378 62.464215684468996 0.4483179916999526
10.941311818868177 62.5131357944924 0.43449340349701815
10.95826698295655 62.605756747276466 0.4423237605630296
10.970541940729143 62.69679258477336 0.44104136543967093
11.076929162874805 62.89937077446303 0.46069674057883814
11.044490732248155 63.05167871711008 0.47367513850160475
11.090586128584455 63.11348236405087 0.49539564790043783
10.879437000736155 62.57336123292064 0.49920245003376984
11.015425929520799 63.05630458220981 0.4819287821204306
11.751211429585773 63.369097655696144 0.5114758160477754
11.766288813612753 63.41857986187124 0.5285895605556566
11.341650581937706 63.4916794467669 0.5024532255117364
9.167254863034515 55.05402202803419 0.7120959137043943
9.190131914831584 55.09907248825939 0.7150045405417791
9.259699075048584 55.32006478156224 0.7554468098857748
9.274177701976724 55.372617824530394 0.7562335644852722
9.358234740140212 55.8102607052981 0.7440248376856424
9.378891480536028 55.897716873681304 0.7104129968851655
9.403951040615013 55.999829831362824 0.6683100207118283
10.607839974335265 60.74625474727654 0.578049615535181
11.328149416106003 63.53311999000781 0.5113276951875906
9.311433375629392 55.78091957477441 0.7432673176549147
9.344075258493278 55.900324001448695 0.679875979999591
10.857253608053892 62.037064438023016 0.5910318351095319
10.852075806260641 62.12314384102696 0.5492424162219357
10.853320871439456 62.19968752227498 0.5643204232380645
10.887719210586882 62.453076148384824 0.5611026958430582
11.096257039166122 63.12985926794779 0.542905376716696
11.1178062157883 63.29472840805146 0.5588286789444898
10.879659452540617 62.489574487403196 0.6134642855758242
10.881038819710831 62.54931387031491 0.5365968824272627
10.867331528763305 62.61138338738896 0.5309420181718559
11.889321688795798 63.109797035059835 0.7056483088485295
9.135446268086692 54.939429543752674 0.8074786577480324
9.167956692127404 55.04678899798315 0.8050577967844135
9.17147687381053 55.11554406149606 0.7973623812949151
9.273343991461076 55.36929205141485 0.7698873522790961
9.273333854829797 55.39518597989841 0.7768825439793596
9.301854702699497 55.52151016638844 0.7710274056871895
9.147914430996654 55.115823460671706 0.8196271228868872
10.85669175039222 62.04699394235798 0.673142731815531
10.886183527049749 62.447181035579035 0.6268187725278037
10.868021969001127 62.59801077695526 0.6910870093869751
10.86431376256476 62.63200609432241 0.6905204005164396
12.293053274490807 63.45111241468043 0.7620430913260609
12.321855227868088 63.519985115689366 0.7900142332253074
11.937823660949272 63.04270566620135 0.7093544029154389
11.828961290188031 63.23586175158042 0.7288447216848888
11.66044570033956 63.44419982371552 0.7612341109618718
11.656163608910841 63.52511497017804 0.7795106392609917
11.644718538769055 63.55749700400809 0.7763004908138039
10.84378774515838 62.14826416530997 0.7405099406030023
10.842387656681154 62.21737009481012 0.784908425759676
10.874303274286548 62.585539073071025 0.7208366166499595
12.352477808200172 63.548247397482854 0.8378115192423531
12.360705086631725 63.60721413334882 0.8367319058914853
13.241122468850307 62.9619666798602 1.3893791501403674
11.396448652719103 63.49821546321395 1.3536687640668479
13.306944768691213 63.01591343801286 1.4237812585591991
13.338112039118212 63.121176143962295 1.4688951828340004
13.371985784558582 63.176491778801406 1.4966290227395154
13.279855401517036 63.01629732887572 1.4186381057539206
13.270322863972964 63.065976850394065 1.4395110131791418
13.296867502343309 63.19750212039806 1.4885220541651822
13.347945445803688 63.25856598014046 1.5227410772908072
13.458870071212385 63.42328837668104 1.5915599252133972
13.313327662543706 63.2623364934888 1.5146905265802428
13.626806424279746 63.47600114115892 1.6569822446525362
13.615840109407694 63.49531034268119 1.6688900968108082
13.556226822116091 63.38558659344147 1.6013309509306444
13.58601365438046 63.44036545492293 1.6349351894508075
13.418919107407778 63.44343085498264 1.6586900035199919
13.64637416686858 63.551552277296146 1.7036302371399048
13.701104115670596 63.619753267474046 1.7399388632716513
13.59463854676375 63.63173461691485 1.74161999192268
13.638201506869397 63.70828493480919 1.7711934697456442
8.368392838978759 57.59416039938904 -0.27801296538995823
8.868961124455877 57.40504284903203 -0.3061697237853577
8.96969328735537 57.39823432300718 -0.2903773637381163
8.938817221526563 57.39535710403302 -0.29563899904106344
11.155822129069715 62.87720140544414 -0.30175820229217315
11.13792316425332 62.80032704866155 -0.2936298037541811
11.070599882504153 62.710768350877025 -0.28382507586677014
11.013026074757766 62.64472180995519 -0.276590991574913
9.011216085160692 57.37692823081984 -0.2856189871925311
9.016697966346555 57.3382173784715 -0.2883138383709185
11.119867112096875 62.69955837446939 -0.2830418832773388
9.095843692964849 57.283675569105036 -0.28118131640880484
9.157796212604604 57.26526339200317 -0.2735709829090015
10.598328185498316 60.59693629383594 -0.28074163113824435
10.530686456661085 60.35271269056929 -0.2981268926325002
10.512401918863189 60.28840419990273 -0.2836131495464867
10.75485765082547 60.71815897299934 -0.3026873564048021
10.725182410571314 60.626583475052925 -0.28393001198312834
10.667381013052378 60.588013042394074 -0.2770361286242168
10.503144433625643 60.24198142352718 -0.2729978031337174
10.456685566125088 60.06991719812311 -0.28526898104525306
10.441909909225819 60.02758692604184 -0.27343124428736076
9.785095024108196 57.10892427844801 -0.27780911315468043
9.669739495355316 55.985070741815925 -0.28202293745552875
9.657217835949066 55.886382317307564 -0.29536244885675156
11.970880770429247 60.46297962653862 -0.303499158823207
11.947513887248613 60.37110446949319 -0.28403537837733134
7.381993083349377 47.962435670025094 -0.2731383401106054
12.149575476603639 60.19953066045649 -0.2757996998658928
7.261891286702532 47.404237698325616 -0.29382736529370324
12.196320476099444 60.17025429023657 -0.2765888617683251
12.152125856242899 59.96176824001287 -0.30232210105022156
12.13406365577446 59.88355679216736 -0.28475446422897355
12.076197718050517 59.681903992528454 -0.29616516711627916
12.057880459339941 59.61144388601839 -0.2784263547570979
7.360976210622588 47.37910937457835 -0.2933941640275491
11.384927836982435 57.03501520094504 -0.27981208033064836
11.366489067898131 56.96539205433315 -0.29548855795561974
11.283953311180186 56.74172260897547 -0.2749075486976609
11.312973135158137 56.75014576266475 -0.27437685242655385
8.658584542639282 47.060460150982934 -0.2915004346314305
8.74130988736433 47.05448492952307 -0.29113370309466235
8.918559953775404 47.227912533844126 -0.28372435952905933
8.817519815223344 47.01371147399936 -0.292089309331737
8.372306331043331 57.597920591205906 -0.17819663625974974
8.479777740876566 57.599184103240745 -0.2619108849758598
8.543113576031477 57.56073233720618 -0.2547771787851527
8.565953533926468 57.49014277669377 -0.2552191849968801
8.58300736264722 57.44128068585051 -0.25550815178773456
8.611639242436887 57.4041825503664 -0.2537307530439051
8.75765087232448 57.39155962868231 -0.23472806317037076
8.68910626949466 57.37833170859196 -0.24476811334135176
8.82563166093584 57.396452627876066 -0.225347020294269
8.96719788707125 57.39539767634523 -0.20673463729456124
8.926922675549815 57.39889698811965 -0.21178386961649
10.99087326101306 62.54550067379549 -0.26617043025890796
10.970027097814558 62.456111359853615 -0.2567938973346038
10.943920190815124 62.347696126302914 -0.24542634251871842
10.924981699440357 62.269017977423474 -0.23718945360082083
10.901178981150888 62.16060622594611 -0.22585694372860285
10.878212853165815 62.09122041378438 -0.21859375731129005
9.006359137579087 57.385245947202364 -0.20232937532837336
9.01945608195957 57.336040402828694 -0.2041954725592685
10.867530086633113 62.03721196165309 -0.21296112097659078
10.851379123753347 61.98500877113361 -0.20751612284178525
10.83659403449668 61.92281911323579 -0.20104520348321245
9.102194031151814 57.28511197178885 -0.197567910975996
10.819886591175319 61.505663029161596 -0.2601050700752549
10.80249005516183 61.45916164021149 -0.25367206360725897
10.778364319848604 61.37305451659685 -0.24177068764791723
9.204700932139643 57.25701058780807 -0.22095131013850733
10.597424902888593 60.58835392201659 -0.2174572374946018
10.560852455276965 60.47706981187719 -0.2170528807348885
10.539675600979393 60.3894778998597 -0.21578782759580592
10.511804553421234 60.286325475235415 -0.21983808510003283
10.492960832578522 60.235080041863036 -0.27193946265380764
9.269282485918026 57.23628635395661 -0.22070906462276027
10.792200800654019 60.900787181212586 -0.1761509822355097
10.78570111006228 60.81171501592233 -0.2424268179273267
10.759147524548734 60.72341878446095 -0.22727006787574108
10.720348946576006 60.62640410655552 -0.21087091975085404
10.689990937243238 60.57419584798868 -0.2140380775412674
10.509984758482583 60.26589512128663 -0.21572989028329143
10.486879396099784 60.1825150342015 -0.22807021282370007
10.461279727077148 60.08666179166186 -0.2199129495006209
10.434010053768693 59.984796259639126 -0.23502583659442403
10.403549189406696 59.89729229787024 -0.21591443020068896
10.387465766686454 59.793732687706964 -0.20962400872112638
10.360849310546087 59.70030779869276 -0.1979386331959566
10.336130921009111 59.614851601168546 -0.1804739970050576
9.842181114506015 57.98233210061053 -0.19389006089745417
9.78827215720441 57.10904328616669 -0.20733830213944934
8.789913069085639 53.86179896433694 -0.23823906844701534
8.741802140391014 53.82130622933512 -0.24244072512979273
9.683556811226481 56.05917799102967 -0.2717568586525071
9.662259323711588 55.995769058734304 -0.17668245703624164
9.662666153373303 55.900625474929285 -0.18567489575942048
8.800432565251949 53.81872077225271 -0.24064064029916735
8.815696135379048 53.805382708630155 -0.24102186880014384
8.80658865951159 53.618884790991615 -0.25333119113353525
8.875671145740677 53.58980890958567 -0.2530853824947138
8.824985684504593 53.59041307878446 -0.25458860748106105
8.967895624924175 53.56415379446208 -0.2520334694503519
9.035172106929831 53.55342211680295 -0.2508292240802022
9.005654972844255 53.41955329380179 -0.26048756149498303
8.976884438366609 53.28553327242332 -0.2701859465983376
8.036328449927584 50.57475057513976 -0.17538099922220862
7.9688389219488425 50.29735463903202 -0.18568783418591311
11.97654340997808 60.53582253672872 -0.23917668881619839
11.979743224055266 60.493817597918834 -0.23288006145503387
11.958302911159425 60.424674752162154 -0.2203993154024044
12.929705123510004 62.70951244780923 -0.17227903326255511
11.953311418736675 60.38761072414279 -0.21425264863284754
11.94765521142719 60.250370472697035 -0.22507066420133912
7.4838745470902825 48.50404694326337 -0.2533078742192379
13.017542930198012 62.709208705772376 -0.17470017744526511
12.975468421203514 62.69602221099416 -0.172684348556895
12.042710015299155 60.21906869672432 -0.2342698068169446
13.073428447624028 62.69555874324981 -0.1754335584042285
12.134871356951269 60.19531302472728 -0.20683497351696364
12.194965858114937 60.159547872499424 -0.21494955514264702
12.175873489101908 60.07468951272734 -0.22594279925577945
12.153292891715957 59.98064880770929 -0.21209592650109027
12.126004496449042 59.87079610265651 -0.2250735264963745
12.103475248433655 59.77709318448419 -0.23020834780677932
12.0764270616863 59.68053644061854 -0.20848458957968033
12.049854693194392 59.58243435167205 -0.2293405029027689
12.024969969540312 59.4912145950199 -0.2249908005207235
12.001504171757649 59.41258140712578 -0.21934098913896447
11.972937786061086 59.34484786722759 -0.21087450312954012
12.024136308295153 59.46351490926767 -0.20914359441814487
12.00163112094569 59.39417082572963 -0.20141190519333327
11.970392215222672 59.293534197324995 -0.20168037677849215
11.954145730980299 59.240032447915496 -0.18924136446412673
11.469961808297294 57.46645391986054 -0.1851651411710412
12.091905748095929 58.82530529973781 -0.17761869388601972
11.532831468016868 57.506172226610985 -0.18358203431664358
11.482051706360997 57.47033719953113 -0.18564959479634666
11.46311926536547 57.34584351425471 -0.21236273473251935
11.43889561432479 57.244149177568026 -0.208108878122032
11.414110327785462 57.154409676611586 -0.22456142733801152
11.390974906631097 57.06693886699793 -0.23225854058193487
11.362314952751118 56.95201601705312 -0.21716352855094462
11.338807292941631 56.86595565273174 -0.21837254398357173
11.286995316731545 56.764413926871505 -0.21983762953994893
12.105206147462342 58.7974518378426 -0.1795379706868826
12.098244098848385 58.73409566459403 -0.17452473374615385
11.633310991644658 57.478128986166475 -0.20286818309156396
11.315420814151263 56.760367580252854 -0.21443172978205474
11.869300373367047 57.83477502554134 -0.17537828053322524
11.835574480387814 57.70578715210918 -0.1906532882244337
11.813292324706335 57.64642071209295 -0.19747683319768783
11.783294228319301 57.54395344677396 -0.2119979522513542
11.740777648144755 57.45668936853307 -0.209723679956241
9.287990042943012 48.697363933037316 -0.2286274888463785
9.178061373106171 48.26393518176265 -0.2448523561868058
9.051697943178366 47.754419266758546 -0.26399857510900576
8.422002602510194 57.6202397945403 -0.0756470909360712
8.480083170474412 57.60053036035743 -0.15567705266537984
8.551342283401832 57.5665123414786 -0.15966151073217694
8.570999640388361 57.49449561034124 -0.16018506715015715
8.582651448161283 57.43273077837347 -0.16134712621950462
8.617432484173017 57.404095219324255 -0.15887162184160186
8.727251551227795 57.38250690385144 -0.14837668626065043
8.69652601986666 57.37960697605494 -0.1516811542913378
8.815295347904378 57.35685303530312 -0.1405467685543983
8.919246627654648 57.330813492966854 -0.13134977172254975
11.239763837749665 63.10722904790292 -0.16828027968117856
11.195849371567013 63.02989975215163 -0.16264573466834406
11.16726447521717 62.92046926741453 -0.15493647000033497
11.139256147932217 62.79292885058564 -0.1459972055017285
11.072402422832733 62.71307334132891 -0.1400894363915532
11.007168520468097 62.60904760262181 -0.1325802021507049
10.99250892837784 62.53934489865419 -0.12771837304002043
10.971724404113525 62.46765152458352 -0.12270276540959679
10.951936572041502 62.369919726850796 -0.11591236206800745
10.93293617481981 62.284029414342015 -0.10993688018632274
10.90253207871163 62.175930370046416 -0.10240070866381734
10.879946601283239 62.08173765536818 -0.0958642263092326
9.01208670858573 57.30742395057486 -0.12339732710712524
11.315587162842526 63.0860904796955 -0.16748324823537333
11.12151460916564 62.699831152255484 -0.13950483235764397
10.869309491591402 62.027570578036105 -0.09210960759944416
10.853054963299343 61.97820936585769 -0.08867757444531289
10.838123713483409 61.92082537868884 -0.08470409037274436
9.09883892705131 57.284516260370815 -0.11626741631237497
11.406720724118033 63.055448175629266 -0.16625825512490036
10.803273287826418 61.47003992594274 -0.15410202362936093
10.775492765032869 61.3639792972916 -0.14313095443758195
10.766229484972945 61.28957618901363 -0.1354433859640695
9.199182961439497 57.266345606332564 -0.10783718155318002
11.503979459040305 63.0235234582017 -0.16511885244624508
10.595134715551291 60.58745630090937 -0.13495320453601428
10.559267828659204 60.473484925722104 -0.12004894398966531
10.537766813373068 60.36123993785241 -0.12640327556317793
10.523701593897307 60.31189153029917 -0.11980957445076891
9.264641505832525 57.2449024252943 -0.1030883525676334
11.607544832289667 62.991284150539514 -0.16415730483993726
10.783320780349726 60.8117152090085 -0.12475437167306386
10.760000815333838 60.730650640610456 -0.11512345516290606
10.734224523598666 60.62655703638579 -0.1385065915034369
10.676709722858607 60.57945140582799 -0.13263148597701682
10.512428035651002 60.25852819303599 -0.1252235860723016
10.48999503399281 60.1828044685243 -0.11174912232751617
10.4596054960829 60.07391975585992 -0.13481445183960114
10.43335113144204 59.986717797647074 -0.1300925685072698
10.402550181321288 59.90537297538617 -0.12279648088937954
10.387802009418573 59.78943578687406 -0.1164631382924307
10.360911226029728 59.70011699535257 -0.12915939891839798
10.333478055700262 59.59767316763125 -0.11920399627108359
10.30704955344666 59.50243000732629 -0.11964173648954445
10.281403718096989 59.412275742019375 -0.12136621492448624
10.258188847967471 59.34234534059346 -0.12160892472798115
11.70499394622856 62.96679087991163 -0.16376988100773074
10.281614720293192 59.3802095785356 -0.10835166095837918
10.265973335811442 59.33851023382185 -0.11815829156859171
10.008198420885586 58.4086555494618 -0.10208579433328774
9.9935536233096 58.36305208818757 -0.10989566772809668
9.931077728942638 58.26334266318206 -0.1289579495313663
9.886607672935764 58.216256481775304 -0.07481643364494277
9.84323971862126 58.05033306439859 -0.13919564753619126
11.824087781299983 62.94024421862623 -0.163689298196414
11.792202180404695 62.943226860612015 -0.16341558723502497
10.016032113269453 58.39704329378638 -0.10259767860492976
9.999260693059059 58.34392072254011 -0.10348411673882861
11.896479276171394 62.92179612967821 -0.16357509226320938
11.902773703220788 62.9074238541946 -0.16269889991427083
11.994902858996925 62.89859353794022 -0.16364900069869562
9.796196966284619 57.137231974065 -0.1343762710248702
12.091507254412559 62.87444385667026 -0.16374532259795652
12.18730737040326 62.84970602467154 -0.16390887961342712
12.29190436797656 62.826278228535 -0.1644569968665184
10.384765767371723 57.83487691188555 -0.09879395065410328
10.35334734431773 57.8190779642197 -0.08136126346945177
9.673048654764976 55.97357499400257 -0.07398533142339665
9.66834897884897 55.89108043376163 -0.07936047337788059
12.38774427424641 62.799729674627756 -0.16474143763403276
10.476654465143481 57.79304361269741 -0.10670086606810102
10.479783535877214 57.74247667781526 -0.09870931442918948
12.485606720312687 62.77688626290243 -0.16543403767924686
12.615101593437448 62.75122059514786 -0.16682068277896792
12.566958297902357 62.75305098312819 -0.16577999222862025
12.695974802026015 62.72409930768572 -0.1670767448517453
12.64089923635979 62.73323864603585 -0.16628996092666376
8.067923811064965 50.74828827126711 -0.1690440553755868
12.780044830955438 62.70260440040512 -0.16784516387449797
11.989301535726598 60.54216262713801 -0.12451857585507424
11.975508199519075 60.47738294862376 -0.11675327717251352
10.852464960190632 57.558706564289295 -0.10529229125420628
10.808224080797833 57.51003846745579 -0.13238570300414293
12.876573456388856 62.70731283872079 -0.170696894039345
11.967816249457789 60.4408177778504 -0.11236351588222762
11.950539619965147 60.38553693975872 -0.12303989729068797
11.946672547902965 60.25464251417669 -0.12501448366758477
10.897358299923553 57.5412571954159 -0.11608549216705223
10.930928553859038 57.48036033633363 -0.13077375200091215
12.04294765500301 60.2189746547489 -0.12757939730435403
11.068766424514902 57.57463618142042 -0.09340068469499575
11.01931474589167 57.535690787056105 -0.12099095358789255
10.944013038596468 57.449544608666585 -0.13084456170822178
12.142902587416977 60.19600801168169 -0.13251012848013627
11.100237067922041 57.55787801767773 -0.11513443900305552
11.11623355356978 57.50544307900922 -0.1419379334611785
12.19005240120908 60.15689066689832 -0.13183063400512463
12.172910408168002 60.07879025381477 -0.12171453635977474
12.144884366834711 59.974771616103176 -0.11499875898848567
12.123249829474192 59.880834699336425 -0.12667006626142996
12.09783968918046 59.77760432774568 -0.11341399093592251
12.077883525786431 59.68972314384589 -0.11436886141762108
12.052616239989263 59.58364674654235 -0.13749760895449772
12.026992384968565 59.492833380604885 -0.11863465311451542
12.005910396014684 59.42675820302848 -0.10060854019327728
12.022907240907069 59.45765215106114 -0.1415664619505895
11.997468743541752 59.37875006186153 -0.11666888939040278
11.973967235393372 59.29929602242745 -0.12916774603956452
11.95721173657451 59.235580985072836 -0.12584538094549233
11.92122101906368 59.079123165209346 -0.14222569814519972
11.889609947507578 59.01273028309231 -0.12171860164670847
11.88655591738208 58.914916242335785 -0.12055869033501554
11.9598583823639 58.875757448016856 -0.1212498707265205
11.493832358192549 57.52127401533572 -0.08471032805213845
11.468414060780951 57.46622858152945 -0.11468192033197976
12.04707771584278 58.84779375246391 -0.1214632495902556
11.5405923424042 57.50335564184064 -0.1167993278185322
11.483208604841096 57.47230929733311 -0.11313220029788813
11.463891076742884 57.34740580932048 -0.13688036162534384
11.43923974353799 57.25077440716921 -0.11590692632775795
11.413176309189346 57.15762170747636 -0.1113099810220446
11.38831047630303 57.05513284518087 -0.12571928814427805
11.364444800483302 56.96934327388545 -0.13275286081445614
11.336340493541396 56.86188872459349 -0.12096498453558813
11.288887867077923 56.769929062746634 -0.13226601601294766
12.109255442053158 58.7998667268092 -0.11586899851575677
12.09173131693661 58.70662170267641 -0.12156315288765454
12.083750491918943 58.61130430737848 -0.12586827574251025
12.057613925339327 58.51467578327353 -0.11884660909653645
12.030354566240725 58.41892465852742 -0.11413474730197817
12.002186863371058 58.325104712250585 -0.12174959725772912
11.956785500455346 58.23129831693245 -0.1264905550987085
11.92258804514971 58.145739971762815 -0.12537404492514875
11.638446245768105 57.47658508908663 -0.12887236489762866
12.004722834697512 58.28806814179853 -0.11376162400255116
11.936918539450481 58.09546590414249 -0.12256927692474842
11.932139839134623 58.02697156808516 -0.11933417878350859
11.907344082751292 57.93024014209363 -0.1260196819568478
11.879484314064875 57.84425576239358 -0.12291690585026824
11.875627541752955 57.762664461175596 -0.14162870953038753
11.82535010346842 57.612379924095514 -0.12462111158572625
11.789099703636884 57.54916178825635 -0.13504192623094252
11.739341045163878 57.46348420699297 -0.1396250411914716
8.482900137719863 57.59833595076696 -0.02107045624766357
8.544849712707622 57.56436107313179 -0.0093419314493771
8.564787744134996 57.49451312744025 -0.025000788722163946
8.566249676870864 57.432687890720935 -0.021629070418143242
8.602153761260858 57.407872231715785 -0.0265261907465478
8.74896858864139 57.37065090269495 -0.056829667910668895
8.709380697878348 57.37088012645448 -0.059702375649666295
8.823133416596232 57.34711379158609 -0.052203634225943776
8.793180366654706 57.3504636473662 -0.054241635704467765
8.900125645442492 57.32533622108805 -0.04742619861957471
11.241430816089595 63.105680737676636 -0.010889457476116818
11.198411237756277 63.0436837217469 -0.008567009172803536
11.16914146561562 62.923087120203995 -0.004356064072962228
11.14188690102344 62.81429647755575 -0.0005535272681326613
11.07407643124871 62.71234579079041 0.0032249249404278655
11.008981886984397 62.616141784257465 0.006781889111432549
10.994533513384438 62.57030403850385 0.008398135354676838
10.9734169999136 62.472503636990666 0.011776522349913554
10.947163040364522 62.352587526230295 0.015922853725730567
10.921929141051502 62.259479428697794 0.019162248589754027
10.898114753188997 62.15921039999747 0.02263195757879746
10.870085646753504 62.05964500191863 0.026092121448161226
9.005565887904384 57.299785064256525 -0.04094193236954665
11.317059719377934 63.08300553758152 -0.01058761242252645
11.123111412162132 62.69907232656513 0.0034035034380254566
9.105434700773085 57.28117162177863 -0.034810998223053155
11.416523321701263 63.05873015041883 -0.010409984297309181
10.809160657953313 61.476639586311066 -0.054210834549208296
10.780660633837822 61.37789417481327 -0.04740136115281001
9.203427991267349 57.25661706566264 -0.029241062702232232
11.513914047321876 63.02785748025207 -0.01003900931988953
10.776304169364964 61.162303256728556 -0.03264826426688316
10.63077349755467 60.61540443196488 -0.06660861124797363
10.595932054901064 60.59243396063087 -0.029330912092644514
10.559494848439986 60.47966422450193 -0.02008575675752384
10.538022111968115 60.380470333451534 -0.0074142861828684625
10.51609699708999 60.29453391111196 -0.0049139897312401185
10.489193946289939 60.22087752070304 -0.028566069327742145
9.272811169980766 57.23855663503347 -0.025456641552297606
11.602574201430667 62.99927182722315 -0.009720245390706327
10.78137012753445 60.80747088301952 -0.008385838814811775
10.755318363110163 60.71922703878545 -0.00235194185593263
10.722242412789273 60.62282799412599 -0.023321571013241997
10.677716599128871 60.582250077195475 -0.03490895214952063
10.534561967765587 60.32784104158181 -0.038516704783454564
10.51015294781375 60.26062287052006 -0.017233079588454877
10.486483413567457 60.18474038646615 -0.025010533744404866
10.459674180022443 60.067616512590774 -0.03188795620209547
10.43873714010649 59.987938603961446 -0.030941435418812814
10.404743364976351 59.89931927668087 -0.020410248374389754
10.389863178119478 59.78481205276882 -0.009382198557484081
10.361164896032665 59.698385195136 -0.023697566650670753
10.33483945888678 59.60569082588697 -0.020346117354685955
10.304861614468974 59.50530938341154 -0.02281994899726172
10.277684199731041 59.41146313681935 -0.03306455736312313
10.26022724949045 59.356276939361365 -0.03824730157784518
11.69961519319973 62.97251084423833 -0.009561692862148304
10.287377686647002 59.399717048087 -0.0076205268071323886
9.9994525092265 58.40325309863653 -0.028206072933322925
9.985803286944973 58.350747300151994 -0.016291821336993986
9.928875405015459 58.26609868512446 -0.04423066622465427
11.815924495767202 62.95090713496602 -0.009768400970597547
11.78817317509817 62.945925484409074 -0.009378110994233885
9.998980848190921 58.34167901256965 -0.013505185787533562
9.953939462299154 58.2229473533975 -0.06255647205646261
11.90746661992169 62.92223415318251 -0.009585781624347442
11.860373482445377 62.92262228774193 -0.00920383278512402
11.996762737363428 62.90073872339854 -0.00965873087044633
12.093492769610934 62.87697157562387 -0.009756480115693637
12.18854550103579 62.84960146660933 -0.00976029858378814
8.790219548032294 53.867159473461584 -0.0542576499669643
8.79605843019332 53.81405322572577 -0.05584503181473841
12.2932974947896 62.82700777208886 -0.010058323440001255
10.362558767755113 57.841426664958554 -0.04010459372074998
9.683372189300469 56.06403271197958 -0.06793759963355483
9.681714601612082 56.038121846702865 -0.06960819815023937
9.667787495198974 55.868009470873574 0.026302110435885696
8.824288083665024 53.82992748354259 -0.05483723660456303
8.803928734117981 53.641752762264545 -0.06129194280398539
12.39028981889716 62.80376760557705 -0.01029698118286318
10.489767843518504 57.78021250853635 -0.07165691056958037
10.494944792257831 57.74528159419025 -0.03507992278040104
8.86328910390985 53.58957855682521 -0.06195665904136025
12.507679886467846 62.78953174562649 -0.011082806361700545
12.483285410094991 62.77498705223826 -0.010352523552835838
8.96662204441761 53.56606965931396 -0.06101703647822858
12.599952930316787 62.758333832135854 -0.011099729584261172
12.571264661941605 62.75455601036595 -0.010659372370237171
9.02901109453653 53.54259635800949 -0.06081390494611385
9.007841923614208 53.43093205075335 -0.0648515297436686
8.967126565814263 53.26482313233849 -0.07105709333871495
12.684299227409367 62.734021821081086 -0.011280929952500724
12.78171388489298 62.70411050102646 -0.011448299730556923
11.993434566013327 60.56515572276281 -0.010783611477822325
11.985114354513533 60.501621633451 -0.00657886315878063
10.840509093321673 57.567980392001836 -0.005259719656657608
10.798860213559925 57.52346125900987 -0.03320190305124291
12.889601118374019 62.71470146057127 -0.01307122074891015
11.970030385166197 60.443869576719834 -0.002539814736861322
11.951484953295767 60.37608531295967 -0.021374403803223335
11.948109476381639 60.25320827288582 -0.024921836561254407
10.903817537640158 57.54816773763339 -0.016340703648545313
10.940534170430254 57.48370391535055 -0.025350064735687933
13.009542224129786 62.709364173698134 -0.014369167179895507
12.963209974543895 62.70451386623626 -0.013644369718649102
12.043680586247412 60.22241419956377 -0.024308147046145052
11.959850858395363 59.95456184437961 0.027279669761970177
11.061699569845343 57.57008120978716 -0.011967150651528532
11.00209860978722 57.537718580275005 -0.01727005766506939
10.950624231586191 57.45678905231499 -0.03949901396813673
13.072314110698636 62.69191126868877 -0.014602812235384718
12.130757171325536 60.200377438048754 -0.04619974190257347
12.086397801374545 60.13774794162743 0.012070951611279995
11.851071736415182 59.357209197554944 0.023481179820338028
11.103531024758551 57.55470849231535 -0.01850721153746205
11.126372288443536 57.52324608899758 0.018209250597792763
12.19497361514106 60.173786152206524 -0.06380218416806359
12.174290602888231 60.0854555420325 -0.05513352465322018
12.146904760202585 59.97971240983537 -0.04469174595833953
12.126729210279557 59.884473748568794 -0.035672848336439515
12.107115180481607 59.78436227928289 -0.026440090297974717
12.07604247937169 59.67567734375066 -0.039609617755851305
12.048843608509474 59.58881445344065 -0.03473395826780912
12.020750810818662 59.492880002347896 -0.04369778341362318
11.982083392665498 59.40593365973519 -0.004972883777330235
11.968248763810935 59.325907645748195 -0.02669400975701175
11.993628787119746 59.37307507893343 -0.010914275613010019
11.968332747137667 59.29029915461312 -0.02265162319878578
11.952741870232975 59.24101864859468 -0.013960073966064319
11.920045369372996 59.074694849999034 -0.0017525671247159787
11.897008183325124 59.01952285458217 -0.031805706361817565
11.908518466730467 58.90121074148697 -0.045950367863975
11.954429646062538 58.879977328104076 -0.027845336596293648
11.490234954978598 57.5265049608715 0.004408868759837317
11.468428612928317 57.47083490465445 -0.02379342753312635
12.05321808212009 58.846946942264864 -0.02539177066333459
11.539781956584733 57.50614287438696 -0.025519338985732786
11.482538585348813 57.46958015607445 -0.023463692795334445
11.460465409112802 57.3527549480877 -0.03545376517322321
11.439534744430388 57.26044839589613 -0.03734227791537903
11.41067252543582 57.15138245591832 -0.00597903237573812
11.388750314297923 57.05485160174521 -0.005612343374952452
11.363756927359017 56.96154995559098 -0.020401928389998096
11.339310328457449 56.86500569968468 -0.019726724858635213
11.293863230630185 56.76351580091123 -0.037415719847567086
12.107449293486496 58.80231281854444 -0.03342313903415038
12.091416466465306 58.714002353207 -0.026256040307189712
12.082843766692319 58.61062984254967 -0.022396760250574934
12.058940332982582 58.512203023310995 -0.018508629672037178
12.030958789958834 58.41518004699278 -0.01606555661122932
12.002626532999166 58.321260602282884 -0.025238949457254498
11.958714702764379 58.23086468892113 -0.028684815440335982
11.924770682195632 58.14982195587989 -0.02267809792970056
11.640564476098447 57.48081922733797 -0.031236375349133774
11.318035930870437 56.76631018150221 -0.015669557755881608
12.013916998966895 58.309569287462836 -0.0340940560271475
12.001292879541078 58.263932439718374 -0.033608397811725754
11.935199100185116 58.100974380193605 -0.04416509544523084
11.933475991391662 58.026674708197575 -0.015201292584153047
11.9093373481965 57.928936628275146 -0.018926583415084994
11.880001165236973 57.84977172110025 -0.01902695964611732
11.822572524071925 57.62712989258762 -0.03502246519450735
11.777192662277626 57.55334281681693 -0.03505846654565702
11.740733957377413 57.466930603562126 -0.044199434235823905
8.425709219069338 57.61564844756206 0.11586763731181264
8.477631808987157 57.60281591476054 0.11662819182395613
8.555382356792327 57.56426043882015 0.11790826153408712
8.567163784512255 57.48796449168355 0.11864354551471851
8.579472344421864 57.43726062298476 0.11916544139272746
8.621379142487415 57.39838853710356 0.09167530716717648
8.712986764368097 57.3705930039457 0.07910063320334094
8.826752820923476 57.34653009930242 0.06816675453046052
8.78397937945457 57.35169996027322 0.08419063145319405
8.907084738247178 57.32761879767926 0.0811233762645746
9.006759655712301 57.30764153080947 0.07833197041298183
10.843589004222562 61.96787133676053 0.029282875833000724
9.164457445139943 57.3470668540651 0.12643101594365447
9.096682386023952 57.29877527235481 0.06966926869212473
10.82356173539204 61.51195457162612 0.044649429996910316
10.801576384161873 61.458789619724215 0.04651290790621348
10.773458310392739 61.362296798080614 0.04984862460227351
9.292166487370382 57.39504418542536 0.12755825472508853
9.241339954557276 57.35426146287111 0.07729771283614455
10.61381633299218 60.62113831120758 0.07505637415486885
10.5874829260364 60.589242684058604 0.07616025011401895
10.558086668646341 60.47812489536604 0.07988720340479015
10.53811580607626 60.37447877598929 0.08333497850671102
10.51656927013072 60.29871343970018 0.0858462404219929
9.331431205534102 57.36407727317477 0.055804516706167366
9.333346533508522 57.32379911843646 0.0551800961696498
10.7820317490743 60.81291659362576 0.0682175801556596
10.755284594049716 60.73018990502592 0.07107311720555837
10.700042812429675 60.61953334755256 0.07492189989501025
10.683796021017473 60.58411083001876 0.07614737705437799
10.50842909846067 60.248168050059554 0.06400471677666546
10.490082652843682 60.182680986981374 0.061124614611973355
10.459617585764548 60.07338446618788 0.06873469561510394
10.433338247428633 59.985432383201996 0.07117705934174365
10.402486182837537 59.89710672721776 0.071136525727189
10.39094294470642 59.786549924144666 0.08076481920664293
10.361600517904169 59.69874560708912 0.08223586072945158
10.330091758188374 59.59911386694935 0.07769422267702386
10.305558573839518 59.50457868376211 0.06949763358524885
10.280073378112274 59.42000186904289 0.08056692916299384
10.289820888006657 59.405359114625405 0.053453969030662844
9.983442352394512 58.346326562861464 0.07561425201412744
9.930084184127574 58.27766408051011 0.07177475459228083
9.917171766308414 58.17955650488341 0.049961839271876904
9.994945943553274 58.334412760878486 0.06444028534575183
9.687149559619712 55.99377848952545 0.03065825665272401
9.678219239504056 55.92716949814127 0.028376114175958374
8.075646491087895 50.777787737342 0.12458081293165864
8.041148738215355 50.5966558635256 0.12430187145115477
7.9741088523930586 50.321015877069485 0.12390942710693491
11.994381738145963 60.54984628514658 0.0667896880040864
11.977016676229292 60.478532375525546 0.06926089304712524
10.834684595828136 57.58012836062831 0.08217671734694332
10.780318345710686 57.53551670259097 0.0829663564655775
11.968826592846582 60.433954179434195 0.07076817974168777
11.948139107295436 60.3626328720711 0.07327633575139013
11.95171365652438 60.255045230313264 0.0765798639618365
10.912379585935454 57.55660813448989 0.08025077062907396
7.482063571529069 48.50976495054489 0.12095921538439006
12.043148491186331 60.22432566890273 0.07624417524581262
11.935107223252812 59.93110019446843 0.07540040359623512
11.914329280787008 59.85186054235798 0.06402020869505415
11.891651640550977 59.76110660644455 0.06845717981034145
11.867452276733463 59.66433296679964 0.07262068392764355
11.842967049765024 59.572319778192025 0.07213550171804284
11.818472012653329 59.49789045045163 0.06557469490351393
11.063437406662764 57.5622781563017 0.07190135321719997
11.009484997831539 57.53965523864792 0.08079460363487909
10.953058906618057 57.47676577849132 0.08046391833553503
7.410311367908543 48.05889693121812 0.12034767149594766
12.101477878443422 60.20271108454644 0.07605439022888688
11.835835588059016 59.530943427982976 0.10011654487631963
11.815365836826995 59.457721166150826 0.08540730401765444
11.79721878024451 59.36057617938085 0.08268170663134643
11.803361647457185 59.28823938701806 0.0814230912808809
11.093088490876685 57.55071253664624 0.07317427047423437
11.11213475066604 57.524198750585825 0.08441331981564344
7.252138537735309 47.45388228535584 0.11932343576452804
7.276831001919364 47.39517569547065 0.11936514790911096
11.86047325181314 59.266686251380754 0.09209375236892035
7.35406937860719 47.3695176565831 0.11949198816177237
11.925577949813633 59.080792854553636 0.06451659304256893
11.906682237263034 59.02501429241823 0.07171110759726465
11.913660430217407 58.89821880624011 0.044810341297003245
7.432041717396849 47.35177377676819 0.11967675864581313
11.959643996393567 58.87894012358864 0.07947330275930507
11.489312382266375 57.52463330066577 0.07657721857679366
11.469691359473691 57.475480708070904 0.06890943966519737
12.058432176547504 58.846037435489215 0.07129506667828137
11.53534603398466 57.50593521185079 0.06695679248835094
11.476482211028811 57.45033091811996 0.06031397214861049
11.460888730907847 57.34612930143093 0.06360033513509174
11.43764274532061 57.25172530510293 0.05745604739876425
11.415934981171551 57.15491109974311 0.07135871015991158
11.38849807790141 57.06533836447266 0.07757356551099868
11.36658056698443 56.963770320097886 0.07433774831577618
11.338823892930652 56.864779515163896 0.07121375009918982
11.292042176582736 56.77234184106089 0.0684848081319021
12.108844246418093 58.79954900036831 0.07342462046892544
12.090620098596784 58.7120761609916 0.07469038429729122
12.084141564866282 58.611815487705684 0.07746653053235635
12.058267352661481 58.51445140395193 0.07970360874416384
12.030352163810814 58.417623595998045 0.08159665321996586
12.001372685439367 58.32364544236889 0.08353762107784483
11.957658159021623 58.23180894211736 0.08532384803854684
11.924020987251854 58.147504625934786 0.08387760031069155
11.635910675337783 57.48047931406638 0.06222108291916201
11.312691683392044 56.74933343719922 0.06741430823132265
12.006757662768278 58.29053248334689 0.1031234636384054
11.99299193789791 58.260241485871404 0.12307337728900157
11.938125790051954 58.10213802839393 0.10456899837058721
11.937660008389907 58.0248956465359 0.0863864838658283
11.910287257259236 57.93132935520465 0.08269123292990603
11.880366448033017 57.83523765227849 0.06515959667014777
11.857277254646016 57.69159357814333 0.037790094346346
11.826681157243932 57.6319469406422 0.042846953052223816
11.781742337488017 57.554479854920984 0.0584435796567231
11.74122665607895 57.460058946757876 0.05699614054507881
5.935038134110509 42.3549730078597 0.11098921339152548
5.688990519576548 41.34259376978418 0.10941636615494767
5.1833061728267955 39.19523152192173 0.10597522522606036
5.287314041671992 39.169874668322464 0.1061044605448141
5.392088063425356 39.13442646302431 0.10621029298465351
8.656987441634882 47.06806484545024 0.12085215904281253
8.575657194310045 46.978383102305735 0.12065905336815358
9.16858936130388 48.22395749903187 0.12278790372192085
8.734637210724514 47.03555728500449 0.12082713509367851
9.040853483879062 47.708245989431646 0.12191885331956666
8.895368344529228 47.11451151015687 0.12100046743609284
8.815346244319146 47.01831882572161 0.120817359420748
3.753413844422256 33.040304636177105 0.09606841524598371
3.8423324257725433 33.013379978681954 0.09609106632872863
3.935192353472396 33.00847615838218 0.09632374889706377
7.232566579298964 41.323770282356776 0.11145959655065729
7.2976204469860715 41.33239859101461 0.11145076890054892
6.554116610385419 38.841461018709595 0.10733398218920798
6.624576398518608 38.8320730748791 0.10730133617817905
4.090692338703287 31.759088297965235 0.09482888760256189
4.226935514358025 31.48347652347021 0.09461499601525357
4.312186810712461 31.415094787738692 0.0947079771488101
5.006552151575418 32.73446888040873 0.0972512050523276
5.092650159998263 32.69434500760586 0.09717417992907705
-0.14434993767123672 17.578288653711134 0.07041963029415614
3.5045071526351173 26.68954065103933 0.08717104312148471
-0.015016349186351974 17.504175774036106 0.0706599494764382
0.09931167876399982 13.464427972153963 0.06518111883378347
0.24953168041864515 13.41004603984355 0.06541263184021323
8.398489902063826 57.61056251390934 0.21197559354128162
8.489036350280347 57.612199250665725 0.21014883510814056
8.563134880047581 57.573639663184 0.20954611020418415
8.57898641321787 57.500326627258715 0.21088721735845778
8.584728462833032 57.45110720809963 0.21189954768907487
8.61475172625907 57.409524033834074 0.21228936057648756
8.705955541311978 57.37607034269779 0.21135069953921298
8.806174226971795 57.35779597609167 0.20991876871506285
8.9073398197833 57.33941343546692 0.20851615090424522
11.241152528017027 63.101784944159334 0.14602620503578817
11.197154352236543 63.02223560538269 0.146084144914301
11.168386874729931 62.911567098440415 0.14604885627730757
11.149652157060245 62.83238528271304 0.14600522380220907
11.080792561310341 62.70213825784176 0.14611586395442072
11.02424646239643 62.6911740182623 0.14634639868512397
10.994389716596979 62.55454321912894 0.14629251761603246
10.973334319040823 62.48269634335948 0.14628655740307522
10.953606888649523 62.380704504685355 0.1462429329239298
10.928198199176473 62.277584720605134 0.14622290538064828
10.904047048024582 62.17429379361154 0.14619977828926375
10.881272227217892 62.09585574937449 0.14620716780918444
9.071601431020309 57.373452970496196 0.2047090749925736
9.003942610371546 57.34761116328514 0.20656492954516087
11.316237877266186 63.074540359049955 0.145727470752477
10.864991227046117 62.02542454820213 0.1461981023841371
10.84940751456486 61.96193395994538 0.146189523070734
10.834844488267494 61.902401641848485 0.14618259918279652
9.205723709423049 57.42350208281048 0.20105435720620152
9.155799223557588 57.411989171586114 0.20223095392657517
11.415317577157216 63.04946237260181 0.14537723597796806
10.808497099579144 61.46774373914143 0.14573699701960005
10.778142453976853 61.36479165780322 0.14577537748148642
10.767133453165659 61.247782266736124 0.1456797716592765
9.261602163576296 57.40926642614812 0.2004380496907628
11.513231296719432 63.025234205524136 0.14507134388667184
10.594373220991361 60.584091742093555 0.1825903023651625
10.558592502805956 60.479236284668225 0.17936663975226005
10.538973334292299 60.38105848254823 0.1754901890724821
10.524470512205976 60.31250466051185 0.18286304874690193
