ply
format ascii 1.0
element vertex 857
property float x
property float y
property float z
end_header
9.006497673338718 58.76270917160404 0.26510273040241533
10.596159931594487 60.56441688455284 0.30095848253127205
10.561390474970157 60.494348119432686 0.2981573170110263
10.532365446690312 60.367940713350144 0.2931221561443954
10.51235930260937 60.30223393915674 0.2905179050724479
10.772806048682064 60.79360682414116 0.31037054938351527
10.754066892780932 60.72276806165993 0.307492348472392
10.72696906694313 60.61839924439986 0.3032866572136105
10.662234341207753 60.54523986321747 0.3002647123434789
10.499951247697945 60.25033743426633 0.2884427109765983
10.481836984715082 60.16346256366168 0.28500090671086803
10.457881997403348 60.08644636114369 0.2819582177038431
10.435186437406585 59.98728948082955 0.278039567069133
10.409650664369705 59.88455266465808 0.2739947846623655
10.384891417621176 59.78727418908944 0.2701734212387555
10.361658336444416 59.697792340614996 0.26667150844399123
10.339650569775687 59.60948831855156 0.26322755154405875
10.31529952791205 59.50660361990759 0.25922402849097687
10.28894383205679 59.39026075213591 0.2547117343772276
10.266898601151476 59.31308106875915 0.25174937709267026
10.243290836912548 59.218059930144946 0.2481099157292396
10.21532178181375 59.10713980518446 0.2438896852512505
10.189010281634829 59.010084034972714 0.24023471424204487
10.165148642837885 58.91676222135677 0.23673949890348123
10.137832505841864 58.81852904175616 0.2709365986090233
10.111191182986019 58.72306981097865 0.26916657181694503
10.09167684039283 58.639961755268835 0.261311144618339
9.954418259913453 58.307014276834586 0.27528008830902145
9.935727981054155 58.252244160982535 0.24600062801571523
9.895921144055963 58.21101042636378 0.2365747560438578
10.082855114933505 58.592070021333775 0.2587686633067217
10.067890419578754 58.52905628666896 0.2555242693594269
10.048482282647058 58.42937650121161 0.2503291139060265
10.02096243551076 58.32435134747477 0.2519255582436828
9.979091674423186 58.26783519863507 0.23959909487392145
9.922926282766884 58.15572049145859 0.27021226779429197
9.896687816596527 58.044381295679486 0.271428213334337
9.870290695988897 57.95839879152226 0.2802969057940975
9.845068314786248 57.869107297298854 0.2799547702272315
9.824760489460246 57.762534152739114 0.2904275385262706
9.797611462472908 57.659229332664424 0.2826853773215577
9.766519837401471 57.56654164985805 0.279029229978869
9.740285203529034 57.47195536675051 0.28702221596444577
9.719878033902942 57.39738810481499 0.2675939662586754
9.73353987813265 57.390316201534176 0.2716900033168211
9.516710450597829 56.45387579476661 0.2843445501754809
9.502260196664416 56.388946975176054 0.26452314454272047
9.475104992758311 56.28853582958026 0.2674695209236682
9.45392229248407 56.19171674050081 0.25673065273873824
9.429318281943498 56.09515508994794 0.2621856724107565
9.40409306035194 56.00568499446458 0.2538736893734604
9.38238010354572 55.92885193150016 0.2644659077535649
9.409063579542622 55.98082583340141 0.2254580125650673
9.380004689546668 55.89582861770389 0.2523454287429343
9.355537039576197 55.80376450930191 0.2607105712367171
9.329993534051981 55.70545804277605 0.26873694294021083
9.306141037895319 55.623414820009216 0.2678552814898982
8.258983404165003 51.44646573375937 0.30571805930024104
8.240849141902268 51.34996333522404 0.30840550449413995
8.214254053804689 51.23112094095479 0.31176289921620975
11.969446167588082 60.460671425438484 0.3102372718524561
11.941374840357945 60.35353786904835 0.30582961476876463
11.941899437150887 60.23033032358113 0.3014071923072238
12.012263425069985 60.20875230105111 0.3019934637487412
11.962068510749193 59.93988804375273 0.29146324046845357
11.860233559141491 59.50914385638731 0.27424987342618035
11.783646509255368 59.33082217112852 0.2664187977416611
11.79102345132452 59.255780760812705 0.26399742422825295
11.877578288176082 59.2373198220434 0.26538476808141814
11.947794909640603 59.21718513725166 0.26642069428086373
11.925607142327987 59.10265847134541 0.26210722496094385
11.867389657900784 58.89264772479085 0.2538112068869387
11.943474091086225 58.85291483953273 0.25462326562980614
10.791839145484188 55.755826005462936 0.26307473909470197
12.041066099238828 58.82542592479071 0.2565720909878777
11.520973339719578 57.4966223846739 0.25003681937084443
11.489948798678189 57.431070328349854 0.2666574461034608
11.478440870273884 57.345157870922236 0.262268384932633
11.432300927545384 57.13053546569313 0.28032836748265866
11.414837483452775 57.07213299751889 0.26611861051778907
10.85101175521334 55.74037915529791 0.263613795022417
12.105662773014142 58.78920743153432 0.2574215774501247
12.091053815582123 58.69840086894723 0.25433907823309365
12.090096981572472 58.62134762899608 0.25212034498840297
12.06491382972847 58.519299510327976 0.24847088751244184
12.034795972767498 58.41805847236398 0.24472650548088018
12.009128357402053 58.32656265719828 0.24143253187633523
11.963373021234466 58.22005970512034 0.27844510262813676
11.931561292741211 58.14344792943023 0.25800546229770027
11.418826482767233 57.03567264737871 0.27033050841170675
10.976047739142157 55.77657090721641 0.2601460023504455
10.956406896469193 55.74919081217697 0.2649310486167562
10.937372307750124 55.61042450980508 0.30220516384273405
12.019912033887227 58.33771108401266 0.2420865049548524
11.947714515369082 58.111653857547076 0.27680643409221606
11.932076642581956 58.02286914824918 0.2673281184913082
11.930727622121713 57.930805785150426 0.2624350557373451
11.906483043885935 57.83382724974539 0.25613056135008655
11.12657171042725 55.94432401374498 0.289220907756915
11.111361074049313 55.88233473559188 0.26198612319690834
11.08402188901613 55.780895999923594 0.26640566225093876
11.05764088506907 55.7056004835223 0.25493583020100735
11.013241791277421 55.60163490435529 0.2443765140704781
11.006899481435402 55.51399080965556 0.25040779171498956
10.170994568859006 53.23831424384308 0.2429290786779292
10.224541032674747 53.22723321211874 0.24297461055001432
10.149918884671987 53.1358807786613 0.24582991000802662
10.121229790502012 53.03621133392777 0.2486892595963362
10.091156779278045 52.93877861897575 0.2514961724250986
10.48531152456009 53.501978319283936 0.2343898663443088
10.46278827265217 53.480760819985264 0.2350526756838033
10.439546802129389 53.39833936583246 0.23738775139452697
10.320921727612458 53.19933055388624 0.2433029146976619
10.538481577481765 53.4871079346208 0.23462089740237108
10.519170823492413 53.48218192873895 0.23481926038474832
10.399933320453126 53.177997853705016 0.24356279580455178
10.587581234814522 53.4596147835695 0.23522051570151195
9.825236467607608 50.95676791503407 0.3068600479170761
9.85930339442319 50.99016211743094 0.3057683527636331
7.42296957924982 61.306319463016415 0.4048341454219425
7.407307802580995 61.295783983193026 0.4049061638387037
7.557325561021344 61.27503206263215 0.39965880877990456
7.511084811954786 61.243290954339564 0.3998826622611339
7.064323289498109 59.96379279564131 0.373596308309434
7.622581750200056 61.257434573865446 0.3971144000090824
7.597180872774484 61.2127580547934 0.3962260405230391
7.188957640865441 60.14071772121021 0.3739238919789148
7.1378956748447315 60.06357550320195 0.3735884441433124
7.097953235912579 59.998930813269446 0.3732723004173464
7.681419427493481 61.235386156440384 0.39459573713758295
7.814389804137303 61.315497163795236 0.39388143421784827
7.938536097447087 61.23736807872693 0.3875332927590687
7.911946575630376 61.21958607437288 0.38757789930730546
8.045033957271674 61.2160856112745 0.3839040939573186
8.115703104913266 61.25385904984699 0.38354838204270897
8.099784338603762 61.227394427144276 0.3829308682294889
7.621732883183867 59.89458397391913 0.35027657242346283
7.896530501119418 60.16810370402912 0.34974086057148007
7.825612165444982 60.007426869998966 0.34668648266706736
7.765786555532108 59.94216638144991 0.34663141235225264
7.695997236108723 59.889249063436 0.3474160390559212
7.922236939945839 60.1839569528822 0.3494392555790766
7.89190950825869 60.089548309658994 0.3472040825289732
7.854813458145232 60.041134821874934 0.3468133303963279
9.018002071595053 58.77877364330531 0.35369217090543614
11.230388660249897 63.08163940690329 0.402825941880899
11.168261166085337 62.928483728478476 0.39645921876251056
11.05846938673455 62.698732039803204 0.3868991078892334
11.070853094969312 62.68343268513409 0.38635859201825135
10.986145322019624 62.58894464305099 0.38230597738639427
10.954367010028914 62.445191719829516 0.37647615543875734
10.923794383783184 62.30332480770664 0.37076912172316423
11.307164389945234 63.059711652007536 0.4023586355024334
11.120366027184364 62.68846480454889 0.38676915111740384
11.403645115762313 63.032488600701065 0.4018651133676634
11.500665312298237 63.00832647386373 0.4016092729303807
11.59652207606808 62.976237548359094 0.40112362815401365
10.501173983859413 60.247197265497306 0.41286598140003355
10.483138664571577 60.186429764592624 0.40833437112592363
10.45914992628746 60.08863439800916 0.4010396968281162
10.431056368748756 59.978960650886044 0.39288292282282516
10.405630991042235 59.873410622862934 0.3850437268542601
10.380924074979793 59.782260457528714 0.378302920652299
10.357948676568487 59.689292065512504 0.371441217344082
10.336197395989553 59.60145674450036 0.36497912808493743
10.315566348146897 59.520450915172134 0.3590355956708395
11.692969539419535 62.94982584030407 0.4009347923284585
10.30475180283654 59.45384717254101 0.35411962895116306
10.288865621490936 59.406809439209226 0.35072074789205876
10.263737630914546 59.308853502225205 0.3435982153695858
10.236795409846474 59.20280620805027 0.33592663470223766
10.210269396876956 59.10331614983646 0.34573802228063694
10.188294792657711 59.010284850707606 0.3677238091001408
10.16254959840572 58.917623019265676 0.3549848529871571
10.136775804880623 58.810058245681816 0.383558626499341
10.111517255389552 58.719709032290766 0.37431489332616374
10.0900388592295 58.62377351671827 0.36447081066749465
9.96650503450352 58.30244821329377 0.3366247292882009
9.944088115644387 58.261995734798155 0.3637672576169248
9.921569966334326 58.19943200390168 0.3737946609139547
9.865718309402492 58.0875723288175 0.3206673643899764
11.789532944247618 62.93030821071165 0.4010981242987521
10.070670288924875 58.53743128793634 0.3556970217449258
10.04735871342806 58.42268827890531 0.3694020260264885
10.018860761629035 58.32044920836628 0.36487970428551625
9.976925666936884 58.267048973454 0.364547354759754
9.920345800446068 58.145835175596254 0.3613368214937172
9.892102877899628 58.0652547886297 0.34523092531588906
9.87096293488463 57.94702245706348 0.3696275748147553
9.851135179026343 57.85872823913461 0.3681098069693224
9.823178867522602 57.76471277974438 0.35705672527747156
9.80128097770793 57.66501403192559 0.36309468179726395
9.772179120353346 57.56855315958764 0.3534513390486638
9.7479130918611 57.46986026325885 0.3651970574236396
9.723994970551582 57.393454274338914 0.355518444031947
11.886456497554125 62.90306836082567 0.40104470952281895
9.782375604880693 57.520755681928634 0.3859969136781928
9.75217152278727 57.443691596020386 0.36635481309210777
9.733713565699228 57.384480518333525 0.382639975562697
11.990412250486765 62.879297920552645 0.4012924278448291
11.971196754457969 62.881179523981174 0.40114175368007654
9.529758047583195 56.46011848512107 0.37245520812968547
9.507042664810557 56.38323714261012 0.35482941820605585
9.483149877994641 56.28658117603496 0.36668119584421727
9.457387686888675 56.19213100046473 0.35959467016108043
9.431029225998063 56.09162506740087 0.3705912724298043
9.404180090161297 56.00039279788836 0.35703549463487905
9.387307388655769 55.93949414377242 0.34646021583591635
12.080165977558956 62.8570546187488 0.40150223020487974
9.406519907533017 55.979050165166925 0.3792346469153873
9.382409552049435 55.89659855844129 0.3501702342700311
9.354849215678152 55.801855283847004 0.36327992215206717
9.331930459283399 55.70582589468719 0.3755382244974192
9.305230078014363 55.62330672733929 0.3665228993398725
12.175842007653946 62.8336819020821 0.40182003683442336
12.284588296827943 62.809293819864806 0.40236245463565967
12.381769377948311 62.785467614193266 0.40284499112033606
12.477664642514888 62.75994127128868 0.403327328973476
12.573591472463665 62.73389853871121 0.4038721147604156
8.170107834895473 51.069811515341435 0.3163951286786267
12.717131873929663 62.70576117801794 0.4052370516717219
12.660884035884497 62.713572679837554 0.40455684179036894
8.127764087790897 50.91004754486757 0.32097517747551396
8.088452149306624 50.75340221546212 0.32544120954894806
8.05024907966516 50.59644233197961 0.32991084616454086
8.011418189321425 50.433322565018656 0.3345445321816325
7.965075557106309 50.247514689664726 0.33984934521758775
12.791780913030522 62.68172743636084 0.4056492752547804
12.74714699352683 62.6902174294834 0.40517388679446065
7.907246053796925 50.02975850432 0.34609543718759744
7.850903626029 49.81156587520647 0.3523457927100521
7.717765074176155 49.3852116498834 0.3647688408934409
7.7126458728843375 49.293187004148464 0.3672357490054807
7.489595029760028 48.529442278144046 0.38935933729778177
7.462734937968357 48.26913700136172 0.39645706331576475
7.39566732844342 47.98528069542323 0.4045387234248171
11.856154132603258 59.49961060480104 0.3833659503585956
11.788563550441118 59.33952251241809 0.370285119709172
11.797768016421102 59.26783597567564 0.36592516471671066
10.48010771208966 55.73672860833373 0.38173898270295914
11.884511338729498 59.24883117100793 0.36813794034275754
10.534849368409784 55.73024483061637 0.3653357957202107
10.513331470478638 55.70403370223416 0.3587859513001777
13.275793655594965 62.589101209056956 0.4117876039947197
11.951948186260587 59.21350690678127 0.36869082866123276
11.929120765952828 59.09831000294697 0.360459885462077
11.870010270344254 58.96469922771597 0.34952983819389655
11.87711258049268 58.898802237250365 0.34577022341537655
13.32486776033993 62.561156063356314 0.4118591206719388
11.950284947446649 58.86229799298426 0.34694870134751626
10.786437483285024 55.759999040306774 0.3585094042029815
12.044677179969005 58.837583764588885 0.3500822494572288
11.484155931535891 57.43092320800836 0.3554991245726599
11.474416945243549 57.35050160971215 0.3622273087041148
11.41330965563061 57.245433582708 0.35364732828217627
11.421686356842438 57.16675313271023 0.36203821432281535
11.405398526252368 57.06313860855186 0.3758953601862726
10.848891390853964 55.72899276175924 0.3528452759044447
10.882695821749826 55.69621465597527 0.36748036525437955
12.11603210879909 58.80229797057749 0.35167368970430557
12.110024359775961 58.693160063464575 0.3452146959594702
12.10423665146234 58.6107027514438 0.3403509645870073
12.070358939018359 58.51264067942238 0.33316503188871144
12.040424412352976 58.417849540913096 0.37420617166739206
12.010485048250105 58.327164611545946 0.3988646138371098
11.974462737167615 58.24002308752244 0.3891931385394991
11.934171105902946 58.14744011693273 0.3788181194209748
10.960486272775364 55.7351554637779 0.3679884269712865
10.95194284632923 55.648922535683596 0.3709834609362624
12.03247946932401 58.3740631794774 0.32367238659886216
12.01617047745962 58.32373514054204 0.34973607093934583
11.951636610795418 58.115265241784115 0.3779283454101948
11.935007068956061 58.018950275851395 0.36955483468428246
11.930625310171552 57.91334543032937 0.36186845910653254
11.905770070691874 57.822683523016046 0.3535879709217524
11.120804202660779 55.965586551550416 0.39143071133552615
11.102971954471867 55.875759567936434 0.35721931195445406
11.082324501817327 55.7852640078095 0.3653048109710466
11.06008609089218 55.69781073395105 0.36212167388382765
10.989307504459793 55.55368701459327 0.4021166307494859
11.003694031851936 55.50843780572429 0.35332450129681636
10.168845920577324 53.2219647329934 0.3659292203775386
10.223698169872357 53.22604104521991 0.36525832168469013
10.149856920585258 53.14356033225149 0.37095794657810277
10.128053867488362 53.047372999872685 0.37710674465349553
10.097763100269093 52.944106107748816 0.3837779432406945
10.301920642792473 53.20167785190102 0.3662406013034898
9.777960651210705 50.72273671945962 0.3134776192205042
9.737484816602274 50.558473653432294 0.31817086276515794
9.69413665662067 50.38049036699255 0.3232441860193563
9.649791952988851 50.204763656994054 0.3282731582389152
9.601021941797324 50.013515789486156 0.3337391216332227
9.549317687843402 49.81068531710951 0.3395481995553059
9.493432824840061 49.584255661032685 0.34601315458764614
9.447527157991942 49.43932627539965 0.3502193517623792
9.350282235890242 48.944318859559935 0.3642197616690625
9.284094570566396 48.68129770698023 0.37175305918039964
9.212061831567269 48.39697047672328 0.3798893257031481
9.129405409530623 48.057783636898705 0.38959035720106405
9.036006057444204 47.671779487910676 0.4006152952478128
8.943147562312712 47.3060967894534 0.41109999254311885
5.858988560936011 61.70776070227435 0.4713407893034702
5.834362261352957 61.664707074074634 0.47095406652128646
5.933370880930197 61.696711805605524 0.468265903445219
7.6991897635843065 59.97907143970338 0.5002685474463745
7.860409821667683 60.09230119865954 0.49793348687953765
7.800768577852864 60.02969514754737 0.49746120112301645
7.754446071848586 59.98155307906297 0.4972130141306117
7.933893805564727 60.171887909574934 0.4988988633902445
7.896809104764873 60.114368193531135 0.4973085906852993
10.591145862173184 60.568770982653966 0.4369979985119643
10.55548942403094 60.471889814839024 0.42969738626178877
10.53402322522807 60.38748664938264 0.42337499664024236
10.5136787285374 60.30297378762037 0.4170518842997828
10.775251055745526 60.80718095688759 0.4554437136461767
10.756614313842725 60.74048347251569 0.45035490656734695
10.728547186030301 60.62240585153313 0.44141063856790325
10.664394621540874 60.56194082549827 0.436658710661347
10.432056409459824 59.98295032376212 0.5090807566019163
10.411924986822527 59.889795024803256 0.4988983859343963
10.386791947933476 59.80297360261066 0.48944342377940614
10.363986510808934 59.6974094451092 0.4779451873264288
10.337268368994092 59.602711705653384 0.4677025019818613
10.313203949538602 59.49520732937093 0.4560640917901355
10.290397096447842 59.400102412788385 0.4458213923222462
10.264185703757379 59.316339595869955 0.4368962006277011
10.23546887139445 59.20133095890219 0.44232736380516396
10.214647789920544 59.11531249018564 0.4649306428211364
10.187758658316067 59.01166164655876 0.48756634910755237
10.161346425970908 58.90824394513627 0.47323736478635336
10.13609121275249 58.82028938625575 0.46121226352454087
10.113754999375345 58.73255827490313 0.449247926837196
10.09354061982271 58.6438287676597 0.4638415445314697
10.073313721861275 58.57531843974749 0.4280897326043362
9.92869705018978 58.24678843147361 0.4621475836373774
9.885122272005228 58.21000712162078 0.48554264075938375
10.083852887963447 58.59253395173316 0.4720135775555934
10.067455216353101 58.52115471305823 0.45735321943321544
10.049326093573024 58.43477563953144 0.46528229647443736
10.017799788528722 58.313764378335804 0.46434842414385796
9.973113020428801 58.25847149660692 0.48436319341064155
9.937292229369383 58.193907256051 0.4966879936031158
9.859829030839698 58.00204590658888 0.4135368842263564
9.787944475985743 57.74751669603012 0.42475592143240076
9.795234128164024 57.71460141058855 0.41779982461674564
9.725488761688412 57.456144889620376 0.42389189442349023
9.732411476722174 57.41116330324858 0.41466055942149954
9.74882462746446 57.43586366563782 0.41573272177307213
9.533117664435549 56.45276679466139 0.41607055571909923
9.51811461626177 56.38193902027079 0.42646776258289476
9.493562552075685 56.2837054580335 0.4433370581780764
9.461557542367851 56.18617473714438 0.4434317068491363
9.43932079225613 56.09692837256582 0.45884428775439456
9.407369484541254 55.99281970820932 0.47017942613877756
9.382996891420454 55.92918408852364 0.4208591871390557
9.439530635651266 56.05992699842545 0.45925365924416994
9.414144653959855 55.987816310426155 0.46786174076050935
9.382776687909596 55.89266069827487 0.4515384113241475
9.357517566670808 55.79583760218427 0.47071585923373005
9.339777638597639 55.70904483972043 0.473703500157988
9.310395215886388 55.64227501643406 0.44136082029211665
11.97971144243419 60.48427304933848 0.4541333792505035
11.951035019095825 60.37546845785462 0.4457422265521477
11.94735391532635 60.24128397296927 0.4364458193282149
12.018362083562282 60.22068777420718 0.43738851274571466
12.039861705245581 60.17109603732357 0.434762336530613
11.941493761705544 59.908081617012854 0.41366800450813473
11.871469742311898 59.52948010476742 0.4972077249894232
11.778572345052446 59.31822236317637 0.4716843061937552
11.797640837730633 59.26657202134081 0.46769603933702525
10.436273391701581 55.74146159738859 0.41747484590380396
7.285043140453185 47.570673956918334 0.41646631620928637
7.273962516257331 47.38617267787206 0.4214347320672843
11.881739488536015 59.24290578558011 0.4701593730817469
10.54964469390488 55.736766114363235 0.41832743722899346
10.514199417040865 55.69324516822118 0.43015512204718354
7.3601886449105365 47.37310884663769 0.42102678739378774
11.948000094205705 59.206029381083596 0.47058351845386137
11.932257156193158 59.112016207802796 0.4608574975957286
11.909641928205993 59.046716009095775 0.4534009305105635
11.869820802934537 58.90358596967462 0.43773565358739785
7.443997955762233 47.34825635621736 0.42096530384364667
11.94795664180033 58.86618975078317 0.4394789670616475
10.793244320678193 55.775940405225725 0.41921195699148156
12.045200482416261 58.83772448673762 0.44367035814078687
11.476811389771381 57.431385687004415 0.4439361914160958
11.472183669207135 57.354899096012495 0.4438606142476358
11.437024420606187 57.2370252424615 0.43287406987718013
11.421555856518667 57.14779618775035 0.41922672697376834
10.84457035859289 55.75363880034453 0.4294720759738871
12.115259172894344 58.80821076193259 0.44617303195042296
12.101917370587946 58.70817497928988 0.4367669427659091
12.097872356844185 58.605142705287534 0.44257030711141465
12.0653876941453 58.5092651394197 0.4651652231365518
12.04231890905497 58.413794747001624 0.49078092808634177
11.969013251094456 58.22341214727764 0.4633191412080931
11.941512589192715 58.159540351566605 0.45388660956393073
10.948779724923776 55.72475580690838 0.4475017551779079
10.92457460517544 55.65418793147454 0.445720281448317
12.047252744670097 58.405079496479544 0.4903820231850575
12.011566199009991 58.31147865256662 0.4768906672609635
11.947326615141792 58.11571897876004 0.45019730790653395
11.931964800795452 58.01159964648575 0.4700680708624713
11.92997788062129 57.920817273858496 0.46726783843207653
11.906342593506682 57.831629782167326 0.44720730692508925
11.874754290473803 57.774742576361035 0.4736834471913292
11.12226956817642 55.954908390014246 0.4175356345904977
11.097689714380232 55.88883612555993 0.428086834728129
11.070405804244608 55.7882163609367 0.44154056862301844
11.050094545932607 55.696729476514065 0.4470630632551886
10.97732669449252 55.559065399523675 0.4460805321750173
10.989341262253417 55.48507070533071 0.46364365130338997
10.168316625133706 53.223840785433964 0.48883377056100386
10.204385584517476 53.22278978596618 0.4885483669371931
10.15056678955324 53.1595420558055 0.495284416292971
10.129011948716181 53.06560988091181 0.504648293308078
10.10845127606015 52.989666869877865 0.5122693453203969
9.946976678334085 51.727623711020755 0.4605642206455145
9.920799852028782 51.65015643707511 0.4655996142050249
9.890319766506176 51.53912937733091 0.47276841162581806
9.858971641840771 51.42420180292399 0.48017963417314397
8.71594422569166 47.175340905176846 0.41606625164203226
8.647162872209151 47.0723325327297 0.41929540713591795
8.768264348608819 47.165786304300255 0.4159875832949993
8.833051883650105 47.0461822325381 0.41881807097460716
7.384268951340509 61.33505224709576 0.6016954444467366
7.557932494581284 61.244388494682696 0.5872055255951439
7.6193464605255725 61.25061568745852 0.5846301457935924
7.60407792229333 61.22432488558858 0.5836311472696324
7.77756027513405 61.310169167625844 0.5812600807629252
7.718185448716627 61.24979151458904 0.5799227691977663
7.81169435382281 61.288621220689876 0.5782218870691723
11.08174644109357 62.703683705901334 0.598829132745973
11.040128624572665 62.702392147530375 0.5984431530984693
10.986031006691457 62.565065801132135 0.5878454338601794
10.957729206863378 62.4633516275007 0.580062715006281
10.92883928126067 62.34365296733694 0.5709797256673027
11.123576210610603 62.70006409826501 0.5988990125881638
10.592317107284922 60.56468274821293 0.5731290247297828
10.55721798845971 60.487502379002194 0.564555744200901
10.535416044397735 60.38946712815581 0.5537472612056025
10.508777155308369 60.28439661566834 0.5421696791905707
10.777323462589157 60.81562787044648 0.6016718110521563
10.758956216571661 60.755114134035644 0.594876165002664
10.7308362716355 60.63743304453282 0.5817610030482447
10.665656334382147 60.5601864020642 0.5729082522674374
10.484380650744583 60.18112520378921 0.530809996878717
10.460447072870473 60.08067154067591 0.519780948610414
10.442820701889472 60.02287984580075 0.5134597967477521
10.40250743227994 59.87468382137719 0.6102577180200371
10.383091679878097 59.78831435488503 0.5977891456739303
10.359564406406069 59.706941210718746 0.586107123012565
10.33821775297162 59.60626901017442 0.5716394228739592
10.313345666717517 59.51241786487119 0.5582300213421801
10.286929180937703 59.39862236095937 0.542000156751793
10.258300651131384 59.28867019934779 0.5264261779334075
10.238626436035831 59.21276042008251 0.5761829326406566
10.211052790385365 59.10643876237222 0.587919315394438
10.18603153776861 59.000396455313194 0.5694204611137935
10.161547685133199 58.91405620793763 0.5545674550095384
10.136799406229269 58.80346561746934 0.5575352945413136
10.114533102266131 58.71569319022007 0.5577901146154908
10.09489700055987 58.648688034461365 0.5817817198913843
9.927059826691952 58.24072266661928 0.5624614900202496
9.890721113767626 58.209827662081985 0.5635241126216927
10.084382848462594 58.596040949070456 0.5710448082626601
10.067089639456654 58.520646044344886 0.555887343497746
10.045579997659637 58.42579469410959 0.567367661625409
10.02761021448014 58.33062183003028 0.5582130844221697
9.970163240663188 58.25540701980494 0.5650638283439536
9.936395772849677 58.19862996841491 0.5562649838573162
9.40088189896416 55.94934269782729 0.5132947827098804
9.386821875100207 55.895439219998636 0.5254868242279565
9.36436120641712 55.79657695725794 0.5476757376708474
9.342749793334074 55.70593080901087 0.5546415713072527
8.204107296438655 51.26709873110763 0.5173984480517455
8.192350157811537 51.18335780800338 0.5225592608387346
8.168176279868717 51.07022817894682 0.5297213499706641
8.13339494202465 50.92920890675525 0.5387664889387217
8.090307400858924 50.76359108805426 0.5494383342807642
8.049171148075226 50.5994699710569 0.5599883601639236
8.008876094930377 50.43290982850017 0.5706611361877888
7.966218213122334 50.25669235989126 0.5819641431385936
11.978775560894913 60.517414233386695 0.6010523546221728
7.915647294925245 50.05790131289206 0.5947672086391794
7.852169024241459 49.821439570728984 0.6100820292765267
11.968267386548638 60.45320723136633 0.5940841209980803
11.939594563699004 60.344786464832346 0.5818003203536245
11.94481889251427 60.233154673763664 0.5707632017194864
12.0186579991244 60.21950535490212 0.5728476812591315
11.969694701273095 59.95361144731771 0.5439806899152958
11.930637502532125 59.89714968502248 0.536457627821655
11.94294796192418 59.80828912578971 0.5282836633045721
11.854363241717216 59.51769489336886 0.6066876111255117
11.84208424058292 59.46860767985291 0.5994769315562067
11.797563128387198 59.26854017013811 0.5705991800473024
11.884221682457836 59.24627484018416 0.5740845888097327
11.946777721353957 59.203051302962756 0.5734518562476223
11.927587401388628 59.10348227050229 0.5596099784877636
11.885337519602015 58.99720968131045 0.5431445603730104
11.873740684409299 58.89218188276138 0.529395173102255
11.951821806421842 58.863425612233804 0.5326105203084269
12.04206356693013 58.83301432884299 0.5371256813978538
12.111148340175758 58.795128696600266 0.5392519200392117
12.101851466198292 58.69061750238701 0.5266805837835791
12.096728289378134 58.612212107969604 0.5673893652173085
12.066325983314007 58.507155204341046 0.589631158193036
12.046256731689446 58.42932261556932 0.5767327080864963
11.95927062363595 58.21124722445254 0.5625842747308198
11.92852476196157 58.1436010428624 0.5650013426163709
6.1338882797741805 43.063335827488096 0.54575142118296
12.03758385767862 58.38465574462073 0.5697479971631585
12.018736941587852 58.32444728845675 0.5594764562345024
11.98847074757669 58.25926675802442 0.5471049115768439
11.944005070505122 58.104833766024676 0.554580053222847
11.928041568929364 58.02205348476588 0.570610840894173
11.920122715385457 57.921313207481475 0.5654786364577755
11.900215100358698 57.831772149622225 0.5565534521563253
11.86798365737632 57.77716865339538 0.6020401226263846
10.987635692253141 55.47111237034917 0.5164223881832117
10.16852776465667 53.233969143678195 0.6113494320943353
5.925401507318008 42.238064287769724 0.5694116025591996
10.198055200285795 53.22943995308365 0.6115382845982209
10.087424514088848 52.9197775662641 0.5193022290448446
5.690427340520409 41.30818323139988 0.5960861208177454
9.73133483551194 50.518780513212455 0.5374895074928415
9.691778758782796 50.3728038308168 0.5469087284219329
9.64553272607813 50.18352603638342 0.5590897669977626
9.596929670042682 49.99458766704108 0.5712653299839183
9.541991747967487 49.768360508240576 0.5858281589296214
9.487593270774301 49.55419146734526 0.599632580217597
9.444712680383686 49.43125661262897 0.6076927911237929
7.241299463583832 41.302692261094236 0.5844703701810621
7.582503460989471 41.902466129820155 0.5659900475351556
7.392431331448075 41.37159125340433 0.5815945658968094
5.920833072019351 61.71580079024541 0.7063487992665353
5.863067018002637 61.65679251902553 0.7065214203633544
6.020031498911067 61.746291262456126 0.7021430852921239
5.959733708442427 61.71607054038775 0.7040084896013412
5.905188911761949 61.66341613092489 0.7043313000202334
6.089076336806272 61.7372391779233 0.6975112983127915
11.233924941434447 63.09370793787542 0.629110921819813
11.170195402432585 62.92768890261456 0.6161962872380944
11.298130350826266 63.0630328290809 0.6274341184649551
11.37123586937607 62.94764595172076 0.6196643037955986
11.466588385890688 62.92254830637614 0.6189585644803931
10.591710117818868 60.57267785145265 0.7117775667045337
10.551324622384751 60.46081676156978 0.6953870061704466
10.530127518994203 60.38395515885997 0.6841607903890904
10.510234509306358 60.29906319367202 0.6717961865911452
11.562522281357461 62.900397042282925 0.6186276515457271
10.666678889700055 60.55419999663452 0.709474695497404
10.485676077757018 60.193292053835535 0.6564034276553755
10.46162963755421 60.10516676290221 0.6436065443814704
10.433355051257541 59.98942327634734 0.6268326150718622
10.412496989922507 59.91844628028415 0.6165712985062661
10.379374137408572 59.771213215351956 0.7057815364873548
10.361218692056442 59.693751884886126 0.6918832021011954
10.339151075584883 59.61069372177864 0.6770425721812258
10.314729446400815 59.50754916292458 0.6586321321298537
11.658059114519531 62.874487841050595 0.6181469703037573
10.29192508837212 59.40946580200397 0.6411827526687729
10.266150321186329 59.31836329238384 0.6251052489421346
10.240675453281067 59.11627019257155 0.67755136869091
10.192857057783689 59.01941438719301 0.6578365407906567
10.170088041746988 58.91607444888669 0.6362432334712399
10.147084730552592 58.82104314365807 0.632081145205669
10.119405330365817 58.71693709733679 0.6711822506529928
10.086411972413744 58.62527889897655 0.6499477466593334
11.752261983292623 62.8508820930695 0.6179524649584993
10.344317125341828 59.23581552636307 0.7015639255282493
10.33040502280749 59.17042463149289 0.6875463520233649
10.305726568669499 59.09275382182515 0.671082854468988
10.19823321603046 58.775082260470896 0.682514743030578
10.215860610631482 58.71718472184882 0.6671999383755373
10.0891465715188 58.6110260008313 0.646236049956815
10.067085926788996 58.524691028970565 0.626034858283111
11.881698952286317 62.825631847457224 0.6183935027490852
11.825487816714205 62.82393257914128 0.6172481651405793
11.954478195838448 62.80236913515157 0.6181041093755109
12.050737704825286 62.781605954680145 0.6185599324493418
12.204872335261598 62.84978194142303 0.6268061139686478
12.112138739555283 62.76013336363561 0.6183017440004758
12.288034306914547 62.81529519886373 0.6262830194565061
12.385214941686641 62.791318116335475 0.6269462845857633
12.482160677952162 62.76886525491061 0.6278508381564812
12.579722039361778 62.74716950667898 0.6289583130650829
12.68888067638762 62.72143316613339 0.6302531644964695
12.669210256943067 62.72156654914835 0.6296964830037791
12.775907982963691 62.699010790323214 0.6312662178550795
7.820581135655193 49.664727191399265 0.6200016721602711
11.946429477263232 60.23499974794816 0.7071071698283921
7.712596946528453 49.30017325718524 0.6438427816640374
7.482298020755362 48.517020328780795 0.6950317570162001
12.017831990384263 60.21575770576601 0.7088819291438992
11.928806718149167 59.891550252307425 0.660462719648798
7.492397309316192 48.36049765015932 0.7040892387070783
12.040504706205763 60.07547928763161 0.6918331426662625
11.838216942842067 59.459566076800414 0.7085825237722524
11.796467140637766 59.265336819714285 0.6737600311835694
11.880989949241325 59.239551032181275 0.6772535964684686
13.283058250386732 62.49800687977464 0.6345966925062351
13.247277454067376 62.50079722769591 0.6334875833333845
11.949103649973809 59.20631063639608 0.6784666233498697
11.930779886468184 59.107995628437294 0.6614812158104802
11.903882576548336 59.03573365708706 0.6477111475850085
11.869209969017534 58.90203898966874 0.6342533553969814
13.305781517837536 62.493655384845894 0.6351724312736223
11.950204046642234 58.86834447518417 0.6272560259433818
12.047729395400758 58.83241113977395 0.6327441526817286
12.111636271322668 58.79510215567191 0.6347666907873631
12.097047008962562 58.699340067621456 0.6505764710950044
12.096142383439116 58.627580377638324 0.6704788823375044
12.069471043568566 58.510453171656174 0.6782296872193034
12.03928103743574 58.42136897731606 0.6594029676041894
12.008780463047895 58.330636647478286 0.640414816965383
11.959913853181208 58.2229247869502 0.6651040226636649
11.922745942692496 58.13530644737489 0.6721144745225145
11.93926566357428 58.107532286286634 0.6703682785504979
11.92637268256266 58.01961695790538 0.652857152554674
11.92192021718372 57.92712487895338 0.6366914167386459
11.901249124668778 57.84292247184687 0.6190951693584219
10.146189605208653 53.120589038941944 0.6266847629735146
10.126786632748644 53.05073913994658 0.6362117158706369
10.098027894514617 52.9639928090701 0.6481355302495501
5.485756802572676 40.45486722529044 0.6204656057859249
9.944831453523609 51.717916159714676 0.6376329084219552
9.919061318326536 51.64463848419541 0.6450630260249985
9.887698392359079 51.52602379229741 0.6569765346824243
5.198442302431925 39.19860305671552 0.6562601023339925
5.289073610855749 39.16730807668663 0.6563583536919806
5.379918998373421 39.13651014417202 0.6564443796077574
9.346281869287488 48.929162050507756 0.639768192544236
9.277913713045475 48.65277838203501 0.6575923785872313
9.201859349557285 48.34328945026602 0.6775375562353736
9.126334854025032 48.05203827921811 0.6963697256706985
6.563295000332355 38.838199026468814 0.6555820402856534
6.656349136226241 38.81494316064109 0.6555693910524443
5.765647143922355 61.69088366314679 0.7144180932206528
9.015933280145148 59.77296327914581 0.7822896160240195
9.085698471565488 59.733897436594624 0.7698577618673469
9.175251585148644 59.743854682298334 0.7643328912894476
11.073199208711468 62.70259982052037 0.8113652493524218
10.991691399965532 62.60737030429144 0.8001073616653269
10.958334032485256 62.44856787645274 0.7823649358738944
10.9314145266211 62.35304297676079 0.7716670833875365
10.89615369799373 62.158356357929726 0.7499896384779976
10.600798128856573 60.58235748515139 0.7132221353418684
10.531109183930154 60.360958195679316 0.8123603928770466
10.511505929020068 60.30016919591399 0.8013170900867035
10.777854792149059 60.80309077662832 0.7465673434550586
10.752020469884574 60.732458698608504 0.7360502145056496
10.724112370584624 60.61823175336232 0.7191971576947079
10.486975173783454 60.19992687286661 0.7831312098299853
10.462921097659764 60.100505471726976 0.765125871878402
10.434538467195091 59.99165749614594 0.74546393363414
10.40896754354033 59.883265724115695 0.72591458781887
10.39395435903438 59.826779198260304 0.7157519983676404
10.366957440131271 59.70893810271591 0.8042112176310685
10.341831881896567 59.57419698318324 0.775170454140457
10.294958662310721 59.26102579625973 0.8027788401573103
10.271944455748052 59.214782414525 0.7915724257093185
10.236466922296424 59.12226413857026 0.7689815765574133
10.340862720450685 59.236018590374734 0.7955945682913944
10.23412293158281 58.98434034374379 0.7341297396006267
8.108603875061752 50.72316243160529 0.7777489329471048
11.98080620183233 60.52027419577378 0.7473581549065507
8.168200247286341 50.65610444344086 0.7818044469835903
11.968202614335242 60.45081216020051 0.7373066762022628
11.933042392484571 60.326334884016674 0.7185428917527833
12.008225739121414 60.00407286886983 0.811155408396964
11.930856868298424 59.89450422180133 0.7870407802604047
7.385880869905474 47.9661540600671 0.7296818394857965
11.87201908891053 59.552573037816465 0.7264810783174073
11.811896250043988 59.40501211538739 0.8073025881228394
11.785478393932333 59.25069845946629 0.7747803652603723
7.297182899681294 47.614367917622175 0.7523950314922054
7.2765966509205455 47.402809669948425 0.7653888216149377
11.877814159750924 59.23285612343265 0.7812340952056169
7.356581282088358 47.37178768891179 0.7656381991643196
11.939426775919577 59.19861854040527 0.7816840430372554
11.915328995187057 59.09088758459769 0.7588647568214713
11.875908462460533 58.98916145109236 0.7354207959050604
11.869642308061534 58.88356164571145 0.7599230458778424
7.4419759649734845 47.35163465989804 0.765170200069795
11.941087727171874 58.85307049259147 0.7347475078756126
12.037213817427336 58.82530324312712 0.7264784039588065
12.104484946019909 58.793000490845266 0.7301209869862674
12.098629721573841 58.69955011806312 0.7676242275836909
12.083031431164658 58.61218520044192 0.7891153078891969
12.060602961229868 58.50634594906164 0.7650316689162613
12.029766989400546 58.404828034339495 0.7405649172542197
12.008877946316346 58.33030363986897 0.7230687933496555
12.005486808016794 58.298876830693274 0.7167187572839472
10.16613856975783 53.21497793303091 0.739234560682258
10.203181958068223 53.22607654801738 0.7367475974122298
10.145351277114523 53.11989023095696 0.7555778962381096
10.125966037083883 53.05041842794855 0.7675896392048761
10.095089290956254 52.94355143139576 0.7861157470081535
10.493692935904225 53.49935416713748 0.8038693342451791
10.516422809182705 53.47596589570905 0.808600255294117
9.770317655022454 50.67998740909164 0.7404988713868892
9.728978796251594 50.51056400633341 0.7574797741165393
9.688912064334327 50.3610667694872 0.7725072821343612
9.641287042527134 50.16248419265959 0.7924116779027562
9.592628373857229 49.97410623873245 0.8113370758709106
8.715778398813912 47.1868781104077 0.7546201570705193
8.644089102170966 47.0693818392891 0.7627638140515995
8.787722000521093 47.18797910709734 0.7536426670907208
8.752785108508396 47.19425382301572 0.7536886489662046
9.036692778197661 47.690332437907294 0.719700908161417
8.952410433775373 47.37644478552008 0.7400410852209812
8.826692494197314 47.0224583497065 0.7633460744014239
8.98724554841379 59.76884484466936 0.9074321698119641
9.074148828234772 59.735174424382905 0.8919242477594598
9.196152703541616 59.799988245113454 0.8935483856181061
9.159048107270971 59.74263020997942 0.8852449625765867
11.236314808017955 63.09653545471615 0.856424941150909
11.134551599198097 62.78327593765478 0.8209000715733151
11.311005127132697 63.05948327357491 0.8534229771738127
11.300820709205986 62.98069741561571 0.8446706165885025
11.395147907446725 63.02438909144938 0.8509012019922519
11.491959580536346 62.999648452055666 0.8499189617138885
10.588481117783658 60.56758745253726 0.8500226549371754
10.545371893933073 60.431611423324426 0.8252154715549413
11.589379407372451 62.97812746982528 0.8494950284314535
10.753710590206751 60.73784996598831 0.8822194129847659
10.725783413424338 60.6233056044822 0.8611574923412881
10.668300590793438 60.55911253174102 0.8490003165100319
10.47617436140525 60.16482282527538 0.902865535285012
10.452291331694054 60.07383053560132 0.8831058737825924
10.430342689053127 59.973891792973866 0.8614307313630084
10.409959499046547 59.89239078855201 0.8437968158964304
10.390371699930157 59.80293860318372 0.8244625280857604
10.359048690901894 59.67540994829267 0.9070724107246804
10.346039909560389 59.61761733978303 0.8925424719965126
11.685100152202303 62.948206992668716 0.8483220361393792
11.792681222315192 62.92773046362957 0.8486309850553009
11.888227361073525 62.89556580696972 0.8476024684916972
11.975824106787059 62.88571882527798 0.8489299743248478
11.990595474043257 62.86545301049772 0.8471847704445565
12.079876260992672 62.85729032063539 0.8489125501689452
12.089705639999838 62.83765191483891 0.847097966174361
12.187360120887 62.835200347926886 0.8498934241169382
12.146967314609709 62.75847492712585 0.8404978103908797
12.281227722309973 62.82566169834659 0.8519593044692441
12.378295326854175 62.80168794556931 0.852801640722438
12.485937654763655 62.77555193851801 0.853989924875292
12.607909026361671 62.75593526211636 0.856648089962807
12.562599678096047 62.7611471168094 0.8554116268898488
12.682080571542237 62.731003639262966 0.8570779455659088
12.778491225876738 62.70178886303443 0.8581150260648271
7.8989428300168045 49.878969920762366 0.8623384130041919
11.950025577560774 60.24775997616103 0.8469799289627099
7.953085450249298 49.846010799426246 0.8635440838076649
12.018416610057917 60.21514983490057 0.8466752312122557
12.017242433439336 60.054048089951436 0.8200482182691278
11.790187165679338 59.359866947269865 0.9059554318757815
11.788132000712027 59.254580957392974 0.8819037589339049
11.879809897633981 59.23542142787506 0.8890081455294502
13.285155869352518 62.577386180504114 0.8695520112941229
11.942101828857407 59.19906950407881 0.8891137333642642
11.917393647416365 59.09362293472917 0.8628395802007962
11.861637484988165 58.96506718029113 0.8273960235125694
11.851567507307081 58.92238858671154 0.8168107204074805
13.32715423070428 62.56048196794592 0.8700748538403281
11.951150078988036 58.85066758242162 0.8159900664427193
12.043376521693512 58.825499230244475 0.8249259616311517
12.103239147619762 58.798059665205436 0.8288971001426431
12.09975290843271 58.74997235838403 0.8187859730544976
10.123903798396283 53.037237297280406 0.9032016884694434
9.89181915774893 51.408975731703734 0.8569802026551485
9.820273283126408 51.11495846282205 0.8970543060285291
9.537956627308462 49.750512980367816 0.8337775152789466
9.478867192327137 49.503458451065995 0.8585463417079295
9.43391390549117 49.36711189920992 0.872423241374076
9.35172099727214 48.97876085097756 0.9112144146690171
3.74647142457704 33.03680118879895 0.8322273381852625
3.83399245919811 33.022465490220114 0.8319276126316011
3.9157425965381147 32.9954916609511 0.8319981719484223
5.004713952192896 32.72862425623029 0.8310500033859533
5.086350373283706 32.699843927519865 0.8312371709721005
9.101752425016604 59.7346761854974 1.0114454397471815
9.071855974699794 59.67961181745117 1.0019582936827776
9.19411442368794 59.77914574124028 1.0119209953381414
9.16104740475036 59.74188861533827 1.006595521300803
9.100258843110453 59.60488614320828 0.9811581299261003
10.96232768292496 62.474073738932276 0.9910832827581182
10.933580055630776 62.35729419032109 0.97382390000372
10.90077022264759 62.19307933992019 0.9496108239592674
10.602722915431123 60.558675771120676 0.988928431252859
10.494368871714773 60.24201216511906 0.9196611679490186
10.729389016093192 60.658343398936395 1.0118273759894807
10.662522130656047 60.55033751032595 0.9876118654297105
10.5822023512741 60.31096893425659 0.9348913520109149
10.537478882790642 60.26855688439934 0.9255024014403389
10.447670703064508 60.051849185944306 1.0022045543919267
10.431429754175452 59.979906853039374 0.9839592479099861
10.411112508139238 59.89423491705561 0.9622720511884278
10.386219202245004 59.80308847521989 0.93927559661595
10.368037732914024 59.710698691341356 0.9159537256759471
8.097969435658955 50.73251812693999 1.0050104533800412
8.186206557647365 50.70900755971369 1.0037041824813382
11.940946997504128 60.2353128406456 0.9834182947934018
7.491347742599448 48.45921073022136 1.0066789339377789
11.990833216578192 60.217144717209585 0.9841755597783096
11.988054119962303 60.12779610369263 0.9661603703027372
11.929202744523895 59.93373377154278 0.9223018450313533
11.865921130479585 59.58807574617936 0.9667145003600964
11.838186571328956 59.48094737580631 0.9390889236763821
10.103723226934715 52.968398939139576 0.91769181153057
10.526920261154276 53.49531876158855 0.9224640037066615
10.493510176801887 53.41148047331821 0.9427567555734573
9.68212752649186 50.31792427755853 1.0047071831226926
9.257927884549233 48.53188949597586 0.9558611693388618
9.18601588384959 48.252874525540804 0.9839502169031175
2.359046983384296 26.966900321342557 1.0053130243217023
4.039318945093854 29.40214744957281 0.9274290256630401
4.153339184205919 29.449349012811556 0.9253299995008795
9.200341156430532 59.80905854492818 1.0184213215279099
9.14731252197208 59.77365321019358 1.0156198711261486
11.238450028929076 63.09727311023133 1.0854039930717867
11.18715836138032 63.04274379648807 1.076639323660246
11.148329235567706 62.891717835441355 1.054191457985579
11.075019634782578 62.70126074637665 1.0255142189901518
11.008712368151985 62.658804346551534 1.0184553947428463
11.312787778685863 63.05737147387839 1.0810123076533742
11.300477928413175 62.962254132330216 1.0670414412466729
11.396951919079632 63.023349475456804 1.0778211418623806
11.493995503262543 63.00058592413079 1.0767842224370858
10.548322797252794 60.44100139112918 1.1012879948955443
10.508072335367935 60.29482079428891 1.0639823767044163
10.483611952512769 60.220620692348874 1.0450807491242826
11.58968510747317 62.96931077609926 1.0747434114409007
10.765622959338803 60.793048017829925 1.0415989439405957
10.747161520214798 60.721845629836665 1.0258776357778485
10.533067926663833 60.31716683505821 1.0697070763446899
10.47137208221357 60.160541947742914 1.0298110350192258
10.459482834676932 60.094567022978666 1.0130330477296718
11.686770992036267 62.947610147384076 1.0743619457584268
11.783752868018288 62.9313713158353 1.0749849334295758
11.880506055627023 62.903835106824374 1.0742422238630414
11.989111691896982 62.8828655043639 1.075096008501725
11.985804849000665 62.87336660298498 1.0736761715954655
12.096202122685579 62.85576500186676 1.0753501644616794
12.049997576409183 62.85137767025746 1.0729226230108626
12.21474247226617 62.83167306813184 1.0767889666992623
12.146844614997745 62.793019216059434 1.068570993929496
12.279738969397147 62.81494618068484 1.0772486297238466
12.377454000619931 62.79361013156102 1.0786748507919282
12.47299047116428 62.76672665600558 1.079460231428784
12.565002105607222 62.72952688228182 1.0789057284564
12.659006341719952 62.69613584983573 1.079210878267618
12.765908699259152 62.696315345243974 1.0850065197430132
12.757573697540423 62.674658060283576 1.0816551662221612
11.971922283567896 60.49316692882528 1.0378795231208908
11.950121535379978 60.4009548369611 1.0174762152971777
