ply
format ascii 1.0
element vertex 847
property float x
property float y
property float z
end_header
8.519135637477689 44.07489965530088 -0.46983194760713615
8.541622696742023 44.1931608256674 -0.4670080467641727
8.548213244592924 44.28098416143461 -0.46120081714466804
8.569379188658573 44.3816985348293 -0.4593658015141043
8.58473892975136 44.484364302625956 -0.4559809279174619
8.61776296497298 44.59756475107433 -0.45229153245433784
8.615760438322841 44.635195322712406 -0.43384942086427514
7.2265863630133875 40.23536552292682 -0.4357084922095779
7.22127719289234 40.27355958467267 -0.4101392458150152
7.248607250949425 40.40595166670569 -0.41968620519026023
8.105237446147013 43.80570960506253 -0.46334002794235774
8.344326450390012 44.842427571706786 -0.4498960167788819
8.364787837168187 44.93445581312031 -0.5226220829198718
8.417641703496793 45.0539695406004 -0.5261792140063866
8.438738002752777 45.13713386316556 -0.5290852413372744
8.471511497867738 45.250058150948554 -0.5265427493405291
8.48355205698374 45.33503060354924 -0.5291669328802969
7.273756101471964 41.57658355243317 -0.480299946336279
8.308664831442243 44.81322880940298 -0.4765429318942253
8.327784314717839 44.85591303314531 -0.4852595088813328
8.375161106318421 44.97944310678414 -0.5196021816707347
8.460547704892093 45.29175848263972 -0.5267659640598863
8.471354006145432 45.36901518681066 -0.5184138605355166
8.488396433520634 45.43278013729945 -0.5242462903136056
8.521899227790305 45.54050572631823 -0.5146328725191187
8.53269084049948 45.62134994949841 -0.5190927809979549
8.565090296435065 45.7265016296651 -0.503430747463881
8.597421298044694 45.800734474666896 -0.4673425222862761
7.172831181205561 41.559230517724224 -0.4258484321191378
8.442297803793272 46.01470749096036 -0.502170811460119
8.482718962435804 46.31249162053467 -0.5027571330623664
8.502417644267677 46.37067461565682 -0.4727604258178121
6.578437476038852 41.35995314597049 -0.4764595479645322
6.61226001567335 41.43469079567373 -0.4154064602167115
6.623062947108564 41.47649205020585 -0.3863778795610194
6.269556702154679 41.198528677536096 -0.4708407211566141
6.310416606819055 41.275623475539746 -0.398503936529959
6.4180618273288355 42.01480723776784 -0.4586388551993081
6.390156752632532 42.06032792044962 -0.4607138684350077
5.498328565069621 40.426660970277425 -0.4072575322960257
5.5128557058143715 40.44873624580101 -0.4063804518719088
5.615420179041395 41.008935051699936 -0.44587331996287194
5.923976641833177 42.118598402725446 -0.43704201409828275
7.361933403659635 47.180460033929066 -0.5106976624488094
7.403019928085278 47.24096251984208 -0.5221013117171165
7.444994083145495 47.31347115012026 -0.540540998486347
7.4587446505163815 47.40032980063729 -0.5441003268030271
7.490173602287504 47.496898353606554 -0.5464300402793903
7.5329610763828345 47.61046015712958 -0.5438186913971369
7.556020217755101 47.662967384049786 -0.5288938893169263
6.886709490298096 45.6389472720627 -0.5262170587593835
7.331705485888336 47.2451066813228 -0.5230374537761334
6.935193518982876 46.22460088209637 -0.5160346838806609
6.926903599575498 46.342258208755716 -0.48452134360894455
7.264478140108049 47.29885750303225 -0.4740514266072277
7.282171725099985 47.32574876699561 -0.4893873785221719
6.918860813889847 46.439441889061705 -0.5113335121122089
8.601445731705093 44.6265447392992 -0.4212409473591779
7.230712296667085 40.21149625903985 -0.3047247871512003
7.225897503341622 40.28289994186793 -0.34125389518469895
7.254839197817535 40.37864019806375 -0.3330301502641225
8.380252230897808 43.97865442468575 -0.41458651427592497
8.54100737507988 44.58401554026048 -0.3678441984969397
8.549209596540551 44.744439676657734 -0.40111018853992747
8.541867934839322 44.77149918431371 -0.4145187552034611
8.514096170720276 44.76295797380748 -0.41155251223334477
7.417562672626162 41.603856908815395 -0.30533850331760026
8.09940065360876 43.80423107784023 -0.3622671552207788
8.12044361501207 43.85634495651418 -0.319994685561292
8.332550848059332 44.81329923068741 -0.4056028892425235
8.364569264813175 44.844274761675216 -0.3797138106233434
7.2822809343435 41.57324854341867 -0.31138174869199314
7.337849320772434 41.59223503072889 -0.30600016278512815
8.567992180094135 45.75887502700125 -0.38938390060138967
7.2062137609758175 41.549988972257154 -0.3382112324700196
8.427430114158156 45.981257097893895 -0.37845595921752145
8.487641201107808 46.32523253948188 -0.3698400992054751
8.509160365837865 46.38648618738807 -0.405303423058813
8.5521834548299 46.43483050455072 -0.38300476939962796
6.630103416430075 41.45710163294219 -0.36270921884570995
6.323504351224566 41.32581291545575 -0.33790954204736734
6.460470538738983 42.0299642960381 -0.3386514083883988
6.460451615634282 42.034740688679975 -0.33233179309400784
6.382800212456832 42.10948125635268 -0.37698715494767976
6.374394115686262 42.105880818820985 -0.3781782004370089
5.506674090583148 40.4306984508179 -0.34631675530143663
5.529190711994402 40.459307479613095 -0.30575915839216256
5.571461453652613 40.538297262800775 -0.2658614620289449
5.668553472003452 41.116222688997524 -0.34891602952198036
5.713252044201603 41.18334011271382 -0.3135907454077588
5.737711054163958 41.21846388112293 -0.31732328870332743
5.659707195204793 41.14753609037277 -0.2831055948771339
6.939844076465633 46.19647268962447 -0.36145041613390533
6.929966078162742 46.33709661325129 -0.4056780175006754
6.924743145613654 46.38882079574757 -0.35077956090093027
7.237281649482842 47.185228200977036 -0.38312333833190504
7.2587671991705625 47.28930466460238 -0.4004691197324892
7.257003163664434 47.36555505102909 -0.3743598013543349
6.92220666443227 46.41161934548032 -0.3536758890212474
8.65661346856059 44.61118447678406 -0.23022075856428353
8.664941649915532 44.6223892269444 -0.2503310832526322
7.230562277634659 40.2390947864258 -0.26286312722102084
7.225146070136894 40.308247941889235 -0.21105598797047606
7.256866139351292 40.36889090504794 -0.21010689919842995
8.546715889563478 44.589715434935115 -0.2689432439750475
7.4995160389505235 41.6156067111779 -0.26788045051183
7.455206339861071 41.611913035302905 -0.2572827578649037
8.107664152611031 43.81098941143215 -0.2588605478528954
8.123059516351816 43.856127529025486 -0.2687441193899837
8.365190907137448 44.861808372777915 -0.30883794253745256
7.3148421881040635 41.57105110056412 -0.23002395451936306
7.321546292147723 41.58492059437678 -0.2561922785442544
8.537487610926096 45.68442213126737 -0.25406160249474746
8.567721084434124 45.762038966504996 -0.2803347393885193
8.597269198966881 45.81101493472201 -0.32333487742406947
8.432858765137002 46.004147532920825 -0.3137867006787465
8.457322798956747 46.06294223013737 -0.26476674750247203
8.487871897132893 46.332541416881966 -0.32771180554905177
8.511376178503117 46.41173341691118 -0.33914521021862254
8.523925739869082 46.44099695479869 -0.3300857265811575
6.473486636598974 42.072101173644754 -0.261604050049472
6.424543326785733 42.22487230754612 -0.19586693745179634
5.504917161224233 40.42927928837068 -0.20858133387444847
5.560124638335805 40.519819166688656 -0.256759879260428
5.57517123643358 40.562427048783384 -0.25735361600019874
5.657313866830911 41.155337910097295 -0.24545782024851046
6.92325401009225 46.24263449178258 -0.2919223507901402
6.91980772284943 46.29044699993381 -0.2853970991635503
7.245303135861454 47.27781011804305 -0.33134657417695634
7.259656678171216 47.394058698010255 -0.3079477818452178
7.262474933890435 47.49002333203609 -0.28442424785555376
6.917283382438198 46.45315166220428 -0.28618117455550257
6.919145654881663 46.50722085544482 -0.24820347683517205
7.252789104210219 47.5266936365275 -0.2974732353559015
7.269493071245683 47.57386373555076 -0.3047934808280515
8.645285297160108 44.609312939794016 -0.1691774372320281
8.66615410270328 44.63339231716432 -0.1768690315251174
7.227639281987191 40.23201827496933 -0.11811798144040661
7.2303094492979065 40.284290012103085 -0.12428755674602492
7.257839921998283 40.359754595639146 -0.11717760680553721
8.565187281657394 44.60669338564709 -0.1810504279583825
8.558860790180859 44.73159499721018 -0.19135455352888944
7.486715978012921 41.60052727377926 -0.1687160265940065
7.365300386503377 41.545303044083155 -0.1694363626540734
7.4128734489992825 41.580941715574525 -0.1693129883932411
8.089433042192105 43.83182760723624 -0.15767862776057695
8.111994548071195 43.852006527444836 -0.2075198488530955
7.331892626268997 41.56390257751101 -0.172037665100328
7.36649619699244 41.57289842429321 -0.16887309544500503
8.567744945807176 45.74869254531341 -0.19385711006227346
8.585862676097163 45.79736982248113 -0.18201832476211469
8.404639133004459 46.177354519461936 -0.1566889063586208
6.426693716974659 42.240437650918295 -0.17531197459740974
6.445799167308217 42.302024494996466 -0.08979554101914523
5.496986198736314 40.40562975973939 -0.12775388415341848
5.529032017039115 40.47501051039128 -0.10685863114638794
5.665887091345581 41.16250074204096 -0.10533553638010591
6.917258240397901 46.326118515902934 -0.14274962924665388
7.275440436628786 47.5075653855161 -0.2516607449725459
6.90908281395556 46.45150495385586 -0.1864191482989769
6.908108237176794 46.51300793726695 -0.19465823803190968
7.25101267735078 47.599647612805185 -0.21050491773149585
8.480440028186212 44.13611859983418 -0.06429166958346642
8.578966276494697 44.300466657321685 -0.05055987704262842
8.577602739664295 44.373561582346056 -0.04730131393844278
8.581835400993114 44.45679271280662 -0.053731367047078135
8.618563476663255 44.61539068611497 -0.09410918527069596
8.607273009694119 44.643204809140755 -0.10587482433089215
7.22958828642933 40.23648383028748 0.000961542143915767
7.225587794787152 40.27347946949064 -0.024564775087688322
7.257166292377382 40.365610058689924 -0.020126547252356568
8.58400956233843 44.62097200516791 -0.04694450796198449
8.601819570526075 44.769522782890846 -0.09026629725349733
8.102378297086403 43.82367898766271 -0.0719912065163427
8.11528325034571 43.85335291171892 -0.026132259561394647
8.408787134471131 44.87211767866989 -0.06038131366659478
8.430482804838398 44.9168972752485 -0.09731262615494901
8.5776392352851 45.758578527757564 -0.07861266312593226
8.594529648527232 45.803654158470664 -0.11117048243605673
8.454017781305547 46.0773257795565 -0.06523299409910988
8.43985227869917 46.21145352170858 -0.09357090377077397
8.457696681278554 46.260235067130246 -0.0853265839039101
8.415963603291097 46.206390074134156 -0.13090069906376797
6.685771661897237 41.52415699175244 -0.05683447587495836
6.542648365325563 42.22914234901894 0.010047099293908183
6.440038020304567 42.301999606355956 -0.08323661878493267
6.433654534904755 42.32169361236321 -0.033142390956529814
5.628494319538295 41.119806321951025 -0.06109838042585102
6.903462097205705 46.383662528007015 -0.04777523173045221
6.9082065446003735 46.44471790390283 -0.10067198405314824
6.902826180764864 46.55964679324896 -0.08791371145118995
7.250136896438012 47.532203971524055 -0.06971095953842733
7.242647211987663 47.561087126516966 -0.1250188636010025
8.523183448749968 44.23476002888411 -0.006666450059491539
8.522221746461742 44.263902486612764 0.005860927387028217
8.599795815646752 44.629962293813094 0.02595839261968898
8.611067506373864 44.64357034690984 0.004325968751995672
7.227514476677603 40.238302653070335 0.08176444895683661
7.240442217527941 40.29695893403737 0.08984160617645248
7.261139685434984 40.36202206681098 0.05926351816585596
8.58227086357028 44.6188254709986 0.05537064047529098
7.210476584929784 40.35140975006892 0.05072418363890921
8.470401397753967 44.92602065136343 -0.0051050552255011445
8.111211842801684 43.82578955149567 0.036728521216495814
8.11786709683812 43.85550146617959 0.03065230716000914
8.417271390693786 44.880307559319405 0.02618363425213779
8.435612015535904 44.90485551840675 0.02162336857996961
8.574376284589412 45.754375979282955 0.007674101696605698
8.593225193261608 45.794513322935856 0.0009066972907324725
8.424276724216696 46.030943181040975 0.020882155807715765
8.442520202950924 46.067297916688624 -0.009566400196519475
6.52750526115398 42.229351119359976 0.10985508690227515
6.530085147636663 42.23308981379488 0.1091173494375137
5.737346735882095 41.3066136121497 0.09391446018861266
5.752402263991758 41.33523207523688 0.1169428934789703
6.917512795915368 46.30436635568726 0.010102696096119336
7.244717570640659 47.38352140417897 0.010553144060039533
7.254301284393158 47.50354740013856 -0.03861410808269227
6.912271349459515 46.382631860668454 -0.002356121840699919
6.9175805428722335 46.473351951385354 0.011530476326475969
6.910398099769216 46.52146391986783 0.0015894851154307425
7.234065962132274 40.21373001051107 0.17963723534147158
7.260045074243929 40.29175326327338 0.1783717385778976
8.559990866118202 44.5980659304285 0.12145451773992991
8.613945186476299 44.77951992824603 0.1350917319245558
8.471476335784638 44.93988722718224 0.11717647761465527
8.108152501810778 43.82620026235759 0.11247594960237703
8.116783934692707 43.85179398123655 0.15399852159554459
8.415091326938335 44.87914795794072 0.14236859525869108
8.453354889505102 44.92431700938701 0.11938655917914442
8.65328486267579 45.85988055454598 0.13053470578944334
8.655854539006969 45.884343376608925 0.1287816286458455
7.306262138022508 41.56955835816683 0.1731405043371367
8.610738656951265 45.82544363948316 0.09799137855393637
8.644948122304697 45.89084596870855 0.14119554201242587
8.347454676928736 45.84020324974235 0.10022722778625859
8.367010338067654 45.89764418910232 0.11194626176683539
8.393845061207678 45.99380926996086 0.11159594281297666
8.389963513424387 46.07023876729109 0.14071343597786617
8.4405764505053 46.214034897980845 0.12631780446882918
8.459258974293311 46.2891155194595 0.12099588572251532
6.763524506689544 41.46801826317037 0.21943568783077708
6.717930594936342 41.54460306910139 0.19568414701864328
6.726118429555897 41.56548690492229 0.20673468140709989
6.379698283893068 41.66734597114493 0.2151209150754031
6.305831782861365 41.655311791182264 0.21895798628320923
6.34466572010296 41.68639403134055 0.21617559797370756
5.729293715988918 41.307370959847376 0.1648402148264343
5.742318414885073 41.3404545759208 0.18195751513498
5.708513026851492 41.3069118479587 0.18508132377542663
5.724829414235631 41.339114799819136 0.21141074685508354
6.918322415349395 46.36025589640673 0.09373240222880982
7.239678663346341 47.3777380086807 0.10803593668751632
6.91097284090659 46.38876204152544 0.12511458500055433
6.915222199751461 46.411385828256535 0.13943722418226237
7.226008583031726 47.43287230990549 0.1057157249013477
8.594907668268771 44.62320775963248 0.24432491735736753
8.618413227337236 44.63937471285277 0.2601289301309125
8.687827160512139 44.8454807617066 0.20826736415546027
7.22925884103945 40.205215056723176 0.29483494633237023
7.257858717493347 40.27673680645543 0.2711598732381499
8.571979037231413 44.61255989540594 0.21073313629184154
8.48150180046229 44.93763211203902 0.23083021103595705
8.128386084104688 43.85512398437543 0.2014144599841783
8.397638958668288 44.865354684358735 0.17428816369304176
8.460280349077541 44.922092881514935 0.23386620705283412
7.313639823535346 41.562060948794 0.23171600902665454
8.596918334939302 45.876818989955666 0.1917788086858585
8.621680933877304 45.93730615696607 0.20176102286521258
8.626836452216315 46.06554956845211 0.21960216859819362
8.51313896671016 45.989327541151134 0.20992593115210564
8.556087729258177 46.01606718232404 0.2168596111423532
8.570714634823329 46.23206737809817 0.22813838564044267
6.741955499401218 41.5211500961436 0.2566310762262448
6.760422570050614 41.556038952369214 0.2446907238070718
6.726087148853788 41.52656243909169 0.23303082881830112
6.732809246071324 41.55422162383343 0.22317662420702694
6.3690964927450935 41.64948678847874 0.28678691038450754
6.384912338881599 41.673916796339434 0.23615810567562273
6.276052607060515 41.65712067778983 0.2475194851842773
6.342002740595655 41.67380408932458 0.22902252055492991
6.2408760127114 41.64667572494841 0.3037614188648416
5.736705321785918 41.33725592678777 0.24850072525832598
5.719370260801122 41.311431770949135 0.30082624392098384
5.726356759975335 41.331488419658605 0.2558088417238164
6.922898682859733 46.3641776210151 0.2096453097645251
7.245997321954493 47.41557219074064 0.19546126678804476
7.253643283413551 47.456095394639085 0.1889546475039403
6.919884769081277 46.40595451842565 0.21316792063765633
8.585300801149955 44.21571143490522 0.347879472702526
8.600207168556022 44.27936136642152 0.34671613571268806
8.61778809146201 44.35113545197894 0.34838273803823755
7.228135691982662 40.00584314368954 0.4192997982482194
8.513450253473568 44.09438923165544 0.3372501277073548
8.554212861829242 44.174564996972514 0.3415881305501951
8.575769267662116 44.26631256000604 0.3392487816304338
8.610218704989231 44.38817338186044 0.3398538963327463
8.614954983355894 44.472106980113416 0.3363595894823013
8.615946536790952 44.58630359095694 0.329429963346555
8.63965498019931 44.64247307703757 0.30636214111039994
8.691687269692707 44.86856894257852 0.29453855832862913
7.2274660979744505 40.11168823933926 0.3950224638997874
7.225072608795255 40.16859292888519 0.37823283095474214
7.275114845011856 40.28723663239147 0.37727756453503863
8.573169958893413 44.63445144901014 0.36545228685885417
5.73493990654601 41.305350027294836 0.4166725455951757
5.759083609738931 41.341318888871285 0.37707346670018194
5.715286799043117 41.29902731247912 0.34062058465343453
6.917671211568709 46.28744336155667 0.3354118041498804
6.914344414006837 46.336710267731135 0.3085935249169388
7.233260739154151 47.41067123288237 0.2645246008786323
6.9083216354377965 46.39535641778028 0.30374480349572647
6.913645537201674 46.454124023036705 0.3077576618369371
7.24013365405202 47.48579732401301 0.31852191398806673
8.505210964405936 44.22000578615345 0.47270864339452223
8.543718427651875 44.35783652902094 0.4708450145941459
8.601385433089968 44.52596799850305 0.4209314669893498
8.624126530180206 44.58118901197391 0.41965731491800856
8.611253924130224 44.65347755154803 0.42142756563113887
7.205761739164312 40.13347874006415 0.4624459786675069
7.2237513197357925 40.197105624761484 0.497401279267887
7.27389853671693 40.27096644372686 0.47700045862679635
8.574874049765947 44.620165506969656 0.39795479045853377
8.592062762332043 44.65682255919775 0.3892959971663924
8.596713221574367 44.90050067080159 0.42245183150189397
8.553581155124329 44.90924971113247 0.4014071770685224
8.401761158994457 44.870370930347036 0.44280478716346405
8.534048519526767 45.48314402146415 0.41374922163978156
8.55204326659262 45.512797194439834 0.4312894760574535
8.929087978998977 47.00978050141942 0.357491331205847
8.964820219534426 47.08381451414224 0.37778281354181076
5.728346803433941 41.29647186620226 0.42889242257810045
5.71695712936028 41.28303247596525 0.4394065643348445
6.913368817527335 46.3585779552163 0.36356946427095926
6.908507374091209 46.437154703256795 0.420735310731538
7.24515455725541 47.543163043411795 0.3581856503717744
7.233546160134318 47.62229402621324 0.39750710253511323
7.237552156405639 47.69335764357193 0.4329218500759486
8.524646554875718 44.245528042854055 0.4827603209748495
8.557246762703151 44.29516503426175 0.48728704417978824
8.580597415139598 44.37993529509694 0.4893093024221638
8.61319025185325 44.479674313560054 0.49378560518476716
8.635365764061476 44.586671169078734 0.5122672340324335
8.636597001536204 44.65184400888336 0.5254034379220267
7.235494470846904 40.14006588919362 0.5418456075211635
7.235979038310165 40.17652922223789 0.5563355241355721
7.280929188066285 40.30780577498239 0.5360897797079418
8.412522515429048 44.884314303961574 0.4851278233302151
8.955151747812472 47.08604094207399 0.4876079731575977
6.910714693871805 46.3240117169066 0.49849319842337436
6.908828366070144 46.373703459117856 0.5261065241653227
6.90869882041218 46.4693318605805 0.5033844615032453
6.9079702469809945 46.51386202850229 0.5361347778227276
7.2406736997433985 47.72605814801647 0.4579287181350091
7.243785318592838 47.803643922384964 0.4879920186193934
8.604467262514161 44.63742562735984 0.594507538179317
8.61725411041196 44.650651212039605 0.6075989829763758
8.956396322165947 47.091413894066456 0.5829327053729562
6.896934903277995 46.472909520381585 0.6005731829852119
6.903496708767837 46.54737154003662 0.5687578776553955
6.49975380728165 38.3507759135023 0.8375910438804047
6.529048779227372 38.45945478575125 0.8404871272658639
6.546428027025538 38.537131951211514 0.8246053399468098
6.574343501398378 38.64701140959795 0.8256271923518443
6.579865998916752 38.70543188242119 0.8292630244996224
6.603095711539326 38.86918842443545 0.8392153611524542
6.622298442354897 38.93492091199437 0.8095342465476846
6.645337106330157 39.03930346567394 0.8143738795367353
6.657412447290235 39.12918797125902 0.828167689003535
8.561925698138396 45.79311929262475 0.7338180513857663
8.586755597982066 45.84630917473753 0.7463678112608622
8.977705077514234 47.1294167578158 0.6448305272523298
9.014603687605598 47.21134830163868 0.6969723373920123
8.523718117770748 45.83801769770932 0.7559162644355727
6.891061520421596 45.66459287022886 0.7644156038977185
6.602005541257884 38.865300715068535 0.8547485270726365
6.649472973910478 39.057696413581226 0.8654061928818484
8.555927287641454 45.86010925568658 0.7598680896228986
8.576524696837017 45.95925344480795 0.80282728870288
8.537289971320092 45.88672564638979 0.7666176042804682
6.884327211662168 45.67079689968628 0.7783093785518252
6.896696989897648 45.713995930820495 0.7793239648915846
6.940534659075079 46.06879749330328 0.8159201573880903
6.927096954356247 46.07281219075073 0.8225686145204043
6.921662116419102 46.09196559154427 0.8375308213237733
8.715526496514698 46.25072001368875 0.904842203983882
8.759838266782852 46.35553462564756 0.9465958262819362
7.41831220556684 47.47988751995966 0.9450202427761673
6.911348041424128 46.1011084108031 0.8673288482026436
8.77066437522601 46.35711387446144 0.9701592739806308
8.781076166101817 46.40754516616106 0.9698060698974151
8.929400027272617 47.023111485802886 0.9529864355305405
8.952246519643463 47.1070731606203 0.9653626639487802
8.959689313166837 47.22476090585468 1.0027749231249241
8.98260991947336 47.304103426243785 1.017626626539059
8.819877627871616 47.14740352009331 0.9761704745027617
8.872047761483698 47.229164376802366 0.9919201423395009
8.934318200130933 47.31710637085515 1.0236590218316737
8.737033015584299 47.101324382204126 0.950272988990256
8.764003721818181 47.17254064378597 0.9782235544792806
8.707602129439405 47.14537743145672 0.9641929810545928
8.725578017765036 47.2494191848857 0.957650061365105
7.418621845908537 47.45048678146402 0.9499503601840338
7.3804872936221155 47.551638263046826 0.9860289569658217
7.503483085762226 47.66591292388824 1.0045920199117502
7.511793689715349 47.72248844222835 1.0262739209182723
7.282231041887536 47.53670506451849 1.023132827455397
7.372857796627233 47.617751055380324 0.9854550718979456
7.36739541115424 47.671035651781814 1.0021761957396416
7.278467630331528 47.71584945314921 0.9988694094376283
7.306058821075195 47.79715200223265 1.0210417689564777
7.550990751812776 47.89472601072312 1.0758646239733172
7.565746199778133 48.08478737888632 1.1350228955009807
7.241447747018332 47.20405694977264 1.1315393040189534
7.571253188786857 48.14049700092805 1.1621458570254666
7.241221959778796 47.16391960222375 1.178998205529352
9.520642527098484 55.69243900788609 -0.2437693449287329
9.581025440922755 55.65409094481253 -0.24331944475794254
9.674036543689118 55.886237367599946 -0.25084131193308734
7.767416476673947 49.53476525538828 -0.28472414435178844
7.8012670244137645 49.52994522926049 -0.2848659987605805
7.015476990754111 46.77086681618023 -0.23691868335527025
6.992472245491193 46.67514444331657 -0.22731662298884536
7.226380830981424 47.080039055907996 -0.26935790679438754
7.165610992928718 46.99606122495051 -0.2604196019455943
7.14213965025927 46.903149515445044 -0.2510216122811051
7.0991993075338256 46.80679044587682 -0.24112415247101057
7.318723251054466 47.06085578009501 -0.26860307071472395
6.879831563012273 45.81788211899186 -0.24506738168100217
6.855358565764883 45.73428538908062 -0.2338979535299515
6.831863054827339 45.648478305972944 -0.22246435425934516
11.016009176078505 56.474959383044364 -0.282296099715457
7.455627511504665 47.13098268557339 -0.2774844111983424
7.403573951275159 47.04183479732764 -0.26792120036762007
6.800548555892229 45.52981608069033 -0.2685804791016704
6.774896708425173 45.4473244296823 -0.28668861513227306
6.75369308973246 45.36111424663402 -0.2723732429024938
6.729116711696284 45.251976492293906 -0.25431041312504743
6.707125519897137 45.148489256976845 -0.23725180995470843
6.682670770850857 45.03918879869387 -0.24830441770766715
6.659157594744677 44.94754752788412 -0.2791806007291474
6.636067492506557 44.852917240101824 -0.26079112910457825
11.142784811539281 56.46120227491896 -0.2834102287862812
11.090829426250824 56.464330460200046 -0.282866629634203
6.63339662173975 44.82568785427034 -0.2553895196323052
6.611077258689469 44.75677458639665 -0.24233704689200045
6.586446068024432 44.65099162413645 -0.25589449565280986
6.5637747420983095 44.5617381683228 -0.26069195034848885
6.537490534339823 44.45454463473756 -0.25647122854599474
6.515327936625505 44.37031512013358 -0.25129827096057816
6.484802794569525 44.275803129468905 -0.2534304485278245
6.470031419170245 44.1672044670843 -0.2269860138351299
6.450843321429277 44.11742987467152 -0.2165287348222396
5.824353926235626 41.69849226147976 -0.258395594486148
5.823491690354997 41.68158674491514 -0.298380296634154
5.5608011412526945 40.66131682127614 -0.2421090156934709
5.533121542022181 40.56424694236311 -0.2557275061190205
5.534494348876785 40.538722301930875 -0.2586385971302653
5.51198849987262 40.46483761771421 -0.26916428653534263
5.485830829763365 40.36237296623729 -0.283416735643832
5.466067278522036 40.26647714356768 -0.29644248133766876
5.19617878730654 39.40062200025915 -0.28023005587348954
5.154817587376969 39.35269281892849 -0.28683020415808214
5.191400816365254 39.329891325461176 -0.2870976929387405
6.3510440415243705 41.39596473539922 -0.2748217056509455
6.3277657001857115 41.36987944662711 -0.28891964059921155
9.435972459432627 49.227892799470325 -0.29762403966464984
9.444861048631557 49.18610325012291 -0.29531400448939216
9.403372643438358 49.01599407675382 -0.2840275090504042
6.451657166519296 41.37125686629654 -0.2505154190837786
6.392977573785867 41.330008825135735 -0.29147738306878035
9.37170071216729 48.87417427269409 -0.2746712508451338
8.602000305983571 46.87541054947832 -0.2842419167470244
8.597178434345292 46.82385446832956 -0.27926111196667797
8.555699204137655 46.68182127411419 -0.2644944239182563
8.542087605466346 46.59181720320512 -0.2556262151046124
8.441867112336361 46.296338351551455 -0.22434999607337736
8.445882578530972 46.2429142021674 -0.2195852093375647
6.546305167659779 41.382176047146515 -0.2661155975570243
8.451222316326772 46.22333332947668 -0.21800996704929224
8.353434604731868 45.81517467049479 -0.2890778012645008
8.330706467184939 45.688252182782705 -0.272132208876329
6.592712058721773 41.31465376571421 -0.2632774720865887
6.589293117562375 41.279858133909336 -0.2876128630933414
8.395712968687436 45.66367740795766 -0.27298740996608956
8.491329418593727 45.64003144798457 -0.2760668265793313
8.56302068011163 45.62624293452832 -0.27906684386390895
8.53283725104322 45.50782682924767 -0.26301699311728743
8.51419487309728 45.42623080332006 -0.25213270829024964
8.480290477070149 45.31120282245053 -0.23629719237545824
8.461411616311958 45.22452585143876 -0.2248650169881955
8.435371095488023 45.12365179456736 -0.25727469322329366
8.413711931354964 45.03325245355481 -0.2893455712496118
8.397044536821939 44.97587486248226 -0.2795112790413345
8.390781834384942 44.935917350244495 -0.2731631439091474
8.363475395613957 44.837439408076484 -0.25648339611549137
8.338952882278399 44.734348472286385 -0.23948891340318768
8.330748911103452 44.60813404610499 -0.25455483509121396
8.306790912563956 44.58886954228741 -0.2159412727712442
7.117899301639909 41.38152739514853 -0.2489461414622352
8.4100310322976 44.58311307963501 -0.22590002364637474
8.085095268248676 43.67516040604508 -0.21725450538015836
7.21550249138833 41.392743622543364 -0.24873250436891323
7.163609036919007 41.37788940554174 -0.2508818499207445
8.507681076471517 44.563714985164694 -0.23392805136083128
7.35582267234725 41.42636268309259 -0.24695533932432484
7.300174679402047 41.409042072258686 -0.2482907143697455
8.58106821424454 44.53485590293219 -0.2384897049798211
8.595649253935584 44.459442124177734 -0.23071655321736087
8.571063125948296 44.33342881899608 -0.2876344749458101
7.425432019700416 41.4388512934193 -0.24853678397639012
8.639344512841316 44.43157851954771 -0.23249658683601676
8.583672788002797 44.30612887868291 -0.28558335831564036
8.521370216645208 44.06357188781714 -0.24260578882172545
7.556689087035144 41.612368920665276 -0.21832817632955123
7.5713324087653335 41.46114766221376 -0.2552770923849224
7.517580305706057 41.45067745828205 -0.25288433625856177
7.598248310501164 41.466797292823685 -0.2566020113982002
7.1444463542211425 40.048208708581726 -0.26921080685604115
7.136383713481604 39.98256555206515 -0.2784953142796808
7.127081368840458 39.94667947080851 -0.28351234085462856
7.107651291696935 39.87362182537795 -0.29376030037107137
7.037278463347327 39.57959910502251 -0.2159636216715267
7.012964942650609 39.48531524327425 -0.22595718416013924
6.98712444631904 39.37530444893017 -0.2376516124041782
6.960025779543129 39.278408698223544 -0.24795509380150374
6.931189493291208 39.15885794725038 -0.26070502811048113
6.90892847652551 39.076050197853846 -0.26953938411325795
6.884594401293795 38.97549640950537 -0.28029801291954975
6.856759363324976 38.81945505283061 -0.29701404635880724
5.0208137850823515 32.546812098595865 -0.2392838189410558
5.091922639737938 32.52509973433152 -0.23976065804525887
5.366815437012572 32.82745445946702 -0.22788119934964976
5.183704835689772 32.508225258263536 -0.24003887418317085
5.272279514094163 32.48059257643912 -0.2407412656600863
5.232940299491563 32.46501844443816 -0.24145914095775428
8.702639718245875 53.07293118667657 -0.16129877238960968
8.807817579777675 53.071460183419305 -0.16230489719777855
8.755541482237309 53.076315980221985 -0.16192008939189423
8.612280170160371 52.73114942440752 -0.15070680062400368
8.504695846012094 52.26642375586122 -0.13647227601608755
8.857709138268035 53.04232954681122 -0.16198947840930647
8.414430662449352 51.89605656373041 -0.1250746913426678
8.334138759784922 51.5785896313274 -0.11528808707521962
8.953521351535532 53.057283477427674 -0.16338970826173754
8.909701544218613 53.02068245088649 -0.1619115174246579
7.228868711707521 47.08579807088286 -0.12333439492805702
7.167892863411501 46.99960101048025 -0.11728333211333886
7.321733516113036 47.07308700006519 -0.12349007839096002
6.8806106181481494 45.83502975965325 -0.14398506208165662
6.855980547067718 45.74976984054225 -0.1355493352254181
6.8304421595221365 45.648146644938855 -0.12553147262688222
6.810684730421616 45.58265115496978 -0.11908869042774815
7.456970893330779 47.12294805422937 -0.1282222135007956
7.406814652709338 47.053813983185634 -0.12323568958080391
6.826521658079197 45.617931854027695 -0.12255243112237046
6.803671663503585 45.542524827882026 -0.1849570680060349
6.777188928004119 45.44032100940311 -0.19490866679300775
6.752831486519808 45.34399625145838 -0.1822372027546243
6.733092796320875 45.26375356819666 -0.1717324772130059
6.709808443556947 45.16730900741146 -0.15916638938435215
6.686828866910043 45.05977701202634 -0.14520078385374252
6.665227618338235 44.95382364806065 -0.17174035529323373
6.644542389772418 44.87073718508349 -0.1683119032885472
6.643055686724221 44.849006957348735 -0.14924723044532295
6.614001890401877 44.74996251496931 -0.17288858251396466
6.58700659213899 44.644800125371276 -0.16858465294656966
6.565966061481003 44.55853581930179 -0.1700406760289172
6.5410712016771075 44.46258956822704 -0.15312918192780575
6.5125390020935034 44.371812391920024 -0.16018780548652828
6.486145060140394 44.268835522588205 -0.17483243348121508
6.468357311729656 44.16858445979953 -0.15297063722503082
6.442421987168112 44.07644870226459 -0.16826184853802337
6.415343373490195 43.99858482770196 -0.18520984572090646
6.439896576941821 44.03790681258585 -0.15195760084545257
6.417282243273021 43.970210627564995 -0.15795574438425583
6.3936845713608195 43.879738786884104 -0.14568172021482817
6.365123535605398 43.787345486696665 -0.14437494100336978
6.3359675384597445 43.68569024131247 -0.13388691697261892
6.314006561356576 43.60668572079644 -0.12241707516116462
6.071730976622217 42.683087778483646 -0.1159070907048431
6.0571119043840955 42.61524334186482 -0.12379923066849069
6.033946245780098 42.51966607926369 -0.13699640409045064
6.008657224238285 42.41528355451964 -0.14507165910804268
5.985011505640071 42.322621013121285 -0.14752164556931532
5.960375391325084 42.24023385090351 -0.1589988817861826
10.058326173755141 52.76249462066461 -0.16732958787758753
5.955936670983893 42.205504973216065 -0.1657301581261369
5.942034193326112 42.160550229642524 -0.18043461270836547
10.123634534772425 52.73801545879112 -0.16743211545439785
5.96067960377808 41.817183541238954 -0.1920146194532039
5.587575317884733 40.7384150853464 -0.13709637514493847
5.562424131995446 40.657363574897396 -0.14571210847056718
5.5496444857234515 40.60164604276537 -0.15137978540985705
10.209947832702111 52.71372246741882 -0.167787357964044
5.539130785422997 40.55765394823564 -0.1558863849047135
5.517137269431661 40.47557924898127 -0.16446348611258443
5.495083882055901 40.3801776375708 -0.17426489012479923
5.478255305433276 40.289768278533856 -0.18335221532657528
5.194562224301496 39.400965089292164 -0.1395444870433241
5.149367698577653 39.34582686857391 -0.14455747923038922
10.155141954953447 52.375231483881876 -0.1576967774461631
10.185563585751176 52.30192120952501 -0.15603547891773006
6.31239506749754 42.21691648159543 -0.11594572707157241
5.186668075661699 39.32412357467762 -0.14461376212901367
10.148795295573407 52.0337165898075 -0.14814121128047092
10.055554786210388 51.66209034957042 -0.13666280516510873
9.974637224537569 51.33467130447541 -0.12659320240776845
6.456661323736472 42.100438620879494 -0.11380545019628599
6.441281496458726 42.05522903445523 -0.12528507010039863
6.396579546754524 41.52005035427452 -0.15583700634750922
6.337897694818072 41.46239547960161 -0.20633763949255737
6.451036039332186 41.47525686665101 -0.13647264842267492
6.453757643836206 41.413082437199606 -0.18107527494930253
8.60358275675459 46.87515977974114 -0.13478946863369368
8.597228065428576 46.819758607248936 -0.13128710445384792
8.54150827163757 46.623839423729656 -0.11808968636469623
6.563051149523062 41.42034150688405 -0.14720815474644122
6.552083169363492 41.397893542888404 -0.18614572597541518
8.439097426400856 46.163629069761534 -0.21201780762625533
8.416579276407646 46.066025433415724 -0.2021408426434813
8.394999993923062 45.97226191483039 -0.192661553201285
8.377087493140658 45.90404731792677 -0.18566396707171404
8.353257924556647 45.81220822483946 -0.17627839051467356
8.326691728122201 45.67716555124438 -0.16284923701403695
6.607403984362846 41.34175613798937 -0.17419929369787035
8.398039513529039 45.66603968581064 -0.16499213259784556
8.49239880193345 45.639880565685026 -0.1669958125478762
8.560143251930729 45.61919540243346 -0.16841535372097433
8.534299802252969 45.508609942397456 -0.15744118728075138
8.51162729323946 45.420145075741935 -0.1485851352087327
8.486588603808512 45.32010945232555 -0.13861829247067622
8.463792430822716 45.226859191528824 -0.12938720196557058
8.436715821706095 45.129293702031 -0.15645128574391223
8.416402897487298 45.04872314963731 -0.18315608458785634
8.404927594438186 44.98654861455178 -0.19333154348061865
8.382732477090109 44.92282874967946 -0.1844099282898723
8.363622865516145 44.836670444986694 -0.1732035350418916
8.340153558601969 44.74165632411473 -0.16071803385727004
8.329408698800268 44.61844495312576 -0.14621766460902366
7.118084403991904 41.38173428752619 -0.15832752229725985
8.40897453020796 44.58121137774626 -0.1486776699944482
8.064337992095933 43.64059595882503 -0.16714512445227864
8.042614545330112 43.564160874997185 -0.16578042854510225
8.02679770510154 43.48704771963814 -0.15195190573185147
7.991473393747131 43.348271435460035 -0.1464573259872909
7.212409490573277 41.385837626406186 -0.16429372252974583
7.159140317000262 41.37338035929841 -0.1685788115472023
8.512291181271442 44.568198610049315 -0.15613015877815975
7.995883164359757 43.33726274380807 -0.14624321574191845
7.978357367649157 43.27074605803036 -0.13429582760855402
7.965223406079654 43.21401444652697 -0.12516201686314748
7.298165173460678 41.38405909428297 -0.1661943928486189
8.584403649497517 44.537796753575854 -0.15941103817648766
8.594377232736088 44.45652642583113 -0.15219243610298244
8.532150823496965 44.24054154708202 -0.1254685861159823
7.69848029790808 42.18164966307862 -0.1159512243846557
7.6769385736895215 42.1039468900795 -0.12710182112710236
7.647327012454462 42.006918055693006 -0.1420096673102124
7.6173872961341225 41.9039368245514 -0.14435356494899673
7.594998645811513 41.81357312092509 -0.15356295489707739
7.563622629153807 41.71830789301443 -0.16932647693564762
7.549116982504267 41.65143473896366 -0.18271822379780212
7.4349135973917315 41.4145458356128 -0.16527742639372384
7.377405151358898 41.39980718034915 -0.17766471143875323
8.637079004630131 44.439529257145956 -0.15451893259906893
8.474885914605927 44.01165526100644 -0.16330419472945448
7.553674478847656 41.61175557966801 -0.1483067937226851
7.580800497886088 41.47461568423235 -0.1954721828686863
7.52594865688277 41.42918952750651 -0.17072958224325477
7.5984106358606915 41.447259093107924 -0.16951102485846592
7.58791540858347 41.43205172522784 -0.14638657010423797
7.14500693389042 40.02359425875052 -0.16914986585442218
7.135691420407132 39.99543015333111 -0.17208719082126794
6.57885399858209 38.66188679092135 -0.16333131351019614
6.514595190600753 38.63171783845453 -0.16576318710949448
6.480317992658393 38.4812422239655 -0.17667250133754603
6.447520165382418 38.350690532602655 -0.1861823084311096
7.121891648280405 39.932417813820756 -0.17871451194787455
7.102649625614795 39.83953619029071 -0.1885149573919904
7.08185315549979 39.770644076299156 -0.19574761497288154
7.060223555394635 39.673057781277194 -0.20607163044000723
6.966791385856344 39.31566124179042 -0.11628176529330969
6.944867857771605 39.20347140329359 -0.12429359625352779
6.78472193007746 38.82988646724422 -0.15090946667688815
6.673343523809261 38.622695641323034 -0.16588478103508825
6.915710712960977 39.09761933432984 -0.13182976730646784
6.864790482312294 38.85313356580292 -0.1493227808226009
6.820690833778935 38.8293759448205 -0.15096620874075398
6.733827324101998 38.622099845334446 -0.16585426025186348
6.017653637610111 35.464850892931594 -0.1302157980167786
5.891090991607438 34.95654923160629 -0.14902060342483753
5.822609052618955 34.685839996736625 -0.15901320589759052
5.743773707035858 34.36014316162736 -0.1710896082819408
5.6559801544701855 33.99149139240517 -0.18470714796679502
5.569293182086972 33.64699723946956 -0.19749995634798034
5.473849461138807 33.26358512765897 -0.2116832562797308
8.255569455960712 51.26283333821975 -0.10555823571183467
8.188365622045973 51.005850813426335 -0.09761795734289437
8.12767787086979 50.77617003169724 -0.09050832248105453
8.067546051732013 50.534144320195175 -0.08306371139382537
8.008534803317303 50.281852882400486 -0.07533156859006618
7.954505147145979 50.059004426268 -0.06849205780844547
7.903782717368335 49.85586280724132 -0.06223786795099538
7.769926660873108 49.527327284468996 -0.05165233523859202
7.802726583933704 49.513559976367205 -0.05156483697485407
7.677587379953236 49.08479837218899 -0.03821818106878837
7.047260925283494 46.78791330023893 -0.1028289758881121
7.01354857591557 46.77082084144541 -0.10149335553713482
7.144639648902265 46.91640833312067 -0.11179112514694928
7.101345723009825 46.80820990200984 -0.10455226435956062
6.878410403767962 45.814147619611916 -0.039982587932296844
6.853383222731259 45.740610575515696 -0.0352251847205523
6.830213251355298 45.65135558406217 -0.0294971817685757
6.81195650084867 45.58629370934271 -0.02532509636350776
6.7967841407858485 45.5202305049165 -0.057652275756629685
6.774684426643804 45.44348363788671 -0.0608220503031113
6.749686894451913 45.34718274310376 -0.0961118236811566
6.724544004457413 45.246210890067026 -0.08633785718005653
6.702016121343023 45.14732996633945 -0.07680802957810984
6.681489737611841 45.05400367766556 -0.06786065842058717
6.661995155248119 44.95349560025525 -0.058258829900075235
6.648057899500937 44.89284039730913 -0.05251556752949238
6.635746954208005 44.82530937628822 -0.06896049043348873
6.6138310181531175 44.750327869579095 -0.06578642910329885
6.587625116380659 44.64866758040583 -0.06436212022343758
6.565275684349811 44.562825172456854 -0.04986007238238455
6.544367200644439 44.468979190661 -0.0521980082816769
6.5110570669186245 44.36339316306111 -0.07752593767060126
6.492678698988009 44.261926167521 -0.06657155553344406
6.472067206583317 44.16771370629852 -0.05659803571558315
6.440156616652995 44.070780399386585 -0.0711456251513386
6.414366192235787 43.99036492721911 -0.06828818078023186
6.446985524859715 44.05191333761417 -0.02783998788880919
6.4153536505828015 43.96697592204754 -0.06543454881867912
6.387918603586156 43.878838237372456 -0.06491169998418361
6.362211648733854 43.77952305424188 -0.06725368683262642
6.3343567493737964 43.68513926962319 -0.05937371946286087
6.31455191141758 43.6187063586987 -0.05173264374007364
6.094293621876601 42.769157088185416 -0.10631741668564786
6.084557911628724 42.708298942763065 -0.07252492019276416
6.058436134759184 42.61519323609893 -0.06430496928623321
6.032579275465167 42.517550069375545 -0.05615367536253371
6.00912072392233 42.423815834391334 -0.06521739935675637
5.980472305642723 42.32200359400391 -0.055880215671474866
5.964802556465226 42.255407369014286 -0.06707874453317106
5.934273390361746 42.16608441435097 -0.07597962388359433
5.961479186118087 42.212517290699715 -0.06627026416637333
5.940628216379707 42.16715832389947 -0.09940210742380895
6.106893888144913 42.271542560816165 -0.10593071490604142
5.5881579211861006 40.7496987978245 -0.04327818043691079
5.5636965152459075 40.670219395839446 -0.04890724828384575
5.540599107248129 40.580587642138894 -0.05508157901046919
6.256719647970536 42.356847184877495 -0.07223787954177079
5.529574739105669 40.535567499674045 -0.058174103460720106
5.515871095781046 40.47589909586489 -0.0622367548072249
5.490179083597859 40.374579477844804 -0.0692677243598274
5.470589272802767 40.279299472060295 -0.07572076993293561
5.419989405239152 40.14931528849648 -0.08548640363453963
6.330260811867767 42.270094706925 -0.07772508485647729
6.332882080555342 42.2197361537798 -0.06111685318695224
9.816501619146447 50.79277933160275 -0.10959349498413246
9.764686976956273 50.558734929523986 -0.10247647718873445
6.486513376407115 42.12181638241694 -0.06435934590999785
6.331588204441519 41.532949823481744 -0.060752811324239375
9.700306655625056 50.297296457188665 -0.094418173922922
9.635669762450783 50.04216123271091 -0.08655847417512401
9.57798665031206 49.80999689531355 -0.07939686816287217
6.416545950240822 41.57518089698632 -0.04636424295031211
6.40034710680565 41.55982492056294 -0.04224103287264578
9.5245489722431 49.593150391545095 -0.07273951182295056
9.462587685530242 49.35812103405298 -0.06544820211159222
9.445947471195186 49.246850929270124 -0.06217591388939638
9.435431067218556 49.154622159994716 -0.05948345239468805
9.392215877238524 48.980576806206955 -0.05414169239358362
6.47220337584848 41.48838596404418 -0.051121418127999835
6.474083452558593 41.41485921169325 -0.050278850027000235
9.365381826071147 48.85162594624213 -0.050230199309897874
8.502364730914039 46.47277700141977 -0.10801841383274424
8.428698499764279 46.23005847942059 -0.09154560561041676
6.563816206533465 41.44165716876282 -0.049108930263751564
6.597006073227837 41.387700368201074 -0.08465165240149802
8.454946586696927 46.228726829889155 -0.0921759848518256
8.4061605847306 46.054196118163404 -0.08046296164637819
8.401152381909393 46.012871851086615 -0.07786038671898911
8.377314420779987 45.92956969261767 -0.0722687578726404
8.339272724227206 45.804524805001655 -0.06379822821166121
8.325909332396604 45.68558944160631 -0.05639128071006307
6.606850164141725 41.39303850878006 -0.026378816027736424
6.616976243316453 41.33577966221282 -0.05982679957409486
8.391632751177344 45.65092143588791 -0.05625443013142831
8.488697962946944 45.63087891935621 -0.05800537654787752
8.559546136260227 45.626970778880164 -0.05998663729756179
8.539863319563908 45.52729591706078 -0.05365734194338684
8.51354513209973 45.42183234467213 -0.04680662759014619
8.488766353485923 45.32207108389212 -0.040338335227970146
8.462606250258702 45.223537089924136 -0.03391510190865498
8.442062888155505 45.13919609590787 -0.02848583826989209
8.41621903787748 45.038473557626205 -0.059851713267380646
8.394874648390324 44.96420872421374 -0.046029874035937696
8.388806558222313 44.930452923381885 -0.07886369127485991
8.363270913988277 44.83506346877787 -0.09065111063098732
8.343128303558997 44.744775582717836 -0.08198125934616061
8.328061098814123 44.61578055290194 -0.07049664104412236
7.118495033017629 41.389314978229166 -0.04788250579246812
8.411089547396013 44.58301937079518 -0.07282217518778496
8.05864808739893 43.63580789622254 -0.05862032818992838
8.04537285189586 43.56894905204246 -0.06251132218171028
8.02399653444611 43.49224678092796 -0.07052933970366958
7.98175573597945 43.33606434877171 -0.10427797694875897
7.97106768348733 43.30497795475978 -0.09874236838692561
7.204233295715124 41.39966585452348 -0.04731292266873265
7.151089951074531 41.38731380369833 -0.058342886619333366
8.502001728226254 44.567427953172945 -0.07726081405855048
7.995738922755497 43.3339104828824 -0.07847893401578378
7.979667756016378 43.27730354514886 -0.07469547529716736
7.354340367378235 41.424329615455804 -0.02368182919842422
7.302280373218476 41.39995582227042 -0.05323762474183713
8.578873390894175 44.595361533505375 -0.08433898513130723
8.582500867679967 44.5310243762002 -0.07969030156694905
8.600956758319045 44.45309667607583 -0.07511934560557863
8.528757383904097 44.22367923286165 -0.05361304205850501
8.494857599235853 44.10364578826833 -0.04290948431449932
8.4759252497241 44.063795457083394 -0.03882680513694328
8.422975022389473 43.93499200636599 -0.08702360503828593
7.741331701401674 42.24837590320926 -0.1121038633894625
7.702282430805562 42.19545291110807 -0.07133023533516558
7.67408567908053 42.100826008776664 -0.06888620352400354
7.64868135520424 42.00782413810692 -0.06072538236171673
7.624750372463767 41.918394060055405 -0.062498742923491356
7.5985377540290076 41.81430886174456 -0.06179135854347374
7.562130478052328 41.72249697960524 -0.07363670660360726
7.546544789702456 41.64279067572048 -0.07085007902273875
7.428007447260126 41.428652835574766 -0.05205625888743658
7.371106789974345 41.412939167611455 -0.05871767836939621
8.644610307955647 44.43030179397155 -0.07643875557602473
8.571981052847057 44.24531287555703 -0.05822167445327304
8.511145200715319 44.10519770253374 -0.07096896465085974
8.499922680359152 44.03818626058225 -0.0389219354636082
8.454192096515788 43.96389461371164 -0.0927444514027043
7.553061475084862 41.6227096164603 -0.11215180306219083
7.571204885605452 41.467778174123744 -0.04610628870737523
7.517368950442031 41.446464818574555 -0.0616895668598705
7.596851056757603 41.455015990516955 -0.08640785023728892
7.145169262892549 40.01042158268743 -0.06729650331914173
7.135800514178278 39.98217158782365 -0.0692601210244158
6.512793350340429 38.623679950121684 -0.01393584925007155
