ply
format ascii 1.0
element vertex 836
property float x
property float y
property float z
end_header
12.133512707078319 63.02019617073537 -0.09020963725270967
11.352405879298432 60.81027143684711 -0.0823723596733643
12.24616905545644 63.001805717707676 -0.10752979480945042
11.40648944832528 60.78511727366693 -0.09603183598561525
11.428212637797161 60.72860096442419 -0.10583561093561888
12.343496103421936 62.974852886332975 -0.10576216128534831
11.501724779139405 60.739011294098155 -0.08559625649413911
11.440363207551503 60.70415338603092 -0.08819549756639583
12.438806429576516 62.94857497052994 -0.1032888090625342
11.590285004955119 60.72565486705408 -0.0873212152761161
11.598190809965995 60.63341634017847 -0.0971595610164321
12.537197084026552 62.922633036726424 -0.10355989275962141
11.614067871931233 60.63159234554902 -0.06073659122820184
12.63393855633823 62.89528006811855 -0.10588042039705296
12.77407665827322 62.902048157460406 -0.11838261217627517
12.720048754617409 62.87632801819422 -0.10651676185187749
12.848876344294895 62.88665778665226 -0.09664384501287726
12.796306389159879 62.87884723447857 -0.08912030886263658
12.942575428977255 62.86412830804547 -0.07492677677615414
13.03835344956912 62.83633716895437 -0.07797686666888244
13.137965736252362 62.810375796614004 -0.08513777044019437
12.322263024766242 60.58283131872019 -0.04998153399080267
13.297210465035405 62.82021964017482 -0.13081805220455905
13.228461201049262 62.791413286475105 -0.09116498986454866
12.413658386878144 60.592908133163135 -0.09051388527858863
12.35665834172117 60.5838888573241 -0.05088347276417456
13.318737692920884 62.81617880165502 -0.10963861715471197
12.495620814233371 60.57328375099754 -0.09676236089646169
12.590115689612135 60.54884897059948 -0.09619301659626917
13.759394942614014 63.30152666155482 -0.07563106669043111
12.693735325130882 60.52470063889172 -0.10113114600112263
13.813999492629607 63.25615883673078 -0.07736246304734587
13.845044032700992 63.20295816473854 -0.0771097385377341
13.797638651563506 63.04618266468848 -0.0659286273292585
13.779084759986022 62.998552869622486 -0.06225769355042331
13.628866550707693 62.70267563515934 -0.0802292133026419
13.633469464097333 62.668487153474196 -0.10824840225128621
12.791792903344078 60.505043299456204 -0.09236258476624361
13.854537135388314 63.1445664645844 -0.07503692993229696
13.871939807102917 63.05699154856619 -0.07833044473585127
13.831528372267034 62.96591341288624 -0.08558623778041202
13.78773148282972 62.910106360171554 -0.09995548642409517
13.681857396582963 62.672625468708056 -0.08780234093145647
13.70670449128773 62.62570675873561 -0.08366244180293522
12.920210972488942 60.48325338116999 -0.10775608377179598
12.888816681355646 60.48284840616805 -0.08142608804958197
13.819925879481051 62.611032608639306 -0.09126560955427508
13.780023863547571 62.609807401175985 -0.09556763493511246
13.001803463085967 60.45644399490969 -0.09614843852716795
12.958813309225778 60.4635279293536 -0.09118241873595304
13.911142700238416 62.586546198036004 -0.10186999279792715
13.086742153732875 60.43345969652647 -0.10968822971047576
13.996689793122306 62.56055552265198 -0.09465687714902042
13.18368691476724 60.406029465803286 -0.09100980415680623
14.097349280291153 62.53242766297281 -0.0831813166843158
13.277855860688467 60.38470973296525 -0.08073324902901355
14.19600293779821 62.50670426857992 -0.09202545327407563
13.380994614611438 60.35626309346283 -0.08845586568879417
14.296745127467384 62.48581132398584 -0.10135715910157987
13.483992956166706 60.33085059052484 -0.10000653337180924
14.388504568427127 62.46047842400136 -0.10986345385749473
13.55921344379304 60.32697231125065 -0.10643691914746052
14.486045407462205 62.43799058605476 -0.11912601838876477
13.671210292573177 60.29155529514013 -0.0889012322300658
14.601556180266677 62.41250791108203 -0.1302704208694517
14.563728198380092 62.420451075186485 -0.12659638985029048
13.795887171338691 60.2599950156455 -0.10164423080271057
13.75625541457525 60.266324747963985 -0.09783811585040589
14.68734659522915 62.38690913549551 -0.09669512435314193
13.86797112850798 60.23799180673236 -0.10933847601669593
14.776575759852125 62.36460706621186 -0.053826749686422454
13.973717252634074 60.21383056421766 -0.1089612995820645
14.870150314329004 62.34425465388455 -0.06019562665520656
14.068040613857764 60.19456306112453 -0.09324999173319978
14.959800520835168 62.314144447615725 -0.06633299791552233
14.919064553011541 62.22845321910612 -0.06357664111701229
14.898505754900217 62.13060493956816 -0.062355939006529956
14.911808043788863 62.06599689343944 -0.0634951023821552
14.169749163706118 60.17178361005958 -0.08997578995127066
15.028780519180339 62.03278969012439 -0.07175058814975582
14.987408380152662 62.04561093901907 -0.06881994553678163
14.273323805033709 60.14429699283336 -0.06409998545086874
15.0939226673659 62.017910343440214 -0.07635373317009334
14.358652149631222 60.122815104873936 -0.07025023127800874
15.180467147211367 62.000352759539155 -0.08247656318353029
14.457484889724775 60.100096294330235 -0.07730551462674175
15.240992578138268 61.99348958607085 -0.08673996334505621
14.577648992066647 60.06714265558605 -0.08613701776472357
14.536438359578005 60.07681378680592 -0.0831729963893086
15.370622379036313 61.95051427804281 -0.09606546952149117
14.646668657111602 60.05184220575978 -0.09107275787471608
15.463644777238432 61.888094045930515 -0.10300225741592084
14.748918828300939 60.02365613304379 -0.09862872221584967
15.581974705678377 61.87049033161885 -0.11144680618254224
14.849847470762413 59.999036568811896 -0.10597272857465029
15.690430056579872 61.856080604241576 -0.11918540136936473
14.93996174528289 59.97693542254187 -0.11254831478487823
15.051866271286253 59.950231026705794 -0.12070247070720505
15.175582097180861 59.912536594831664 -0.13005348590324772
15.241584766589309 59.89573924801053 -0.1349186588496402
15.335971896904722 59.870711726761186 -0.14192339715551974
16.055223192585224 59.68628291084349 -0.04656216959412561
16.11009140493323 59.67568025795346 -0.04863068979669309
17.056004144707657 61.824454725248685 -0.04685827307266106
16.252656847028412 59.63998134325104 -0.05418417528464582
16.18124437866014 59.65746389201028 -0.05141256091239521
17.109392807141024 61.78467316306596 -0.04922434306369518
17.128454283846153 61.760392567024745 -0.050192081737608134
16.34235594375075 59.61446034373031 -0.05774614725009691
17.24500354877184 61.74759135796003 -0.05448147231643063
16.40338905372113 59.60332117269661 -0.060037352523808984
17.34548852471462 61.73342766361128 -0.05822225735653215
16.484442181707326 59.58314376634386 -0.06319830921304874
17.43523522768118 61.70944329988392 -0.06170078776344365
16.60386722705947 59.555721067936126 -0.06780527168893678
17.524885912140753 61.684555276038076 -0.06518908767738676
17.62837445923166 61.658394171685714 -0.06918951533994666
16.797028461635797 59.504868690668204 -0.07539556517322651
17.747736739580297 61.63097780858464 -0.07377168647976663
16.93419960976452 59.471308037271 -0.08073471275204529
17.827924710940366 61.61205375333654 -0.07685658268295517
17.042004752103132 59.4432239516916 -0.08497093415885021
17.89200620065207 61.59286556817681 -0.07937666433748712
18.012034354394764 61.564069878619456 -0.08400580508922348
17.14459937667218 59.41843256673268 -0.08895872747568913
18.14391144875288 61.53366982398639 -0.08907935206045384
17.26939596158599 59.38462928491528 -0.09389113132712257
18.2276967433499 61.51180321955235 -0.09233901426500447
17.38350370708445 59.356572729993566 -0.0983388299369272
18.301460155663072 61.48956859155766 -0.09524652596935426
17.48864906712091 59.33304111459968 -0.10239719037984246
18.397080454825684 61.466883691325314 -0.09893963394937336
17.60325721920234 59.306509527705714 -0.10683344551018244
18.490668908009468 61.44400118175318 -0.10256311610101335
18.596130112580205 61.420874596392146 -0.10661432641402804
17.747589728661794 59.26826250968873 -0.11252568833132212
18.707524544615513 61.39602137965496 -0.11089918830674833
17.892200906601214 59.23097525097415 -0.1182029150809759
18.790796505584332 61.370959419594925 -0.11419079468954368
18.89797558204945 61.34396266182806 -0.11835763733816135
18.038835202546817 59.19343081036446 -0.12396215401958464
19.006988000920543 61.316099650616195 -0.12260387322050109
18.171097495539797 59.16327471207529 -0.1290779047997798
19.117945812014057 61.2878506881488 -0.12692544911518477
18.325979656601028 59.125190412079135 -0.1351327827071669
19.244749431936516 61.25885685110617 -0.13182185130507892
18.496097474348673 59.082461663613834 -0.14179443971234776
19.3535000543298 61.22960663406759 -0.13608191767188865
19.470081413145365 61.19944009461028 -0.1406345225293067
11.11475714540528 63.316652583743924 -0.0155061731040053
11.088265538206839 63.26540610725631 -0.013434794302713939
11.066718454855415 63.16758967452093 -0.008715059270334311
11.04431856717625 63.093064853176614 -0.005520012595080576
10.927727969683433 62.902970869263804 -0.000896123953177036
10.887341917762138 62.8107612764715 0.0013724270398672717
10.866605197395574 62.714372612264505 0.0043765010137176985
10.842672078211963 62.61414482226559 0.006975501139136638
10.816068910661302 62.51660320170703 0.008895723144830763
10.786934708097723 62.42524658109742 0.010021059751648239
10.751230570742296 62.31948924859116 0.010646907650341219
10.732831845866599 62.262487343096595 0.010792817804179174
11.182083223012409 63.29847643758332 -0.012377885887290984
11.04526553307107 63.06555863476154 -0.0040270352920605094
11.017980559771168 62.97557023903514 -0.00048771273842780627
11.006491335175111 62.91547922730398 0.0020175903201498126
10.813515761891408 62.468821167418945 0.010290471114047756
10.784990126103358 62.391158854978194 0.010873405306743671
10.762455408456258 62.32200430201707 0.011269893833716144
10.729883939104328 62.222946549280806 0.011384096031691372
10.712164923355742 62.12865579281671 0.008653250311905506
10.685141528144058 62.03279458513703 0.005210484745037509
10.659358948098388 61.93638654838545 0.010169589801447613
10.625159362198941 61.83951403308166 0.008008086948991928
10.605096122736894 61.77466331796495 0.006484113719575527
11.274842770603756 63.27467298981658 -0.008286860067565495
10.665100897306376 61.710355190302906 0.01032575230262298
10.659723655956858 61.62909122673344 0.009202323345265922
11.367658697527471 63.24058616548806 -0.0037650159363050682
10.599041908204818 61.07746646857031 -0.00919048246219608
10.426419731798768 60.69357371412409 -0.03773443459812166
10.40660317025753 60.64549202202192 -0.00328604827076338
10.37448944775261 60.54722672681492 0.0265031596610734
10.35601345544177 60.458281018944824 0.022477700231502997
10.33264382332103 60.38040234390207 0.018663479464939462
11.467198540310923 63.20375816617523 0.0008829535632665017
10.889876603211693 61.58458021286342 0.024906238733428916
10.638048175695658 61.05456277265428 0.019032077496262848
10.629920185913067 60.97835149618021 0.01923091701914367
10.603021873013551 60.881919630892405 0.016793802264252127
10.579433533163566 60.80037587078885 0.007751540091345554
10.347430308198302 60.40796547432509 0.020207240296826603
10.323567228956396 60.33202472403275 0.016405894970834275
10.299782072684115 60.247942848688794 0.012199233596870671
10.28022176887492 60.157557471911105 0.007756779041223214
10.254523368563252 60.06335988129218 0.0029044843296624698
10.23151626869245 59.984409220397104 -0.0012563977343707823
11.564904846328066 63.17191505229027 0.004920332422031663
11.660951478061339 63.15211314264368 0.00783285313547168
11.764076130700094 63.11984233833657 -0.0019342035394171765
11.150166122868864 61.528470343197625 0.003905611231802584
11.143301867619245 61.45543129557211 -0.0006586741155298996
9.57754241459244 57.32576977044684 0.020684528926436515
11.855743856003242 63.100014288078384 -0.01428857764313296
11.239008185497612 61.43232004272835 0.013555840819137872
9.645942321511908 57.30253340373086 0.019516751791333015
11.918695758185175 63.112325148608704 0.012923802353379841
11.956967553762627 63.083538696692386 -0.013766681979137326
11.284049654636313 61.37905549379452 -0.00181262188306381
11.28132793533619 61.299945761499565 0.011594846240150909
9.74182727971941 57.275289764288125 0.017997316529938353
12.096010581630287 63.0472013218382 0.017296875894758087
12.049847641146705 63.05126760738961 -0.009028112455026095
9.789738354579438 57.21828942375695 0.015977189991967244
9.769601110472674 57.12977281037428 0.013579650964973673
9.772060751413155 57.04095966573874 0.010994959000330321
9.777567169197344 56.95653477560155 0.008507060852059916
12.1603305834067 63.026615512315914 0.000434481338835193
12.13569341646296 63.02515035741241 -0.019836818066576115
11.349056014967694 60.81823721254984 0.004266092995167604
9.7551224859356 56.8755691635359 0.0063319590237975835
9.733344185119618 56.794285903200006 0.004164974407595213
9.71290084942775 56.7146708835621 0.002009436560240503
9.694045027787418 56.63651875802032 -9.36562501198529e-05
9.618262220013978 56.424743256086934 -0.0056218714791266625
9.613208856130962 56.34763381186771 -0.007837732507432436
12.248167587268258 63.001735836060064 -0.002352392704853129
12.24243082650799 62.98003950430007 -0.02886334808146159
11.41101219432249 60.796507517211914 0.0039768896639816274
12.343393893854751 62.97260586446907 -0.005817093716775988
11.48676245707121 60.74643093314014 0.006061144778042923
11.451251585789333 60.717287959593094 -0.004224470182592945
12.441501849645208 62.947956004002734 -0.004934706660898538
11.594058050174512 60.72324849102463 0.008687799133001616
11.604650773363966 60.628881672555146 -0.0005685634270426974
12.53714446150988 62.92091181701488 -0.006857315973525804
11.613742680579152 60.637009395561456 -0.01960938620626253
12.632812451907007 62.89431927716954 -0.007787626592338247
12.769140215820338 62.90486188765144 -0.004927795875788107
12.714970624953896 62.87437340190161 -0.016757410816013514
12.847212832456002 62.88780875569256 -0.013298434511302644
12.801641291422603 62.87518405114072 -0.03922621506507704
12.936351067217634 62.8726719397841 0.016491491584711065
13.04838569531855 62.837942097977475 0.014991836219592169
13.140359898758279 62.812754672603944 0.01935155480234602
13.258340519783488 62.82886638672962 -0.0034820284868738276
13.238246504436205 62.79625468478258 0.02726180652488514
12.431441769147364 60.584075375418024 0.019659817059143995
13.312134300951463 62.84636651852732 -0.01926343310067687
12.496074488830015 60.57190492536823 0.014606535382376714
12.59338510649358 60.55039726017331 0.006886538518457979
13.774704644793795 63.29717796492324 0.003498628313078244
12.691985373972642 60.52809647679334 -0.0008048440154303955
13.81295988861298 63.2560559719532 0.0025625970043025685
13.844906442120276 63.20389233067567 0.0021353510050157315
13.79453481598508 63.071150718426615 0.007848811551511212
13.76087562856355 63.022788295820455 0.010740827111463357
13.690611346818214 62.893748957862435 0.013583492212704187
13.667787005207455 62.820337241227634 0.016524624440375408
13.629948614025981 62.7087739007565 -0.004588533451689369
13.662784349690813 62.65548417394286 0.015698500306257652
12.7899113800191 60.50458527092895 0.016765412481415252
13.861775375934261 63.15365721039652 0.0024009456461951267
13.689725691253164 62.68056432947598 0.008302518658222274
13.725635512218258 62.62206353720114 0.012509893368740598
12.881012179226714 60.49794991857823 0.030505713619070406
12.887789517017358 60.47918350785256 0.002672727627373247
13.829696217390355 62.60141362131249 0.006480282929132716
13.788462782894078 62.606028772968884 0.008950539762412401
13.011750115010505 60.45156639806552 -0.004616443203799055
12.975040711427905 60.45468363540093 0.002624565216131844
13.914999219797831 62.589429520458154 0.0013411717632208046
13.084663660889664 60.42928672675768 -0.004626458429866493
13.053183531859618 60.429416378625724 -0.006038136086952823
14.006271338976937 62.55834800702114 -0.004021340185640293
13.173724280048264 60.405805066374256 -0.014767117872276575
14.10054084230306 62.53172863786822 -0.009763176426008397
13.275315345510936 60.37871655373388 0.004530482579967604
14.200406422716538 62.50649530244963 -0.01600235331471435
13.37816912749124 60.355022116275016 0.011403130874547262
14.300214918839178 62.4780205119598 -0.013398345270009621
13.47636411460984 60.32910242976786 0.02325849557586986
14.398069144473629 62.458793191617744 0.01487833713577975
13.568120328258475 60.319423659889786 0.013777307957840431
14.488486114966623 62.432991836088775 0.004293504540009849
13.680198000196762 60.284710477479656 0.013734388674207714
14.612027709472741 62.40908064796942 0.016030611566019978
14.572606303979136 62.41447443405341 -0.003132042338150752
13.791938177711126 60.26150183858837 0.012572337358370256
13.75713124013789 60.2626072364813 0.011963651249590767
14.69360967256868 62.38778548040733 0.04230409752779922
13.871150781805223 60.239197756464 -0.005061103866363954
13.817334103872085 60.245901129877474 -0.032266811269019924
14.789563109707967 62.36619852044335 0.038781466195588504
13.964301244706311 60.21663234039694 0.0036266338584101006
14.879886033960881 62.34460165495446 0.03543406376443661
14.056143370515647 60.199486551154365 0.030849741126544605
14.95993685150155 62.316705574323116 0.03237920853537063
14.914140977508803 62.23470273924224 0.033207232008021656
14.889314364019194 62.135867270310804 0.03309827824956717
14.898265597483775 62.0658072975491 0.032060678634733206
14.162496463012223 60.1759206120939 0.026880307436307743
14.979233197273691 62.03180772188793 0.028886608241728094
14.254585219312242 60.15651114785147 0.02345637924422316
15.079217331990977 62.002969569284254 0.025085022880205674
14.355409386109406 60.12404324605467 0.019436877042915083
15.192081513375694 61.97340891890573 0.020809222524030443
15.140304112187543 61.98695366643693 0.022771174751080498
14.45603089093235 60.10004164918239 0.015612167789699049
15.268889978992423 61.962533246375806 0.017984207957989943
14.564187509957367 60.07475032618488 0.011504210712336215
14.52543078063302 60.08284873310882 0.012954749369163177
15.347566255901482 61.93965809445252 0.014967969661824312
15.369888903992843 61.892554838360915 0.013679077059606592
14.664449887824603 60.04538958187882 0.007554094755227416
15.473280758857422 61.86366940437781 0.009707024200242772
15.430378576929911 61.87102676381135 0.01130442655053943
14.763130292995724 60.01965040474107 0.003733199068228492
15.566420540664325 61.85463092732602 0.00630669771677864
14.841346721957585 60.00284594227042 0.0007806217667268994
15.669515503227064 61.845572449770586 0.002552077853018732
14.955895340453221 59.972659529882684 -0.0036732776673111672
15.72234110304693 61.83756668724442 0.0005925146857311998
15.056033298143303 59.9528580552681 -0.007426707579345767
15.172104587377305 59.91303211771229 -0.012152639511157559
15.232970319118191 59.89905763557138 -0.014480557638821164
15.324849561456434 59.87529114775833 -0.0180563566688324
15.448881409862262 59.844094236405844 -0.02286908057072012
15.403894456998314 59.853317668798425 -0.021166293338326758
15.523988239560026 59.825710838351796 -0.025773258369138036
15.639534206196888 59.794308180963235 -0.030312505774822973
15.728874988805051 59.77129312115666 -0.03379651883435685
15.801492476822107 59.75750259587703 -0.03652713170691116
15.904681549773468 59.72910179372657 -0.04059598585303995
16.869361305546036 61.911471514635835 -0.03923317129519165
15.973652964045598 59.71071187748238 -0.04330083803357131
16.96694987396216 61.87767257865363 -0.04308005299037748
35.425577751519306 55.44696443023206 0.04127583034652796
35.41212404520559 55.36503015667553 0.04056319747694698
37.307166781056345 56.23787483736069 0.04652484570854755
37.316084679849254 56.14569012587323 0.045628618226392026
37.316540118184555 56.05388101081032 0.044779367969280254
37.28139255443566 55.969072623811904 0.044005481293371035
37.285597949285126 55.87854679687752 0.043174573542896666
37.22949279112227 55.70640456240505 0.04164608467537184
37.273690127913284 55.790476736252955 0.042357012442862996
37.86584900683458 55.45972575739923 0.038719249363499034
37.89174936835007 55.177271515258305 0.036159372927908814
37.95820287255826 55.347502559939784 0.03761962346147976
37.92555678347934 55.264013655608416 0.03688388887261829
37.88461577077112 55.08293870234359 0.03530935946359641
37.850197621740385 54.99642282903267 0.03459814295473154
37.83468059798916 54.90424260453717 0.033787294924353145
11.121751780363475 63.31472770050289 0.05782088913271201
11.097208584283885 63.267794778750286 0.09481248870448207
11.06716052525783 63.1688335814004 0.09288224940561571
11.04196423510972 63.086007919570015 0.09131941631640628
11.00008545187986 62.9667896710511 0.0651780090818448
10.929885516299377 62.90364945178082 0.10056266334379434
10.902475066757821 62.80274085452552 0.09895429168857642
10.876798702201196 62.70483514428271 0.09837350210962655
10.846088116655176 62.61049284447734 0.10067758298988967
10.815975278880462 62.514100544393436 0.09977373641591432
10.788456696905419 62.42578953913114 0.09842309201062409
10.7603883814538 62.34285273410128 0.10925540311918276
10.735174459532333 62.27446686092053 0.06965431273154606
11.183082925069117 63.295297486464804 0.0906911850583859
11.160128239104708 63.290312953497114 0.1303802480650228
11.081321582949865 63.15669338713496 0.1308260921409317
11.039648559253033 63.05524884418608 0.10042414252616476
11.020562120605712 62.97559418658083 0.10248527333277978
11.001204440365662 62.917866764131034 0.09050902740193204
10.789535887618639 62.3981697344818 0.10303744785123299
10.763520722977693 62.31586267359152 0.0974067098700936
10.739295231980496 62.2200253478512 0.09996422591482275
10.715418923070027 62.124718156530804 0.09842809531104622
10.683747662632765 62.030040967501385 0.09827908319218655
10.660436569751093 61.932983824088765 0.0949343118063371
10.62580748468377 61.840623709744776 0.0960751385062565
10.602859099796389 61.77753188294667 0.09416755414616307
11.27929414272416 63.273380604260545 0.09681281618427724
10.662779795967023 61.70871348051729 0.09548386465135902
10.656468761129254 61.63015914939588 0.0922859537367455
11.3748149820196 63.241352918869794 0.09402522844856422
10.701563601328722 61.59162699837992 0.06642922136266848
10.421594900503516 60.68937272550023 0.10451657699704393
10.40369047010731 60.636404999114504 0.10340078115349445
10.377008411836954 60.534666292819225 0.10122044626147629
10.353471921219448 60.4376387136509 0.09909660956877894
10.324832349406604 60.35085176410773 0.09717328799522534
11.471456329300251 63.202397228530835 0.0976456076086727
10.652146325699832 61.048516213230364 0.11166293908960327
10.6311551730246 60.98421914986015 0.11042173159477818
10.603827436447995 60.884436710402 0.10844214493617356
10.580077684886891 60.79751674769144 0.10666759312769196
10.32937641398987 60.34804764478586 0.0971029532470991
10.304978151041755 60.2501320510626 0.09488494230885665
10.283486410497598 60.15332681463687 0.09265334615763574
10.25228889769729 60.05470265099868 0.0903728713464175
10.23800176526586 59.99375261223982 0.08893687561369029
11.567864157406127 63.177176205676176 0.09414848542081604
11.66243163335038 63.14853472390404 0.10027846966913005
11.088339044692344 61.58233365503118 0.10077627169298832
11.758599689292732 63.11770001006975 0.09674844240373821
11.153707310803874 61.52621596256567 0.10063560574503201
11.151293304726016 61.456128785733156 0.09962256551676983
11.859528407555528 63.104656095194116 0.09477123391541657
11.229003588639891 61.452237469577014 0.15557297058601438
11.234528186666834 61.432285581845974 0.11709887678007115
11.959363554333693 63.09895305978475 0.12279089760016172
11.956322724403213 63.09003353096365 0.1192255858750393
11.274410400272679 61.40446639239337 0.11838205005136417
11.277247834000551 61.28178784683682 0.11194999390665784
12.081459428005708 63.05086253029239 0.09529003003252115
12.05802477726979 63.05049408373083 0.10938485765716323
11.27678133604114 60.919785497153555 0.14968140290740403
12.160849012385514 63.02503181476943 0.0963507511384101
12.141157143858475 63.018123057597876 0.09640463608095402
11.305647428230532 60.90212986338758 0.1487138918892135
11.339269048190499 60.83177088202126 0.11160236751998513
12.249318159963035 62.99495082564303 0.0954612136573014
12.2161990973779 62.99346055796604 0.07969649951592335
11.408790222418785 60.798185096246286 0.10445911320905711
12.342152625640669 62.96916103727788 0.09296234373509822
11.483785321566582 60.7396467527433 0.10642033887280379
11.455944774258679 60.71049905830218 0.09972936244578719
12.43900703630189 62.94589111785298 0.09214171159698965
11.593354231055498 60.71725339998802 0.10076886566948993
12.536211175211482 62.920670386822536 0.08994325253523106
11.63087293250384 60.667418702469845 0.1389067810465584
11.617212496453753 60.62271431757274 0.10191303711964499
12.632991383853485 62.893686249702306 0.0869885273635248
12.770773300328349 62.913612678500925 0.08068068752254783
12.707152259026246 62.883479590313534 0.09014018203249086
12.847013186643897 62.893094828022114 0.08281453292179133
12.95070127750172 62.862803171063774 0.11949928363215469
13.041561440751838 62.840484752462096 0.12986023612763004
13.139095157854303 62.81965787225289 0.12571223527186165
13.272906237296331 62.83334185020571 0.13001163433215968
13.225343700553097 62.80036205943905 0.12094696231724099
12.439134573073732 60.579368884957915 0.08713656811631891
13.323951604741769 62.86743388288778 0.15317733825735447
12.494526240466483 60.5724806259571 0.10351568911191654
12.590606512198192 60.55080907683299 0.10272007363381476
13.756160039888346 63.29248356359705 0.08373840075100537
12.691970906429665 60.5279194508391 0.09758359219727199
13.801822810133345 63.263987406679135 0.08243115208326143
13.806819030349047 63.205752559537004 0.08219749933074033
13.778651450342803 63.09966142787519 0.08280022638925169
13.729840178291969 63.00588504909632 0.11945421915282008
13.680570971525174 62.901398092831826 0.11359437106112467
13.674187290092801 62.833416097052044 0.11828118981072415
13.63696333249611 62.703509988966246 0.11428123967875863
13.609753771956749 62.676914300024414 0.14190323749326325
12.794311278488323 60.50755508632891 0.09671478886971235
13.694398634189936 62.66596580212221 0.09825664994649816
13.709176524549575 62.621742308085665 0.114048552696446
12.924584908897376 60.48153348583002 0.11691742503552617
12.889151403354271 60.48354351123331 0.09356885213711083
13.830251729190415 62.609224034596195 0.09860259917881153
13.784701140796589 62.60906420800065 0.12331492465137216
12.998197838394358 60.45832625172695 0.1045117841212324
12.972785276423721 60.45690482373321 0.08170657577743796
13.906841108498186 62.58762110174881 0.10445816020141353
13.08550029889794 60.43529818498066 0.09202461130101794
13.033563997737017 60.43642280477299 0.06802373717858504
14.001698630980368 62.56117324851187 0.1006475133988212
13.1833802388571 60.40823215229631 0.08895187375488234
14.099560183342012 62.532165212364596 0.10216289522937731
13.280202755853193 60.38349858307136 0.08438044363372851
14.195023437710411 62.50549652992635 0.09596735222610496
13.371747466519423 60.36234248616519 0.09458451346612687
14.28913976946921 62.48094691791881 0.09880691824524984
13.48770883505994 60.335687084286405 0.11298066012799436
14.399696135862385 62.454690023659296 0.13453465571551662
13.565127465453271 60.32744757258344 0.11254720405263664
14.495092257066638 62.43092654253752 0.13385993537806698
13.71401080543887 60.28853181722204 0.11172824234494987
13.661831331449084 60.299428764459655 0.11200528235759831
14.626357452284235 62.401287103389315 0.13302093325659384
14.576762338967146 62.41131682788918 0.13331538860142253
13.768197385904031 60.27371461728938 0.11144094115831248
14.683248940203784 62.38771590656002 0.13266259028235078
13.85773233819509 60.25027738592063 0.1109793667586403
14.781463179884007 62.362285369829024 0.1320081411676882
13.959720069416166 60.22528742988268 0.11047320632651246
14.889889397038164 62.33607449851711 0.13134127463258963
14.057658187238774 60.203862102042834 0.11000828350629195
14.984549720241912 62.31175198383379 0.13074689091958547
14.160232483934875 60.177905574660976 0.1095259579395468
15.079519218348317 62.290219055666206 0.13021832429483815
14.252279094001139 60.1585887332036 0.10911564181359483
15.181837880689567 62.26786173346417 0.1296725809060787
14.349421531493615 60.13390152310232 0.10867838258807215
15.268641807270495 62.243762546327694 0.12912922510364405
14.489491019987891 60.100745847002585 0.10807232319244793
14.444103392378773 60.10813833012654 0.10825376500335097
15.366934001221342 62.2205258186971 0.12859564960564066
14.556894147904545 60.07976541800486 0.10776571245693313
15.466665400025853 62.19472712424288 0.12802582304532636
14.639803201286096 60.06115570720943 0.10742239755394646
15.57795015224712 62.16904153000364 0.12750249202997171
14.741646557009545 60.03313384593196 0.10698464778845058
15.67134195185208 62.142625887417516 0.12701493393278654
14.846274954957238 60.00647218786718 0.1065504952046935
15.77015239938645 62.121239272930445 0.126607470406897
14.956861990071854 59.978701472344035 0.10609845031520311
15.866969371392116 62.09142043550612 0.12608127641807454
15.064547442176401 59.954603977994196 0.10567858926508307
15.91462269196109 62.06575430636799 0.12565998866220107
15.173861971060049 59.91899526665222 0.10520318893544255
16.094777849173507 62.076680504195124 0.12569170586499048
15.236456039565814 59.90397603766606 0.10496047437398608
16.193800172747384 62.0756947325194 0.12560801551173492
15.341578385949138 59.87310949712353 0.10452559963876006
16.26679598428017 62.056444369816525 0.12527016738422783
15.432080091163689 59.85338187491109 0.10418800263812668
16.38579827898501 62.02677998955687 0.1247532770652477
15.54095013803847 59.82384092145523 0.10375622083831292
16.442178719664586 61.989028671602995 0.12416629204984898
15.624465627102332 59.80226227599443 0.10343387163727145
16.537750344729247 61.96081417032708 0.12369827746854974
15.708500599403337 59.78190639204506 0.10311606062067917
16.634475378598168 61.94647000643353 0.12343196782761494
15.831518809790579 59.75022617260549 0.10264542234721331
16.753057711130865 61.93288710006408 0.12316278485554351
15.926838297926732 59.72611139149544 0.1022842181553207
16.82974476875586 61.91495353751801 0.12286070879918247
16.02232103183882 59.70263922858053 0.10193111449882193
16.94040450201219 61.88245186786167 0.12233810148057915
16.12528010899996 59.676470838759066 0.10154726553293562
17.05982238664921 61.8230228751646 0.12144497920148976
16.205532594746177 59.65403535067137 0.1012339856384049
17.1044766185254 61.78269397018131 0.12086871247284316
17.121176746580264 61.766807444663925 0.12064293524584392
16.307610887679353 59.631101273625454 0.10087397538595465
17.195845624442665 61.75284003757729 0.12041119460020396
16.420863005273915 59.603990823926466 0.10046722013236352
17.342706446471567 61.731572472906336 0.12003807148258312
16.503837236313778 59.58312319939163 0.10016037881841021
17.439497458636424 61.70793373549852 0.1196654218882476
16.598089428999195 59.55828800233233 0.09981277140089657
17.503989652307673 61.69160722662929 0.11941149606961345
16.681650242909804 59.53896826016043 0.09951593968452037
17.61758317115615 61.666043933970684 0.11900713702118011
16.764913925981517 59.51923366152094 0.09922457880403203
17.71907370433007 61.63875692708876 0.11858967815653411
16.851960764446368 59.49819996534143 0.09891202077075635
17.79735218120237 61.61978248826669 0.11829688808426202
16.961500640617096 59.468905377417535 0.09851005133728348
17.9155797708761 61.59111600773202 0.11785558251054871
17.071289499395686 59.44024050254944 0.09810544037573342
18.029675859718566 61.562354472612576 0.11741808476875447
17.1831946781505 59.41167611658769 0.09770561752609193
18.109683253860048 61.54261470955453 0.11711838841182363
17.28982650717207 59.386091506668556 0.0973289185095928
18.197566272681552 61.52097917165211 0.11679056327329627
17.39672598009402 59.36139063143983 0.09696603671871114
18.285415119492445 61.49853737780243 0.11645415603780625
17.5222446652183 59.32944625690817 0.09651399526166186
18.381139152577692 61.4760612191564 0.11611345247674347
18.464823092570427 61.45297094320823 0.11577345924233252
17.65545726385924 59.29543167421084 0.0960428820445915
18.556398842699696 61.4303830797031 0.11543609817177476
17.77785780454475 59.26675406462388 0.09562039615768657
18.655929739420873 61.406733160224746 0.11508204593526268
17.915156497586064 59.23252718388522 0.09514284722803569
18.767296987662267 61.38119969477304 0.11469866631343424
18.880602604124995 61.354582043586255 0.11430146701481002
18.052713586574786 59.199009399304316 0.09466267841535396
18.979747983163215 61.32731214561009 0.11390687536829135
18.21491416738461 59.157366301035424 0.09409284451393299
19.08681376593283 61.29884674961397 0.11349346834219863
19.20975985045118 61.27032087915839 0.11307170060526829
18.381160468345037 59.115176092118766 0.09350467027860564
19.330628125404917 61.2408110648734 0.11263944575237671
18.55153561976611 59.07285418952769 0.09291887907016388
19.449339877336012 61.21080362426232 0.11220504284533832
19.58394270755201 61.1788734530273 0.11173773934165158
18.72410176218191 59.030764401368536 0.09232259271333444
19.690381445681567 61.14720343996557 0.11129403461854835
18.90432457419967 58.98662214091728 0.09171008935970797
19.83465233981715 61.112277400952664 0.11078763801657678
19.98272824033895 61.0763329519024 0.11027003420172717
19.099812533531555 58.93771474339619 0.0910301238178062
20.14863431769096 61.03788910512726 0.10971094269698255
19.305325528990835 58.887388160893956 0.09033440720672858
20.29238825787045 61.00007793621179 0.10917735517154105
20.291329335104876 60.9575164684217 0.1086812137539442
20.290972138928655 60.9014897879947 0.1080336667764077
20.256455084117018 60.834848356487875 0.10729433424720071
20.237095247265795 60.73691058722476 0.10620476397840374
20.2179260002992 60.64215201458796 0.10516907046460945
20.18797122251231 60.56048802502677 0.10430098573020895
19.51685644664768 58.836155236664894 0.08961365465190844
20.241505164691382 60.496037343511844 0.10357023432270217
19.850921116872335 59.24226690128681 0.0921986168127114
19.838942905893493 59.2169045549778 0.0920152704903221
19.837960606455827 59.160117526410275 0.09156155188825535
19.81081333396063 59.08228994519748 0.09099197366088133
19.78743515285773 58.98717506860869 0.0902981622674575
19.760879932771736 58.87916877186428 0.08953404401399118
19.72995990733818 58.80107901356285 0.08901547056615072
20.465607552838428 60.4366460677848 0.10276723032468806
25.722078054904024 59.669873325813846 0.09066839528113602
26.218495495211002 59.55220277193965 0.08904140805936556
26.53805616155098 59.42943042232476 0.0875090986654153
26.513578702572293 59.32870709982157 0.0864805596428837
26.478731311378183 59.231078397527305 0.08550424749064751
26.461067619170343 59.131438086989924 0.08450501498521582
26.436027585084464 59.00996341091443 0.08330673659334156
26.100334570481316 57.699369074517705 0.07155506558076066
26.090823217657153 57.6505573890855 0.07114451031028442
26.05822644961784 57.553856648953015 0.07038278147859559
26.058331549257307 57.452214882095674 0.06953495462214045
31.071690279493662 58.007069713656705 0.06933440479212391
31.038554054937517 57.908204674274224 0.0683893059152293
30.686615272069307 56.52313880187774 0.056060678675089376
34.59266974266872 57.137686549819975 0.05768811879072053
34.56557140266655 57.06313568724792 0.05697857536768086
11.104497253549297 63.264661150216305 0.2025042563782857
11.07488207111948 63.17172324866068 0.20059522720442488
11.050391745774803 63.100621975801154 0.19921503391915837
10.926692039668419 62.89340959651787 0.19692835989242657
10.901128003520718 62.80399333016832 0.19526610335220412
10.873671164482335 62.70436463510191 0.2044771548044608
10.846899324517533 62.61180523917608 0.22272906116290306
10.82110006694438 62.51786785544795 0.2206078401641478
10.796842900660534 62.43757792511228 0.22237047885212247
11.205298313885622 63.27930166863676 0.2002948303752852
11.17278368899397 63.283257336032456 0.20125660573719925
11.07360788535136 63.14986581809912 0.19999536515446956
11.048088782915304 63.06261064762356 0.1981991286341983
11.024199998934694 62.9706511363714 0.19627126640175158
11.007254694841212 62.9033147561801 0.19487724389078157
10.821456278633418 62.484619853229916 0.21350749507334568
10.797739926042766 62.40784383288816 0.21673807813224266
10.77569562380186 62.31717625237539 0.21620496877877537
10.744078166037724 62.22200888247195 0.21498902994999092
10.714230376969672 62.1275308624592 0.21379599057309168
10.687650533905039 62.029632995434106 0.2125309346191958
10.661205321032101 61.93186339131969 0.21156033416895906
10.63467435994566 61.83707847193179 0.20999153860432118
10.609912238820431 61.77547159961395 0.21082791097148038
11.27536729512838 63.264856899288574 0.19806799736250968
10.677179977230715 61.70764125614979 0.20620307222862475
10.665088046607613 61.62286273291798 0.2063482629728658
11.37004988455005 63.23435587756122 0.19476565508435315
10.426919703460586 60.68569403213972 0.21120484484317714
10.413259173916071 60.6347522872702 0.21192796731209435
10.387105094230565 60.54396092068624 0.21118791596394731
10.363028617335534 60.466594564805135 0.21818216265177556
11.472846185005832 63.19785457527711 0.21955641339902132
10.662869620921942 61.04579116545806 0.1966081378738684
10.638684425643817 60.9801753659814 0.20205028153206972
10.609295420778444 60.88141108332761 0.20226939313412182
10.588993896531589 60.80148261646162 0.20108086725255475
10.49331775093963 60.72522134219397 0.20793445385638842
10.358105083868708 60.425611172658954 0.21092278363706618
10.339863718408637 60.36259213212943 0.17664368396345081
10.26359987168706 60.060438677140375 0.1778801104939783
11.564327529341424 63.16966416305241 0.2150002373087567
10.995182896454098 61.57998936617166 0.16537245472848436
11.657849691914533 63.143761334871584 0.21692141849690103
11.094717432323659 61.568138602857054 0.19596893798570147
11.753268715801806 63.11630249292879 0.21150979292587804
11.166414669748729 61.52886077195407 0.1945336711380114
9.581220767510414 57.32289103801806 0.1958423188858499
11.852864937600046 63.09872950367017 0.20472797082537986
11.210630568684019 61.47314435126886 0.19543535888886288
11.235041305966293 61.43169357141523 0.2083338031811439
9.643107896949612 57.30604062748772 0.1942587416848578
11.954637067459325 63.07790332833016 0.2050922827174154
11.278933666846331 61.37543963527668 0.2137692789379724
11.282475816712424 61.278924861396185 0.21158798015336724
11.218922335339116 61.234782832593666 0.21103961750402847
9.74158172643552 57.283279748719494 0.19176130246247433
9.270500211019092 56.13773528962693 0.20541767340122533
9.246849075781949 56.02639248172373 0.2062006416851386
9.22589389507436 55.94222659804255 0.2068527118181937
9.202348392943422 55.85041697756186 0.20761136600353566
9.17364890412373 55.747886016755054 0.20848992467178637
9.155099787661664 55.662663605439626 0.20911603092905073
9.137860621268196 55.579141500561306 0.2096786772780589
12.049808225476086 63.044370880011435 0.19965752719346974
11.27434072382371 60.92708474791842 0.21171361901111144
11.267615843416767 60.89028238337998 0.19193489292072682
9.806058241520446 57.255454870041675 0.1901603203007039
9.116760860174763 55.4864118103271 0.2103841670412777
9.08698195255144 55.375788780803276 0.21130898541656856
9.05450311636383 55.257620784594614 0.2123463447477304
9.031614812738468 55.157145169789615 0.21308472356156946
12.175605855108394 63.01920282038489 0.19576581589016023
12.140191013156016 63.01634048210022 0.196324200395212
11.301397741273135 60.89662254229033 0.20361096512447777
11.326306451078787 60.847917786188745 0.2137764150186696
12.249552646284412 62.993436160872264 0.18651493127485527
12.224506486460202 62.98992572957905 0.21325071387898378
11.410091602994356 60.80579928360461 0.20372636130117025
12.341709085706688 62.968779890489735 0.19046506141239355
11.488290784467425 60.745685457577 0.2075045801871735
11.462797658539108 60.70760344041522 0.1846049506270861
12.439863511569369 62.94661605146176 0.18802031048534995
11.586927437388018 60.71126238925088 0.19947106609070098
12.538451065086711 62.92132924265301 0.1856864349846725
11.674516416897177 60.74915236162611 0.24372321598835428
11.667075714862218 60.69525067608059 0.22838791130832953
11.630366300960699 60.61175434555749 0.20264703662002123
11.600687987660804 60.54548243284072 0.18231993810974473
12.637347502464175 62.89313928072354 0.1907790456352811
12.768538111644297 62.90602307846124 0.18337757810676344
12.708700162375267 62.87690125081309 0.20324690838522158
12.845784732553065 62.88057929321778 0.18258674732419428
12.825199203412408 62.869841731636825 0.1978533998067798
12.932137395350832 62.85840036423504 0.19125850784212256
12.92690635389647 62.81270609368856 0.25216277228552797
13.036780543594144 62.83046127387672 0.20520242019666396
13.13580717557091 62.8066672917844 0.20501453876023798
13.235277645890068 62.78070886102392 0.20502502773682119
12.431646773349764 60.58263334783692 0.19234425301092378
13.331341839969495 62.75519725973542 0.20529826154034103
12.498077031208563 60.57394240920839 0.19353943804208404
13.467242150933378 62.741222512514085 0.20725185570584892
13.425504219598785 62.743371363315724 0.2065025040908707
12.59404564224651 60.548565519949456 0.19666606583425691
13.713337674630113 63.22106405208253 0.1610651770856444
13.73146964839758 63.13942236923018 0.15873487075947945
13.546149991520018 62.71047081714943 0.20655186757522384
13.517133689171253 62.7084866031248 0.20424778510297115
12.690739081809907 60.5271739453713 0.19882589288259428
13.737256960763279 63.09208647097617 0.1574235728211132
13.732205758306325 63.040326892537806 0.15604670820352623
13.624469529349174 62.688758341253404 0.20656949680591546
13.60013316789157 62.67481523902686 0.20332916195156084
12.788502105452643 60.50762204791316 0.20058375768253747
13.685306966481175 62.667820431073004 0.2068784959093994
13.70187109860643 62.6285336218088 0.20360787189519378
12.924653642587096 60.481553094887985 0.161520539726598
12.88793002444362 60.47954089100646 0.20464829907025348
13.818668969367234 62.60986833523863 0.20570189573199585
13.777184705348507 62.610306712751154 0.20466095776652798
13.00441385374307 60.455099572103144 0.16996793754953665
12.973136926330103 60.45531214818781 0.21359973975184518
13.900295350804916 62.5866675163848 0.2068513164778826
13.086478540054518 60.43147446318825 0.1885152424718929
13.06139231056964 60.42666073044225 0.2136335900781762
13.998484495619861 62.55610026738834 0.2082589279890245
13.180425599350972 60.40554025264812 0.19517976041330892
14.094077628565044 62.53077711283148 0.20993334712736475
13.281098406988875 60.38099901234669 0.19416789271643142
14.195075271299906 62.506423936319536 0.21191293317266874
13.378705076308512 60.355517054022386 0.20370011426595575
14.29655913884745 62.477385794721165 0.21383863559661306
13.473986966346983 60.33333705443904 0.20422772245170462
14.393409374203548 62.458565942436486 0.21607762701918048
13.557793982708601 60.32667649531683 0.20526008443242888
14.4879729298363 62.43456776992216 0.2181439948344597
13.705737246020911 60.290711017015504 0.19641951385424986
13.664307780327393 60.295294104895035 0.21949271135068277
14.609574251587883 62.40666402981274 0.2209885836868223
14.577746105672055 62.409262173337936 0.2200851976149186
13.781894408138193 60.2674087652522 0.20509201240191807
13.759343737936312 60.266350171560816 0.2507734666689919
14.686213708610095 62.38624098626133 0.22274571380807873
13.86667436661989 60.2469078099194 0.19406109276932118
14.786290679983187 62.36130435852168 0.22514660442952217
13.968178660770898 60.2227157966056 0.18662410763656095
14.888901053779897 62.33829876963449 0.2277405948785201
14.067017526641164 60.20102939088025 0.18936017589541815
14.980903832951993 62.313304402979036 0.2299826833235794
14.165524849710785 60.178099859403716 0.1921489789703794
15.076161380608518 62.29196992609747 0.23247534456544444
14.264413797198221 60.154458533095635 0.19499471803492066
15.173073999296683 62.268456380254186 0.23499972106499006
14.376208776168104 60.125541424367526 0.19828181284915175
15.2758704474313 62.242664740903166 0.2376914570307908
14.499714881442065 60.092956858906 0.20195916674630313
14.447656811308226 60.11016319652378 0.2003503334854246
15.394842028690888 62.2180656000426 0.2409756810876183
15.381637126937807 62.21499476561908 0.24047451499267825
14.550343142100926 60.0828951687218 0.20342520978596482
15.487506484940804 62.19016148013711 0.2433674849906869
14.655276216373057 60.056208166650755 0.2065732738150834
15.563983797344058 62.16969872684755 0.24545269715197116
14.750011452142234 60.03267036730205 0.20942309313555893
15.676030863489245 62.146652333460445 0.24871282997951893
14.841120384418039 60.00824356128722 0.21220424427120418
15.765967286523821 62.12392498961407 0.25125794108930616
14.931610591865784 59.985790236916685 0.2149529786536902
15.861984572225655 62.094042986744086 0.25388530723605723
15.045807230324076 59.957624128902886 0.21843818476719573
15.17367974651798 59.91763000877328 0.22246148286547188
15.248474740559937 59.89580809935621 0.22480466793950704
15.352800838733607 59.89406247809676 0.22774534034953176
15.30950938960778 59.882319292929196 0.2266686259097167
15.57555923770295 59.85956480300885 0.23445322816993058
15.635285931514083 59.8403492506034 0.23636726406320413
15.770056556656565 59.832668325180514 0.2403297602858258
15.810078838213204 59.82813180402138 0.24154021303850526
15.990445879466307 59.788133038556396 0.24718286030311415
16.12373403324486 59.74984412677553 0.25144842144376695
16.22859835410311 59.7265389036159 0.2547490844790891
11.114207920056302 63.318765496955415 0.35085425219943994
11.09485746146768 63.264897527241885 0.31298503218559987
11.069264530497085 63.17025951191855 0.3077658125309005
11.043593581199818 63.08564482371838 0.3199160908781828
11.019662863119128 63.023263371845765 0.33233150294767716
10.929234239808709 62.90461741299766 0.2990435223482504
10.89467448832134 62.80886589176937 0.29181297439359494
10.870180884894793 62.71456220576368 0.29274233495468216
10.840156999881009 62.613610359275555 0.3162825916977556
10.812823480949483 62.51662631230058 0.3124097315513691
10.784254860945872 62.42396986236463 0.30937512372279935
10.7579161004273 62.33949895193988 0.307016473199849
11.18752466612217 63.297542268129924 0.3206823932366573
11.154940870032082 63.287483734257286 0.2734683538841606
11.07411788067482 63.14545719644254 0.26904878595732634
11.041562805951978 63.049865558901864 0.2836488064703908
11.019550535851597 62.9703868824828 0.2936776696705911
11.00763403990447 62.909582640022364 0.2872227041244092
10.78870295022897 62.39410447222345 0.3072019525612573
10.759711821725793 62.30925240741167 0.30520613890453424
10.743390165967838 62.21952171622294 0.3021446071745218
10.711424802906349 62.12859940691574 0.3009854281397804
10.692708803972625 62.023779385359596 0.30892737790269886
10.668596806772303 61.936209734375694 0.3040607742057279
10.626303975581942 61.84418194577061 0.3022366439606721
10.59854248225499 61.77949840908832 0.300053449375707
11.27550863615848 63.26777340641469 0.30164966441993535
10.669495489550826 61.70781215723735 0.31923778970398975
10.650644753822 61.614075497263414 0.3204401286585247
10.632262533987285 61.55276305411199 0.34978254547420057
11.368507362634793 63.24053098929643 0.2947278998447309
10.439002963508402 60.69790411074066 0.31691583665103
10.398971199842016 60.63417119179303 0.3223090916313956
10.377685712184569 60.539425575498235 0.3268450098954155
10.35435240700319 60.44720984978325 0.3317072961229789
